3975 3956 3947 3938 3941 3934 3932 3922 3911 3904 3908 3908 3912 3913 3918 3936 3961 3908 3877 3843 3805 3763 3724 3712 3690 3693 3693 3683 3679 3670 3661 3644 3626 3628 3624 3614 3602 3594 3585 3582 3587 3571 3553 3543 3543 3525 3523 3507 3506 3488 3479 3476 3484 3454 3427 3411 3401 3377 3361 3332 3297 3291 3276 3266 3243 3241 3238 3227 3210 3203 3198 3187 3176 3157 3131 3116 3092 3078 3057 3040 3009 3020 3025 3029 3033 3018 3011 2997 2991 2976 2974 2961 2965 2946 2938 2930 2914 2937 2946 2948 2950 2968 2981 2985 2989 3004 3019 3026 3023 3015 3006 3006 3007 3003 2994 2985 2975 2964 2966 2987 3020 2987 2975 2956 2942 2936 2933 2936 2964 2915 2876 2842 2812 2777 2745 2717 2702 2651 2613 2574 2541 2504 2464 2429 2381 2372 2345 2315 2276 2243 2197 2153 2106 2060 2004 1965 1921 1885 1823 1784 1704 1719 1698 1687 1665 1651 1632 1603 1553 1551 1526 1507 1468 1465 1452 1443 1422 1435 1439 1417 1390 1368 1335 1315 1282 1265 1241 1200 1144 1126 1083 1047 975 1025 1031 1038 1035 1033 1031 1026 1029 1023 1019 1010 1010 1010 1019 1030 1062 1006 967 931 883 862 833 814 786 779 759 737 713 703 692 681 660 666 655 638 608 606 602 598 603 585 569 539 508 488 462 447 415 417 405 385 348 350 337 328 315 300 280 246 198 186 148 119 62
3952 3946 3943 3926 3934 3930 3927 3924 3913 3895 3903 3904 3904 3909 3915 3930 3907 3888 3890 3848 3823 3761 3749 3723 3718 3698 3686 3678 3676 3672 3661 3645 3647 3635 3630 3616 3617 3596 3584 3574 3572 3574 3563 3534 3529 3509 3509 3494 3498 3480 3482 3465 3463 3452 3435 3407 3401 3370 3366 3339 3335 3300 3291 3281 3269 3244 3245 3233 3224 3202 3194 3187 3186 3164 3155 3126 3117 3086 3075 3055 3056 3028 3025 3031 3024 3011 3011 2990 2988 2963 2959 2946 2951 2937 2944 2938 2948 2952 2939 2948 2955 2974 2971 2987 2995 3005 3019 3037 3023 3017 3016 3007 3014 3009 3000 2986 2976 2952 2959 2976 2963 2966 2975 2952 2947 2934 2920 2911 2910 2906 2890 2838 2826 2776 2746 2704 2691 2639 2619 2569 2561 2508 2491 2444 2439 2391 2369 2326 2308 2257 2225 2158 2146 2071 2041 1972 1968 1911 1883 1827 1818 1756 1729 1700 1694 1657 1649 1625 1614 1575 1553 1527 1511 1476 1467 1456 1459 1445 1441 1424 1419 1380 1366 1330 1320 1273 1259 1216 1206 1153 1128 1084 1096 1069 1044 1049 1040 1035 1029 1019 1025 1023 1017 1001 1005 1003 1002 1010 998 990 988 945 929 870 851 823 823 792 774 740 738 705 703 691 694 683 665 651 637 609 600 590 594 585 574 540 540 495 490 465 462 433 418 403 393 367 348 332 325 305 294 262 257 212 185 147 121
3937 3932 3926 3924 3933 3918 3914 3908 3901 3894 3902 3898 3895 3904 3912 3904 3892 3877 3865 3831 3807 3755 3709 3721 3730 3701 3681 3674 3662 3660 3648 3647 3647 3644 3645 3635 3633 3600 3567 3562 3558 3559 3560 3533 3521 3497 3491 3489 3496 3484 3479 3463 3459 3432 3398 3397 3402 3370 3357 3337 3341 3307 3289 3281 3276 3264 3261 3242 3223 3204 3179 3188 3196 3173 3155 3137 3128 3101 3070 3080 3086 3061 3035 3037 3031 3021 3010 2995 2991 2962 2938 2944 2949 2939 2937 2950 2966 2957 2945 2952 2952 2969 2974 2995 3007 3020 3046 3038 3022 3028 3020 3023 3035 3017 3000 2987 2975 2954 2935 2950 2945 2951 2965 2941 2928 2910 2895 2896 2892 2879 2852 2825 2814 2752 2693 2685 2676 2626 2568 2557 2555 2508 2472 2460 2459 2412 2379 2334 2306 2253 2211 2177 2158 2083 2017 1994 1987 1926 1874 1863 1867 1802 1756 1734 1722 1682 1649 1638 1627 1591 1557 1531 1517 1492 1468 1477 1485 1475 1475 1450 1434 1393 1364 1351 1342 1299 1267 1229 1214 1172 1131 1133 1148 1112 1085 1069 1047 1041 1030 1027 1029 1024 1018 1007 998 998 985 987 975 971 957 942 935 880 831 842 844 809 779 755 751 721 705 701 710 688 668 653 634 616 595 595 601 587 568 558 558 521 495 490 489 456 424 409 397 373 348 341 329 314 297 285 276 232 186 173 155
3922 3920 3918 3911 3903 3898 3898 3893 3884 3880 3885 3891 3897 3900 3894 3885 3885 3864 3846 3807 3788 3745 3751 3724 3714 3696 3696 3675 3661 3658 3655 3651 3652 3651 3649 3646 3638 3607 3591 3551 3552 3544 3533 3520 3498 3467 3479 3477 3480 3484 3470 3451 3451 3419 3417 3384 3376 3353 3347 3314 3312 3299 3301 3278 3286 3277 3269 3252 3234 3212 3206 3193 3188 3180 3171 3141 3142 3122 3124 3110 3106 3096 3078 3053 3047 3032 3017 2990 2985 2958 2963 2944 2937 2935 2952 2961 2960 2967 2969 2963 2965 2977 2987 3012 3007 3023 3035 3050 3055 3053 3041 3033 3035 3027 3016 2987 2975 2954 2955 2944 2929 2931 2926 2919 2910 2885 2896 2888 2883 2868 2841 2796 2770 2725 2723 2670 2664 2623 2603 2536 2520 2498 2500 2465 2461 2421 2392 2325 2299 2241 2231 2183 2163 2088 2073 2001 1976 1935 1933 1886 1877 1832 1821 1761 1739 1700 1690 1651 1636 1608 1582 1523 1519 1508 1510 1500 1498 1495 1484 1469 1444 1396 1397 1370 1349 1316 1286 1221 1214 1192 1195 1169 1169 1146 1138 1098 1084 1053 1052 1032 1031 1029 1025 1012 1009 1008 999 980 980 965 952 931 916 885 893 870 851 821 798 750 736 724 720 699 702 693 685 659 652 628 621 595 595 594 583 566 560 539 537 513 504 478 462 413 406 383 379 356 349 326 319 308 292 257 249 204 192
3910 3907 3907 3893 3878 3876 3869 3861 3849 3861 3871 3879 3896 3898 3897 3889 3881 3849 3821 3789 3735 3740 3731 3722 3727 3703 3686 3670 3631 3652 3651 3659 3659 3662 3654 3654 3654 3611 3574 3561 3546 3534 3513 3489 3446 3456 3453 3460 3471 3464 3452 3450 3456 3424 3406 3385 3371 3346 3322 3306 3279 3290 3289 3289 3300 3281 3274 3250 3211 3216 3198 3203 3201 3189 3170 3158 3153 3145 3139 3133 3148 3111 3077 3072 3071 3039 3016 2996 2985 2973 2960 2952 2932 2947 2963 2975 2978 2980 2980 2979 2978 2998 3007 3022 3020 3046 3062 3068 3073 3067 3057 3054 3060 3036 3016 2992 2959 2958 2950 2935 2907 2912 2910 2895 2874 2884 2885 2882 2882 2847 2809 2767 2710 2704 2683 2672 2671 2627 2580 2539 2481 2496 2484 2481 2486 2422 2363 2316 2253 2232 2196 2182 2170 2100 2047 2006 1954 1946 1926 1919 1918 1866 1827 1784 1739 1719 1690 1663 1639 1609 1570 1537 1491 1514 1518 1526 1531 1510 1490 1474 1437 1415 1389 1377 1348 1312 1268 1231 1176 1206 1208 1215 1232 1192 1160 1134 1101 1091 1076 1058 1036 1040 1033 1020 1000 1014 1011 1001 990 971 940 926 893 897 883 878 884 826 779 744 694 710 708 708 714 694 681 663 653 641 630 608 596 591 574 576 567 552 538 533 530 498 469 435 404 394 383 369 366 339 313 315 309 281 260 234 217
3893 3892 3889 3879 3876 3860 3852 3836 3845 3847 3848 3858 3874 3900 3898 3896 3872 3832 3827 3795 3787 3751 3726 3706 3708 3703 3706 3689 3685 3671 3671 3675 3673 3684 3676 3663 3643 3610 3602 3576 3564 3533 3515 3480 3489 3461 3448 3440 3443 3449 3451 3441 3430 3418 3403 3380 3367 3340 3325 3309 3309 3293 3288 3290 3284 3275 3281 3263 3265 3243 3230 3222 3217 3206 3197 3171 3175 3168 3150 3135 3136 3126 3114 3088 3068 3039 3026 2996 2996 2989 2983 2974 2968 2960 2974 3000 2993 2998 2998 2996 3012 3031 3039 3052 3056 3080 3074 3087 3084 3087 3086 3069 3062 3041 3039 3009 3002 2971 2958 2940 2933 2903 2896 2880 2891 2893 2883 2874 2857 2830 2814 2754 2752 2700 2684 2665 2656 2634 2616 2560 2560 2521 2498 2491 2462 2420 2401 2326 2311 2239 2216 2181 2150 2098 2085 2025 2023 1972 1959 1949 1928 1888 1868 1811 1802 1747 1714 1674 1664 1619 1604 1566 1571 1540 1542 1557 1539 1524 1518 1500 1486 1438 1431 1401 1372 1319 1302 1262 1275 1250 1243 1252 1241 1232 1225 1177 1174 1135 1116 1089 1083 1063 1053 1037 1046 1039 1033 1024 1012 989 969 940 943 927 905 877 859 820 815 755 759 717 711 714 707 690 689 662 666 656 639 613 618 601 600 597 584 567 562 554 539 516 494 454 448 406 389 373 369 352 342 331 321 300 289 257 245
3877 3872 3875 3861 3859 3842 3837 3826 3830 3828 3839 3847 3868 3887 3901 3884 3866 3833 3803 3788 3783 3746 3715 3705 3694 3697 3705 3697 3694 3694 3708 3694 3685 3692 3699 3669 3646 3610 3569 3572 3575 3534 3501 3492 3502 3471 3446 3436 3432 3433 3444 3421 3412 3386 3361 3350 3345 3312 3282 3297 3315 3301 3291 3289 3282 3285 3287 3280 3280 3257 3244 3243 3245 3227 3211 3196 3193 3173 3147 3151 3146 3128 3094 3083 3071 3032 2998 2992 2986 2983 2987 2983 2979 2984 3006 3009 3013 3018 3022 3034 3044 3068 3098 3094 3086 3106 3112 3103 3102 3108 3118 3092 3084 3059 3047 3022 3015 2980 2962 2947 2941 2912 2894 2887 2884 2885 2891 2862 2840 2816 2792 2756 2747 2692 2661 2649 2645 2619 2600 2575 2582 2530 2499 2478 2456 2417 2375 2328 2316 2240 2192 2159 2127 2086 2049 2037 2050 1994 1961 1956 1951 1908 1858 1835 1823 1758 1696 1678 1673 1626 1595 1593 1610 1583 1583 1575 1559 1545 1517 1516 1517 1471 1449 1410 1381 1331 1282 1296 1323 1295 1296 1286 1275 1265 1262 1227 1225 1172 1139 1119 1107 1091 1079 1074 1078 1066 1069 1043 1027 1001 960 963 968 944 925 890 857 824 802 785 787 744 719 722 717 702 690 674 667 649 636 626 630 611 607 602 601 581 562 556 549 518 479 466 464 421 375 378 369 348 321 333 342 314 290 272 263
3847 3847 3843 3832 3823 3813 3814 3804 3801 3797 3811 3826 3847 3879 3871 3874 3868 3834 3819 3771 3761 3736 3734 3706 3693 3687 3691 3700 3697 3705 3702 3709 3715 3700 3682 3669 3660 3616 3605 3568 3551 3530 3524 3486 3484 3477 3463 3429 3419 3409 3399 3389 3380 3353 3346 3314 3300 3284 3295 3285 3287 3306 3304 3296 3299 3299 3298 3293 3283 3264 3272 3262 3258 3249 3232 3211 3205 3185 3184 3177 3165 3146 3121 3081 3060 3020 3021 2990 2972 2971 2982 2992 2988 2993 3000 3020 3030 3040 3050 3074 3079 3101 3108 3141 3145 3148 3127 3113 3117 3127 3114 3098 3095 3065 3049 3020 3008 2975 2977 2946 2932 2912 2912 2892 2886 2875 2860 2843 2835 2803 2777 2732 2709 2662 2666 2626 2624 2599 2595 2560 2550 2521 2513 2467 2463 2418 2375 2298 2275 2215 2202 2138 2114 2072 2060 2024 2012 1996 2001 1965 1963 1935 1908 1850 1824 1768 1748 1671 1652 1618 1629 1603 1606 1601 1610 1604 1603 1581 1558 1532 1515 1480 1467 1412 1390 1342 1347 1319 1310 1312 1325 1321 1320 1294 1281 1246 1231 1191 1183 1142 1126 1115 1111 1102 1087 1080 1073 1054 1058 1030 1014 985 964 956 940 901 873 820 822 797 784 754 762 741 734 713 697 677 659 638 638 627 613 606 610 603 602 597 585 560 549 528 509 467 465 442 430 395 375 353 351 340 334 326 317 279 274
3818 3821 3819 3799 3775 3782 3783 3779 3768 3781 3794 3818 3845 3859 3865 3864 3865 3836 3805 3775 3734 3732 3713 3698 3664 3682 3685 3686 3678 3697 3702 3716 3744 3698 3675 3661 3659 3622 3591 3568 3539 3525 3508 3488 3475 3462 3445 3422 3395 3385 3368 3357 3334 3328 3307 3292 3244 3267 3267 3277 3277 3291 3301 3300 3311 3310 3319 3303 3289 3288 3284 3279 3277 3252 3226 3222 3216 3194 3184 3186 3193 3151 3112 3083 3047 3031 3006 2978 2931 2966 2981 2987 2981 2991 3009 3026 3054 3055 3073 3091 3119 3123 3146 3156 3196 3168 3161 3137 3119 3127 3132 3111 3101 3065 3030 3012 2991 2983 2973 2948 2911 2913 2904 2897 2886 2864 2840 2825 2804 2777 2736 2702 2653 2642 2629 2618 2612 2593 2579 2546 2519 2503 2485 2471 2471 2399 2331 2272 2212 2185 2142 2106 2054 2049 2019 2003 1980 1991 1994 1982 1994 1940 1898 1863 1823 1781 1731 1692 1625 1639 1622 1625 1626 1625 1628 1632 1646 1596 1562 1548 1534 1495 1461 1425 1359 1363 1346 1342 1327 1337 1344 1347 1369 1329 1310 1270 1228 1209 1174 1154 1111 1124 1123 1114 1090 1091 1083 1075 1079 1047 1017 991 958 952 935 904 848 837 816 804 784 776 766 761 765 718 682 664 631 634 621 611 584 606 603 607 602 594 583 566 549 527 495 485 473 456 419 407 379 366 345 346 352 337 321 304 282
3794 3802 3790 3772 3778 3759 3762 3762 3764 3768 3777 3808 3810 3848 3849 3853 3847 3840 3828 3790 3786 3747 3733 3712 3712 3694 3684 3684 3687 3704 3703 3710 3690 3673 3675 3643 3645 3622 3613 3574 3564 3523 3505 3483 3479 3454 3443 3420 3413 3370 3360 3337 3343 3320 3312 3303 3304 3276 3276 3279 3274 3283 3285 3293 3304 3313 3321 3311 3318 3317 3307 3293 3279 3257 3253 3237 3220 3191 3194 3190 3173 3156 3139 3095 3092 3053 3024 2986 3003 2984 2974 2995 2987 2983 2995 3022 3029 3055 3077 3101 3104 3128 3130 3143 3149 3168 3174 3156 3154 3132 3129 3114 3106 3066 3048 3007 3014 2995 2984 2962 2959 2928 2918 2909 2888 2857 2845 2816 2806 2768 2738 2687 2677 2624 2618 2606 2602 2582 2566 2526 2523 2489 2481 2462 2430 2376 2340 2249 2246 2174 2147 2091 2095 2051 2022 1991 2004 1997 1989 1978 1967 1933 1931 1881 1867 1805 1788 1743 1740 1691 1662 1652 1649 1647 1645 1651 1627 1598 1600 1564 1550 1506 1502 1468 1461 1408 1390 1376 1375 1367 1358 1355 1352 1346 1338 1298 1291 1244 1230 1192 1185 1148 1143 1141 1128 1111 1095 1087 1082 1065 1045 1005 998 959 954 932 917 867 841 821 813 800 788 774 755 714 706 666 666 648 631 612 629 634 625 620 608 595 588 574 569 537 528 507 508 491 473 438 427 389 371 348 352 350 349 335 318
3762 3767 3770 3762 3765 3756 3755 3745 3744 3756 3766 3781 3790 3826 3852 3838 3831 3825 3820 3804 3804 3764 3739 3735 3732 3711 3695 3688 3678 3696 3720 3698 3675 3660 3641 3641 3640 3614 3598 3574 3568 3524 3478 3480 3471 3451 3425 3423 3417 3376 3340 3344 3347 3318 3292 3310 3330 3306 3306 3285 3268 3284 3288 3304 3312 3326 3352 3334 3327 3324 3329 3300 3284 3263 3243 3233 3226 3195 3180 3175 3165 3140 3115 3102 3108 3056 3011 3023 3039 3012 2988 2998 2990 2990 2995 3019 3033 3065 3100 3109 3114 3128 3133 3135 3140 3160 3178 3165 3168 3150 3151 3126 3112 3066 3021 3019 3026 3004 2991 2979 2973 2944 2925 2904 2883 2846 2821 2808 2800 2746 2695 2673 2664 2617 2592 2589 2592 2563 2546 2519 2501 2470 2454 2426 2398 2331 2266 2234 2230 2157 2112 2099 2097 2046 1995 1999 2012 2000 2002 1982 1963 1939 1917 1898 1887 1831 1781 1784 1796 1738 1683 1679 1677 1662 1659 1650 1634 1612 1593 1578 1569 1533 1503 1505 1510 1460 1419 1410 1412 1394 1385 1375 1363 1355 1342 1324 1315 1277 1259 1236 1226 1190 1174 1151 1137 1112 1094 1097 1093 1066 1032 1020 1013 987 970 952 936 886 831 829 816 803 797 783 768 726 682 673 670 650 633 637 650 652 662 637 614 600 582 579 583 550 522 528 541 514 492 468 462 412 371 365 367 360 360 347 337
3742 3735 3740 3743 3744 3747 3735 3722 3736 3747 3753 3762 3779 3817 3809 3816 3821 3811 3818 3802 3795 3766 3774 3760 3746 3723 3714 3698 3688 3684 3679 3690 3681 3653 3651 3643 3625 3598 3593 3559 3555 3527 3517 3489 3476 3456 3451 3430 3415 3379 3380 3355 3333 3313 3326 3315 3317 3313 3310 3289 3291 3297 3301 3323 3317 3327 3334 3347 3345 3326 3319 3294 3291 3268 3252 3226 3204 3184 3185 3165 3154 3124 3121 3091 3083 3054 3070 3056 3054 3037 3036 3019 3002 2994 3009 3027 3038 3074 3084 3122 3133 3140 3131 3127 3136 3157 3149 3158 3158 3150 3145 3129 3116 3066 3063 3023 3011 3006 2999 2991 2980 2951 2936 2901 2872 2826 2827 2796 2774 2721 2709 2648 2625 2591 2590 2566 2557 2532 2530 2503 2479 2436 2421 2390 2360 2284 2268 2191 2160 2113 2130 2099 2090 2041 2035 2001 1986 1990 1994 1987 1972 1943 1937 1909 1893 1851 1849 1819 1810 1783 1759 1704 1689 1668 1669 1657 1650 1626 1616 1588 1577 1554 1559 1542 1533 1504 1488 1435 1428 1413 1418 1399 1388 1370 1362 1341 1316 1291 1293 1267 1256 1215 1202 1154 1141 1108 1118 1114 1100 1076 1065 1030 1020 1007 996 971 959 910 896 851 828 802 805 796 787 743 724 676 663 651 658 653 656 664 660 655 649 609 603 580 576 558 556 542 540 534 515 483 469 427 416 374 366 363 364 358 354
3729 3722 3720 3720 3719 3717 3709 3713 3720 3742 3761 3764 3774 3800 3815 3812 3807 3816 3829 3814 3795 3779 3769 3763 3763 3728 3704 3690 3675 3669 3665 3669 3663 3643 3634 3630 3620 3588 3575 3552 3537 3510 3486 3483 3482 3459 3449 3432 3429 3389 3372 3351 3324 3327 3330 3337 3349 3328 3310 3302 3274 3307 3319 3333 3333 3343 3352 3354 3358 3340 3331 3300 3275 3263 3233 3209 3164 3172 3168 3154 3149 3124 3107 3091 3074 3065 3063 3076 3112 3073 3051 3035 3009 3022 3025 3043 3057 3082 3107 3129 3170 3149 3145 3139 3130 3137 3141 3143 3147 3143 3135 3126 3120 3084 3052 3027 2994 2991 2973 2979 2988 2949 2920 2883 2836 2820 2805 2781 2760 2714 2670 2630 2566 2564 2542 2540 2540 2507 2493 2468 2434 2395 2357 2337 2313 2251 2200 2147 2071 2090 2079 2092 2111 2048 2001 1987 1958 1982 1990 1977 1956 1945 1936 1917 1896 1866 1840 1843 1860 1801 1753 1734 1704 1693 1675 1670 1660 1640 1618 1606 1574 1575 1573 1577 1585 1540 1505 1478 1447 1453 1451 1427 1400 1397 1375 1349 1293 1306 1299 1294 1285 1245 1215 1177 1130 1126 1113 1114 1119 1088 1063 1039 1012 1006 996 981 985 925 888 859 830 817 808 809 812 753 712 682 643 655 658 667 674 672 673 664 671 633 610 597 587 562 543 548 562 530 504 485 474 438 401 386 359 367 368 370 369
3717 3707 3710 3701 3704 3694 3700 3703 3713 3742 3742 3762 3771 3796 3802 3810 3818 3819 3828 3832 3814 3788 3781 3763 3749 3723 3713 3685 3680 3655 3658 3659 3643 3624 3631 3623 3600 3561 3556 3539 3526 3493 3489 3477 3466 3450 3443 3421 3408 3376 3378 3353 3357 3343 3344 3356 3343 3340 3345 3338 3340 3338 3338 3358 3360 3363 3365 3360 3355 3345 3332 3302 3308 3279 3255 3216 3210 3173 3154 3137 3138 3119 3112 3092 3092 3072 3068 3074 3074 3092 3090 3062 3067 3062 3053 3064 3069 3090 3092 3120 3117 3141 3153 3154 3144 3123 3122 3127 3130 3140 3133 3123 3117 3099 3083 3039 3030 2991 2978 2967 2956 2937 2924 2878 2869 2816 2795 2766 2753 2706 2690 2636 2618 2557 2537 2514 2496 2466 2465 2443 2420 2353 2336 2289 2268 2210 2191 2129 2140 2097 2077 2079 2055 2039 2029 1989 2000 1993 1983 1978 1970 1948 1942 1930 1914 1879 1874 1855 1839 1808 1813 1776 1764 1725 1709 1689 1680 1656 1661 1644 1629 1599 1603 1610 1591 1568 1562 1527 1530 1504 1485 1460 1463 1444 1424 1387 1379 1341 1330 1328 1305 1265 1258 1209 1199 1153 1126 1112 1107 1095 1090 1054 1044 1009 993 974 957 920 910 869 869 830 828 822 793 748 743 699 702 668 669 685 677 680 674 659 655 642 642 614 600 562 560 547 538 523 513 479 481 451 444 411 408 379 377 385 390
3715 3707 3705 3702 3703 3690 3685 3693 3700 3723 3747 3758 3766 3796 3830 3829 3828 3839 3854 3830 3810 3790 3779 3755 3743 3714 3684 3683 3678 3654 3644 3636 3627 3617 3614 3603 3585 3544 3505 3508 3499 3471 3450 3451 3451 3433 3420 3401 3387 3364 3357 3356 3362 3355 3356 3350 3349 3350 3353 3362 3377 3376 3382 3395 3400 3402 3407 3387 3366 3356 3325 3322 3320 3287 3250 3234 3220 3183 3142 3138 3129 3109 3091 3091 3099 3071 3055 3064 3069 3086 3096 3087 3095 3085 3080 3088 3097 3105 3102 3111 3102 3129 3148 3154 3154 3130 3109 3117 3113 3125 3125 3119 3112 3097 3074 3050 3039 2994 2961 2958 2947 2925 2893 2873 2863 2812 2763 2753 2737 2695 2660 2628 2609 2554 2512 2488 2462 2440 2412 2405 2394 2331 2269 2241 2217 2161 2112 2119 2135 2092 2064 2046 2025 2006 1980 1995 2020 2000 2004 1979 1964 1952 1937 1926 1914 1885 1866 1852 1854 1822 1808 1798 1802 1753 1720 1707 1701 1689 1686 1668 1658 1634 1632 1620 1613 1591 1571 1571 1586 1551 1532 1510 1497 1478 1467 1431 1414 1385 1360 1345 1329 1291 1273 1239 1219 1163 1110 1111 1108 1097 1092 1060 1050 1008 978 960 940 905 869 878 892 856 833 817 796 755 714 717 730 695 682 685 687 683 686 660 646 642 643 623 617 575 544 542 539 517 490 486 490 465 442 437 443 408 386 406 417
3699 3701 3704 3700 3694 3678 3684 3686 3691 3704 3721 3760 3766 3793 3804 3850 3857 3855 3838 3827 3817 3786 3772 3738 3735 3706 3704 3687 3668 3640 3637 3615 3609 3604 3596 3590 3572 3525 3522 3489 3465 3445 3444 3427 3422 3412 3405 3379 3356 3336 3356 3353 3354 3360 3349 3341 3345 3360 3366 3382 3392 3408 3419 3442 3440 3438 3425 3415 3412 3389 3371 3344 3329 3300 3289 3252 3239 3200 3187 3144 3116 3097 3100 3085 3074 3060 3071 3060 3074 3090 3090 3097 3098 3106 3108 3113 3121 3134 3122 3121 3123 3127 3136 3162 3148 3135 3133 3119 3120 3124 3121 3117 3122 3103 3087 3049 3027 2985 2990 2957 2946 2925 2903 2861 2842 2808 2794 2747 2719 2678 2663 2610 2588 2540 2528 2467 2449 2420 2405 2372 2352 2310 2279 2191 2155 2105 2125 2103 2084 2072 2065 2018 2002 1982 1994 1991 1985 1984 1986 1973 1984 1962 1950 1925 1911 1883 1871 1835 1832 1818 1820 1808 1790 1765 1761 1719 1723 1716 1701 1685 1678 1650 1648 1625 1626 1612 1613 1600 1592 1582 1578 1552 1543 1504 1492 1456 1455 1425 1404 1363 1342 1297 1290 1255 1227 1171 1163 1117 1106 1094 1080 1047 1037 995 994 950 930 892 904 885 877 872 855 819 806 765 757 725 714 703 702 688 687 682 669 652 649 639 628 620 613 577 576 538 533 517 512 488 480 477 472 455 448 425 436 437 440
3682 3691 3702 3695 3693 3678 3671 3678 3690 3708 3721 3742 3767 3787 3809 3841 3894 3851 3844 3819 3801 3774 3754 3738 3717 3702 3683 3676 3664 3638 3617 3603 3575 3581 3563 3567 3560 3521 3490 3469 3423 3425 3408 3407 3400 3394 3379 3355 3291 3332 3349 3352 3347 3349 3336 3338 3326 3360 3374 3399 3425 3435 3449 3464 3498 3461 3449 3441 3440 3410 3385 3366 3348 3314 3284 3267 3254 3216 3184 3149 3081 3102 3090 3083 3063 3067 3066 3080 3092 3100 3106 3103 3094 3106 3118 3130 3160 3141 3137 3132 3143 3140 3156 3152 3150 3137 3127 3128 3130 3131 3130 3126 3144 3106 3085 3048 3001 2994 2982 2962 2941 2915 2880 2847 2808 2793 2759 2735 2689 2670 2629 2595 2545 2527 2496 2453 2399 2397 2367 2349 2316 2281 2223 2165 2056 2089 2075 2077 2051 2054 2038 2004 1946 1974 1978 1982 1986 1972 1967 1976 1998 1969 1952 1924 1900 1880 1854 1837 1809 1813 1803 1799 1781 1773 1759 1745 1737 1725 1702 1697 1694 1672 1659 1648 1636 1631 1628 1617 1618 1602 1595 1579 1584 1538 1511 1487 1472 1449 1414 1381 1350 1313 1279 1248 1209 1181 1147 1131 1103 1095 1074 1048 1014 1000 981 952 901 909 899 894 883 866 840 823 808 772 742 728 714 704 688 689 698 675 657 641 621 619 609 613 613 587 575 551 536 524 505 494 468 478 468 468 470 449 441 452 467
3671 3681 3684 3687 3681 3671 3672 3668 3688 3717 3712 3721 3734 3780 3786 3812 3798 3811 3824 3805 3798 3756 3755 3743 3734 3702 3689 3670 3662 3632 3632 3607 3604 3583 3564 3557 3539 3512 3505 3475 3465 3425 3410 3394 3399 3388 3391 3372 3379 3353 3351 3360 3362 3355 3352 3352 3364 3381 3389 3417 3421 3460 3461 3470 3455 3461 3468 3461 3450 3429 3420 3387 3372 3327 3320 3281 3273 3229 3222 3188 3185 3141 3110 3094 3090 3080 3086 3104 3102 3115 3116 3116 3113 3108 3107 3129 3121 3136 3143 3130 3134 3135 3141 3140 3145 3136 3145 3138 3135 3140 3126 3113 3108 3092 3094 3058 3054 3009 2991 2969 2959 2917 2895 2842 2840 2797 2782 2745 2736 2684 2648 2597 2587 2530 2504 2452 2454 2404 2382 2344 2324 2275 2258 2191 2193 2123 2096 2082 2073 2055 2043 2017 2020 1990 1978 1976 1961 1953 1956 1967 1961 1967 1955 1921 1913 1883 1869 1853 1850 1824 1824 1806 1806 1790 1784 1767 1762 1747 1732 1710 1702 1685 1691 1674 1668 1650 1640 1625 1628 1616 1606 1586 1583 1554 1543 1511 1512 1485 1458 1400 1386 1329 1304 1252 1251 1200 1194 1158 1147 1109 1089 1058 1049 1010 998 978 976 946 926 911 899 869 853 826 815 775 762 733 733 711 701 682 680 666 656 637 627 608 609 610 596 584 579 555 552 538 530 518 513 500 485 480 474 460 469 464 466
3652 3668 3688 3681 3666 3665 3656 3671 3698 3708 3722 3719 3717 3756 3788 3772 3760 3771 3788 3785 3790 3751 3721 3733 3740 3704 3670 3667 3665 3639 3625 3616 3611 3577 3543 3539 3524 3501 3475 3470 3472 3436 3400 3403 3408 3400 3405 3400 3413 3398 3402 3391 3384 3376 3356 3370 3390 3404 3435 3431 3434 3461 3492 3466 3443 3449 3454 3457 3464 3440 3427 3404 3389 3353 3327 3307 3299 3254 3219 3221 3229 3172 3127 3110 3097 3090 3097 3111 3123 3130 3142 3130 3122 3116 3099 3109 3101 3125 3146 3133 3136 3140 3146 3145 3151 3148 3159 3142 3137 3130 3123 3105 3098 3083 3082 3061 3065 3017 2988 2977 2968 2922 2880 2854 2842 2809 2779 2770 2756 2694 2624 2608 2592 2538 2490 2475 2466 2417 2384 2342 2312 2279 2251 2230 2237 2168 2124 2100 2080 2063 2051 2036 2035 2010 2002 1969 1938 1932 1921 1936 1945 1937 1934 1911 1898 1868 1842 1853 1870 1853 1857 1834 1825 1807 1798 1789 1777 1761 1734 1721 1713 1702 1714 1696 1689 1664 1650 1649 1645 1628 1606 1604 1600 1566 1523 1530 1541 1500 1475 1432 1402 1343 1287 1272 1275 1228 1209 1185 1174 1128 1088 1069 1056 1021 991 993 999 967 946 930 919 882 837 829 819 778 733 734 746 718 698 688 687 658 624 615 606 596 599 588 581 572 567 546 543 530 529 526 532 509 494 492 488 479 484 467 467
3640 3654 3663 3684 3680 3667 3666 3665 3675 3697 3700 3719 3723 3740 3723 3728 3725 3726 3735 3758 3750 3738 3745 3729 3721 3705 3698 3666 3656 3637 3643 3624 3608 3572 3569 3533 3518 3494 3488 3459 3459 3450 3442 3412 3405 3402 3413 3413 3422 3426 3425 3419 3419 3409 3396 3384 3394 3412 3420 3439 3454 3459 3454 3460 3458 3438 3446 3451 3446 3442 3430 3415 3403 3369 3358 3321 3306 3272 3271 3248 3234 3193 3180 3122 3105 3088 3105 3121 3127 3140 3137 3141 3143 3136 3124 3109 3108 3118 3115 3123 3137 3145 3137 3144 3148 3147 3138 3134 3133 3121 3112 3086 3082 3061 3060 3039 3033 3008 3007 2983 2965 2925 2909 2854 2840 2821 2820 2801 2776 2713 2697 2621 2589 2543 2537 2492 2471 2417 2396 2331 2312 2279 2272 2241 2234 2188 2179 2117 2099 2067 2059 2042 2036 2015 2000 1962 1950 1916 1921 1911 1908 1904 1905 1892 1873 1850 1859 1848 1858 1863 1857 1851 1840 1818 1818 1816 1809 1787 1763 1729 1717 1696 1701 1708 1697 1670 1679 1676 1664 1645 1639 1625 1608 1587 1576 1545 1527 1500 1494 1454 1425 1356 1338 1274 1261 1231 1233 1200 1185 1142 1127 1076 1058 1027 1027 1004 995 980 974 947 937 903 880 836 820 785 773 727 721 719 708 685 677 655 633 593 583 573 572 565 564 557 540 519 515 511 522 525 524 512 511 506 498 486 474 456 457
3616 3640 3663 3672 3681 3667 3666 3674 3683 3683 3687 3693 3711 3707 3707 3691 3660 3690 3697 3714 3718 3720 3725 3720 3730 3702 3681 3666 3651 3650 3648 3628 3612 3586 3562 3540 3505 3495 3475 3462 3454 3443 3435 3421 3406 3420 3429 3433 3445 3445 3444 3442 3448 3427 3409 3416 3424 3432 3442 3457 3485 3470 3465 3452 3443 3444 3452 3446 3437 3422 3401 3404 3404 3374 3356 3327 3305 3286 3266 3269 3278 3223 3178 3142 3086 3105 3115 3132 3150 3144 3145 3146 3155 3141 3129 3117 3107 3109 3118 3118 3135 3129 3124 3139 3158 3139 3123 3121 3119 3112 3106 3082 3059 3049 3045 3021 3006 2992 2973 2964 2964 2924 2889 2856 2808 2823 2817 2816 2814 2753 2700 2641 2568 2551 2524 2498 2488 2420 2372 2322 2256 2265 2258 2254 2258 2207 2174 2135 2091 2073 2049 2036 2036 2011 1988 1962 1923 1927 1922 1910 1899 1892 1879 1861 1819 1836 1841 1850 1882 1854 1846 1840 1836 1820 1813 1825 1838 1797 1760 1735 1709 1698 1690 1695 1699 1679 1683 1676 1688 1656 1643 1632 1614 1598 1574 1559 1542 1515 1484 1453 1416 1366 1320 1289 1255 1244 1226 1212 1192 1152 1117 1087 1043 1038 1021 1010 1007 989 971 957 954 908 865 840 825 794 763 733 708 701 684 677 672 634 599 578 545 549 544 542 537 527 504 497 464 493 509 516 530 507 494 497 509 482 466 455 450
3616 3628 3633 3661 3653 3656 3676 3684 3670 3666 3659 3658 3665 3673 3682 3672 3677 3678 3671 3684 3685 3699 3702 3698 3700 3692 3691 3667 3669 3666 3653 3631 3629 3600 3590 3561 3545 3509 3485 3462 3457 3436 3440 3431 3438 3445 3440 3447 3448 3465 3462 3459 3453 3443 3446 3447 3443 3450 3450 3463 3460 3473 3460 3440 3450 3445 3442 3445 3430 3408 3405 3397 3382 3368 3361 3327 3331 3304 3300 3287 3265 3245 3232 3183 3175 3134 3122 3142 3134 3142 3153 3144 3143 3145 3135 3126 3115 3095 3095 3097 3105 3112 3119 3132 3123 3131 3123 3108 3107 3102 3096 3080 3062 3032 3020 2997 3002 2984 2965 2937 2936 2918 2905 2875 2878 2848 2838 2832 2817 2786 2758 2677 2658 2572 2535 2490 2464 2405 2386 2331 2327 2269 2263 2260 2246 2209 2203 2161 2143 2087 2053 2019 2022 2007 2003 1978 1971 1950 1932 1910 1908 1889 1877 1855 1856 1835 1826 1829 1827 1827 1837 1830 1829 1814 1825 1833 1818 1805 1786 1744 1738 1697 1692 1684 1676 1666 1669 1658 1660 1651 1652 1646 1641 1617 1606 1576 1563 1534 1509 1459 1437 1373 1355 1308 1307 1266 1250 1232 1210 1160 1153 1113 1099 1062 1039 1009 1009 1001 986 959 943 910 887 837 839 806 778 735 729 694 682 668 645 611 604 575 567 536 525 522 522 511 510 501 499 488 481 502 490 492 487 482 471 469 463 451 442
3606 3614 3628 3629 3632 3651 3685 3672 3664 3653 3632 3636 3645 3657 3672 3657 3652 3657 3663 3668 3661 3683 3693 3687 3685 3678 3675 3660 3663 3663 3665 3644 3639 3613 3588 3566 3551 3506 3467 3458 3455 3441 3441 3436 3443 3451 3462 3458 3453 3469 3481 3471 3466 3457 3449 3458 3469 3463 3465 3467 3462 3462 3442 3445 3451 3439 3435 3424 3418 3394 3379 3375 3365 3354 3348 3328 3340 3313 3305 3281 3262 3240 3224 3204 3207 3161 3128 3141 3137 3155 3176 3151 3140 3131 3117 3112 3111 3095 3084 3090 3093 3095 3099 3108 3107 3109 3096 3099 3097 3089 3086 3054 3030 3011 2994 2988 2985 2962 2935 2925 2916 2893 2864 2880 2900 2873 2867 2850 2833 2796 2757 2708 2686 2587 2510 2476 2440 2383 2323 2326 2336 2287 2267 2264 2259 2218 2186 2167 2153 2083 2018 2011 2014 2002 1993 1974 1968 1954 1947 1923 1912 1889 1867 1859 1857 1838 1824 1815 1812 1808 1810 1819 1829 1818 1820 1831 1824 1800 1759 1750 1751 1712 1680 1674 1667 1659 1656 1650 1648 1640 1626 1644 1661 1635 1620 1592 1568 1535 1504 1464 1434 1381 1325 1327 1334 1283 1249 1233 1223 1174 1148 1118 1104 1070 1043 1023 1008 997 979 955 935 896 847 844 851 801 746 732 726 684 660 636 618 584 558 556 558 525 497 511 513 504 491 497 506 486 473 470 459 457 445 446 441 438 423 426 426
3591 3594 3591 3597 3614 3633 3634 3655 3662 3650 3632 3610 3619 3641 3633 3635 3637 3637 3646 3666 3670 3682 3670 3674 3671 3661 3652 3637 3648 3660 3653 3642 3647 3626 3603 3565 3547 3497 3492 3450 3439 3432 3435 3431 3436 3457 3459 3471 3479 3480 3474 3480 3480 3471 3471 3468 3465 3469 3471 3478 3472 3471 3461 3450 3440 3425 3422 3401 3396 3373 3377 3360 3343 3335 3322 3300 3304 3303 3294 3271 3265 3230 3228 3202 3200 3176 3177 3158 3152 3165 3149 3146 3141 3122 3117 3097 3099 3093 3095 3088 3083 3078 3086 3096 3099 3102 3103 3097 3088 3072 3062 3023 3015 2990 2993 2977 2967 2944 2937 2914 2896 2876 2885 2884 2873 2878 2881 2870 2862 2810 2776 2714 2669 2581 2559 2464 2425 2366 2365 2316 2295 2276 2289 2271 2261 2219 2208 2168 2135 2077 2062 1994 1990 1994 1984 1957 1960 1954 1942 1923 1917 1890 1882 1858 1850 1837 1820 1796 1790 1783 1799 1809 1808 1810 1829 1848 1841 1815 1796 1749 1740 1723 1708 1666 1655 1649 1652 1641 1646 1638 1650 1646 1646 1644 1634 1607 1584 1537 1517 1461 1440 1392 1383 1342 1314 1284 1273 1230 1212 1168 1159 1107 1101 1073 1060 1032 1021 1001 982 948 932 895 880 842 827 801 780 723 699 657 648 599 579 551 556 535 528 512 518 515 509 503 499 492 486 477 469 448 442 433 431 417 422 420 419 406 412
3575 3565 3569 3574 3601 3603 3616 3630 3658 3622 3607 3601 3596 3610 3612 3611 3604 3621 3631 3647 3670 3662 3664 3657 3657 3642 3628 3623 3622 3639 3650 3643 3655 3612 3584 3561 3540 3506 3471 3452 3410 3423 3423 3426 3417 3448 3468 3477 3503 3486 3485 3488 3491 3485 3481 3479 3474 3476 3471 3475 3477 3475 3464 3456 3444 3427 3413 3397 3378 3369 3357 3341 3299 3304 3290 3287 3265 3279 3265 3259 3254 3235 3220 3207 3199 3184 3170 3168 3159 3158 3151 3135 3120 3117 3111 3097 3089 3089 3091 3084 3085 3080 3077 3088 3101 3099 3107 3099 3088 3069 3057 3019 2961 2980 2978 2967 2953 2935 2905 2894 2860 2872 2865 2870 2867 2876 2878 2877 2902 2812 2749 2695 2624 2575 2507 2450 2362 2366 2340 2312 2267 2278 2274 2271 2287 2224 2186 2150 2110 2071 2027 2001 1957 1982 1972 1957 1936 1933 1925 1914 1911 1887 1871 1849 1839 1820 1790 1783 1758 1782 1794 1801 1805 1813 1829 1850 1881 1832 1798 1766 1730 1719 1694 1668 1625 1651 1651 1655 1652 1663 1669 1668 1670 1652 1626 1606 1574 1546 1502 1462 1405 1395 1364 1335 1306 1279 1247 1225 1203 1171 1140 1110 1076 1056 1031 1018 1008 988 971 938 909 885 851 834 820 784 747 715 673 644 610 576 509 532 520 519 507 499 489 506 521 502 488 487 484 466 448 432 415 417 416 408 409 408 410 406 406
3525 3523 3525 3529 3544 3563 3579 3592 3578 3575 3591 3591 3591 3591 3589 3594 3600 3612 3616 3623 3622 3633 3633 3633 3634 3625 3622 3607 3620 3627 3623 3627 3611 3584 3587 3558 3554 3519 3511 3480 3467 3427 3424 3433 3433 3450 3446 3469 3467 3477 3496 3499 3499 3499 3499 3495 3495 3492 3478 3476 3480 3490 3482 3466 3455 3429 3417 3399 3396 3368 3367 3351 3335 3294 3294 3293 3288 3283 3268 3247 3245 3237 3225 3207 3207 3193 3193 3185 3173 3159 3148 3124 3126 3116 3102 3093 3096 3085 3078 3075 3076 3081 3078 3080 3081 3088 3099 3104 3087 3059 3059 3035 3028 2993 2970 2960 2955 2939 2926 2900 2905 2890 2871 2867 2869 2881 2871 2860 2837 2787 2775 2695 2681 2589 2554 2469 2471 2396 2363 2327 2324 2297 2274 2255 2239 2205 2198 2136 2129 2071 2058 2026 2029 2007 1983 1966 1953 1920 1915 1898 1898 1876 1861 1829 1833 1817 1806 1788 1798 1794 1788 1798 1797 1809 1817 1842 1828 1837 1832 1787 1778 1731 1723 1688 1698 1680 1663 1677 1679 1695 1691 1690 1680 1668 1660 1620 1614 1571 1538 1482 1474 1420 1383 1328 1319 1282 1260 1223 1214 1173 1157 1117 1094 1045 1030 1001 1004 974 964 927 926 887 863 826 813 771 765 719 702 637 624 586 593 550 531 517 506 491 493 501 492 497 500 486 476 457 445 420 427 405 401 392 397 393 402 403 401
3478 3476 3473 3488 3515 3531 3563 3550 3532 3539 3543 3565 3578 3575 3578 3579 3585 3598 3628 3614 3603 3603 3597 3611 3617 3611 3601 3605 3620 3615 3618 3605 3585 3569 3554 3552 3557 3527 3508 3500 3491 3456 3426 3431 3428 3449 3450 3461 3456 3481 3506 3510 3515 3515 3512 3512 3514 3496 3470 3483 3486 3490 3495 3479 3461 3435 3398 3402 3407 3385 3372 3356 3339 3312 3291 3289 3288 3283 3277 3253 3233 3219 3204 3201 3208 3197 3196 3187 3178 3160 3151 3126 3116 3100 3080 3090 3095 3077 3066 3064 3059 3062 3066 3069 3079 3087 3105 3090 3078 3059 3056 3040 3028 2991 2966 2954 2946 2932 2912 2915 2926 2899 2870 2872 2866 2872 2876 2852 2824 2775 2716 2701 2694 2605 2534 2516 2514 2429 2370 2342 2333 2300 2277 2247 2225 2196 2164 2139 2125 2069 2025 2040 2056 2023 2003 1978 1955 1924 1906 1896 1893 1858 1830 1821 1817 1803 1782 1802 1822 1812 1803 1801 1790 1806 1813 1819 1805 1819 1824 1800 1799 1761 1743 1732 1733 1707 1673 1688 1693 1713 1728 1709 1696 1686 1682 1654 1640 1581 1528 1501 1493 1424 1381 1329 1304 1265 1232 1220 1213 1171 1136 1099 1076 1030 998 999 1010 974 948 931 920 878 830 819 806 774 751 717 707 645 600 608 626 582 548 521 496 482 474 481 483 487 499 485 475 450 421 425 437 412 395 390 390 391 404 396 394
3432 3432 3434 3437 3451 3486 3493 3514 3512 3509 3521 3548 3545 3556 3557 3559 3560 3567 3578 3603 3599 3582 3593 3600 3600 3603 3602 3595 3599 3595 3595 3592 3578 3555 3553 3539 3532 3524 3530 3522 3510 3481 3472 3440 3451 3469 3464 3472 3475 3485 3496 3521 3526 3537 3531 3528 3523 3508 3506 3501 3491 3490 3496 3496 3490 3455 3442 3406 3393 3394 3387 3363 3354 3325 3316 3285 3286 3286 3272 3258 3241 3203 3203 3186 3190 3192 3194 3192 3177 3154 3142 3116 3108 3088 3093 3092 3077 3062 3067 3058 3045 3044 3048 3051 3064 3077 3072 3073 3068 3045 3049 3041 3020 2980 2979 2945 2947 2932 2931 2923 2919 2910 2909 2888 2881 2867 2862 2851 2834 2775 2755 2699 2661 2605 2604 2547 2511 2437 2416 2340 2321 2293 2274 2233 2223 2190 2171 2133 2105 2057 2072 2055 2049 2029 2022 1991 1966 1917 1914 1889 1873 1836 1834 1808 1795 1797 1809 1818 1823 1830 1824 1813 1814 1815 1813 1817 1815 1811 1801 1792 1783 1771 1772 1765 1759 1742 1729 1711 1717 1738 1725 1723 1717 1698 1690 1674 1646 1588 1568 1504 1472 1404 1383 1304 1292 1242 1237 1213 1196 1164 1134 1068 1044 1002 1008 988 983 966 958 932 913 876 858 817 797 768 742 694 674 636 646 622 617 604 579 525 509 470 471 466 466 472 473 482 471 447 444 424 416 413 402 386 376 378 381 385 384
3387 3390 3392 3406 3411 3442 3457 3467 3464 3485 3498 3514 3534 3533 3537 3536 3538 3549 3559 3571 3583 3580 3588 3592 3601 3595 3595 3596 3606 3590 3576 3567 3549 3544 3533 3526 3513 3517 3518 3519 3531 3497 3479 3472 3469 3481 3490 3492 3493 3505 3525 3532 3540 3540 3544 3540 3544 3520 3504 3505 3505 3511 3514 3511 3517 3479 3447 3418 3375 3386 3384 3373 3357 3333 3316 3299 3285 3273 3257 3241 3226 3206 3192 3182 3180 3187 3186 3182 3169 3145 3121 3108 3077 3080 3079 3076 3076 3056 3053 3036 3015 3028 3039 3046 3063 3060 3061 3054 3051 3037 3035 3024 3005 2981 2964 2957 2946 2937 2924 2921 2932 2921 2915 2905 2901 2881 2867 2853 2837 2784 2724 2686 2624 2604 2571 2549 2529 2443 2375 2333 2284 2276 2239 2223 2193 2172 2138 2115 2066 2059 2054 2061 2087 2037 2012 1986 1955 1924 1895 1882 1863 1825 1799 1781 1748 1784 1804 1828 1864 1843 1832 1825 1828 1828 1832 1822 1819 1808 1798 1778 1748 1761 1756 1769 1789 1757 1733 1733 1748 1748 1746 1736 1722 1709 1692 1667 1642 1586 1543 1496 1452 1389 1332 1293 1241 1222 1191 1183 1178 1138 1091 1043 970 980 967 974 980 950 926 914 896 860 819 795 776 741 700 668 618 628 622 627 643 599 561 529 496 474 455 459 454 459 455 460 459 444 433 417 408 389 372 364 348 360 371 367 373
3356 3351 3365 3386 3390 3416 3423 3434 3447 3470 3465 3476 3486 3508 3504 3513 3515 3535 3536 3541 3551 3569 3576 3581 3579 3584 3587 3588 3586 3583 3569 3554 3557 3539 3531 3519 3520 3516 3513 3505 3503 3499 3506 3501 3500 3498 3498 3516 3514 3518 3528 3542 3538 3542 3542 3545 3541 3524 3529 3512 3524 3536 3525 3517 3516 3499 3490 3445 3435 3392 3387 3389 3373 3337 3334 3313 3304 3266 3254 3223 3223 3206 3191 3172 3188 3191 3178 3183 3171 3138 3138 3118 3106 3078 3064 3057 3049 3034 3036 3018 3028 3014 3018 3031 3029 3040 3041 3034 3037 3018 3019 3016 3005 2976 2983 2975 2965 2948 2927 2907 2915 2927 2923 2917 2904 2889 2886 2859 2851 2800 2773 2697 2690 2619 2598 2552 2517 2433 2413 2334 2340 2291 2261 2230 2211 2167 2153 2123 2110 2059 2053 2049 2035 2020 2025 1989 1979 1932 1916 1881 1852 1802 1798 1770 1793 1787 1795 1826 1822 1846 1843 1829 1839 1837 1828 1820 1824 1805 1800 1776 1785 1771 1767 1767 1767 1766 1765 1743 1751 1762 1763 1755 1747 1725 1708 1663 1640 1573 1554 1488 1462 1371 1353 1297 1281 1217 1191 1152 1146 1119 1096 1045 1039 984 969 961 939 931 924 903 886 849 822 771 767 722 704 663 669 636 625 621 605 588 580 534 524 478 469 463 459 455 450 445 439 438 426 405 394 364 365 350 352 345 338 339 348
3330 3328 3337 3356 3367 3399 3431 3428 3427 3447 3451 3463 3462 3472 3461 3474 3476 3502 3530 3522 3535 3548 3573 3565 3565 3570 3575 3575 3578 3559 3534 3547 3559 3538 3517 3511 3513 3511 3520 3498 3493 3492 3493 3505 3525 3513 3510 3521 3533 3540 3561 3550 3543 3546 3542 3550 3552 3550 3538 3539 3544 3547 3542 3539 3535 3514 3499 3472 3459 3419 3392 3393 3385 3359 3331 3325 3322 3276 3243 3223 3207 3189 3160 3180 3199 3185 3161 3178 3178 3151 3127 3118 3110 3077 3046 3044 3029 3025 3018 3023 3029 3016 3015 3017 3008 3022 3028 3030 3036 3014 2991 3000 2996 2986 2979 2975 2973 2945 2909 2905 2903 2911 2918 2904 2896 2890 2895 2883 2880 2820 2760 2729 2723 2648 2599 2551 2512 2430 2358 2350 2360 2298 2242 2225 2208 2167 2129 2125 2120 2077 2038 2027 2017 2008 2006 1986 1983 1932 1898 1862 1831 1793 1758 1782 1817 1811 1822 1823 1814 1832 1835 1844 1861 1843 1828 1839 1841 1820 1803 1797 1797 1782 1785 1781 1779 1769 1763 1757 1768 1770 1789 1773 1764 1742 1724 1668 1634 1570 1513 1477 1446 1369 1294 1287 1281 1213 1155 1143 1124 1089 1043 1036 1038 989 963 929 897 892 882 875 869 825 774 760 757 706 657 659 678 639 628 605 591 570 558 534 523 476 439 450 464 454 448 430 418 412 405 387 377 354 340 339 341 336 321 328 333
3288 3297 3312 3336 3342 3382 3387 3423 3438 3442 3441 3464 3461 3458 3451 3448 3449 3470 3471 3484 3497 3516 3522 3541 3550 3558 3551 3559 3559 3542 3549 3542 3538 3538 3522 3498 3494 3496 3493 3477 3483 3486 3488 3504 3510 3519 3522 3528 3535 3550 3547 3557 3563 3559 3560 3564 3580 3586 3572 3565 3565 3567 3566 3565 3556 3525 3514 3485 3472 3434 3439 3409 3407 3383 3369 3336 3315 3273 3266 3220 3197 3184 3192 3190 3187 3189 3191 3192 3180 3163 3150 3119 3105 3076 3070 3045 3031 3020 3024 3029 3015 3007 3016 3014 3015 3014 3012 3023 3022 3014 3013 2999 2997 2993 2989 2976 2966 2951 2937 2903 2897 2898 2894 2886 2891 2881 2892 2898 2900 2843 2817 2737 2711 2651 2625 2541 2496 2418 2414 2351 2330 2302 2284 2221 2192 2167 2164 2130 2118 2093 2068 2007 1999 1991 1989 1968 1958 1916 1905 1841 1808 1781 1795 1786 1787 1818 1819 1833 1834 1833 1833 1852 1853 1847 1859 1869 1859 1834 1828 1812 1793 1777 1788 1793 1782 1770 1765 1755 1753 1762 1768 1786 1791 1757 1719 1651 1629 1562 1535 1464 1430 1368 1352 1279 1250 1202 1193 1141 1116 1073 1061 1019 1000 971 955 897 883 858 861 848 835 811 794 738 726 691 683 639 631 615 613 580 568 545 542 522 500 467 469 437 440 450 435 412 413 387 381 362 352 336 339 325 335 339 328 319 319
3237 3272 3286 3307 3314 3349 3379 3406 3457 3433 3433 3449 3472 3446 3437 3427 3420 3444 3454 3461 3459 3482 3497 3510 3531 3524 3522 3539 3562 3541 3534 3530 3541 3514 3495 3483 3467 3481 3486 3470 3449 3467 3472 3496 3526 3517 3516 3533 3555 3549 3551 3564 3576 3569 3575 3588 3630 3596 3586 3587 3593 3590 3591 3589 3595 3545 3514 3492 3471 3457 3455 3441 3445 3403 3372 3352 3320 3294 3249 3217 3142 3187 3189 3201 3212 3194 3185 3194 3206 3167 3142 3122 3098 3081 3052 3046 3015 3022 3021 3020 3008 3009 3016 3014 3017 3009 3006 3015 3023 3011 3006 3006 3005 3002 2993 2980 2960 2950 2923 2910 2880 2892 2891 2885 2880 2886 2893 2911 2964 2865 2809 2753 2697 2649 2586 2526 2428 2420 2375 2356 2312 2297 2255 2218 2140 2166 2152 2140 2120 2093 2054 2018 1960 1984 1982 1969 1942 1919 1882 1828 1715 1775 1782 1794 1787 1804 1808 1830 1851 1839 1835 1852 1880 1863 1862 1874 1905 1853 1827 1809 1782 1786 1786 1788 1782 1766 1758 1746 1734 1742 1757 1775 1835 1752 1706 1640 1580 1543 1482 1444 1378 1358 1317 1273 1226 1195 1149 1131 1098 1069 1028 1009 969 951 916 879 814 841 842 826 801 786 760 732 703 678 648 634 613 604 581 561 520 524 513 492 454 460 452 443 434 427 414 405 408 381 359 343 307 321 321 324 338 326 316 314 307
3257 3271 3275 3295 3296 3322 3329 3367 3366 3401 3420 3427 3422 3419 3423 3406 3422 3434 3438 3450 3450 3456 3453 3472 3471 3486 3498 3515 3510 3528 3523 3503 3499 3482 3487 3473 3480 3475 3470 3468 3471 3462 3463 3483 3484 3507 3520 3534 3526 3543 3556 3572 3565 3568 3580 3583 3579 3583 3600 3606 3606 3610 3611 3605 3585 3549 3543 3498 3499 3469 3468 3457 3445 3415 3408 3382 3373 3336 3312 3260 3265 3233 3208 3213 3200 3192 3200 3195 3181 3158 3158 3132 3131 3098 3090 3072 3061 3032 3028 3022 3016 3006 3013 3012 3005 3002 3006 3008 3006 3001 3011 3016 3012 3018 3011 2994 2987 2966 2961 2934 2927 2902 2888 2883 2884 2890 2883 2890 2864 2844 2838 2769 2749 2665 2623 2549 2548 2461 2430 2389 2368 2321 2305 2259 2258 2206 2182 2161 2143 2106 2094 2052 2052 2005 1992 1984 1974 1937 1922 1875 1877 1823 1806 1821 1803 1804 1809 1831 1821 1837 1836 1842 1845 1864 1860 1860 1852 1848 1847 1816 1819 1799 1791 1791 1773 1754 1746 1737 1729 1716 1710 1722 1715 1713 1704 1623 1620 1550 1521 1454 1441 1371 1338 1272 1262 1206 1181 1137 1127 1078 1060 1021 1001 951 932 890 892 850 828 814 802 775 766 727 721 673 668 638 631 607 587 566 556 519 500 482 486 467 462 449 436 411 399 386 382 370 370 345 345 321 310 315 313 314 317 317 310
3263 3279 3299 3289 3281 3300 3315 3324 3319 3363 3395 3408 3411 3402 3396 3401 3414 3425 3450 3445 3440 3439 3428 3435 3432 3447 3461 3475 3476 3496 3500 3488 3480 3468 3455 3468 3478 3467 3470 3467 3469 3464 3461 3473 3474 3499 3514 3520 3514 3536 3554 3568 3570 3583 3593 3584 3575 3585 3584 3607 3623 3621 3636 3608 3598 3561 3532 3518 3518 3487 3475 3464 3453 3425 3392 3398 3405 3366 3333 3316 3319 3275 3244 3224 3208 3202 3204 3198 3187 3163 3138 3147 3152 3120 3092 3096 3089 3067 3043 3028 3017 3016 3026 3003 2990 2995 2997 3005 3009 3010 3006 3008 3008 3016 3028 3006 2997 2985 2985 2960 2950 2919 2887 2878 2874 2874 2873 2856 2830 2809 2776 2757 2754 2666 2583 2583 2599 2511 2443 2412 2389 2350 2329 2315 2312 2263 2221 2187 2153 2126 2098 2091 2098 2049 2020 2007 1993 1961 1934 1928 1930 1890 1868 1842 1808 1812 1815 1814 1811 1820 1814 1829 1839 1842 1836 1841 1840 1831 1821 1820 1834 1805 1795 1780 1763 1743 1713 1709 1705 1688 1671 1671 1668 1656 1646 1608 1601 1536 1500 1471 1457 1385 1332 1282 1253 1203 1157 1153 1145 1096 1044 1025 1004 955 918 905 913 864 834 802 780 766 762 734 724 684 660 646 634 597 563 562 561 522 482 486 482 480 481 451 432 403 366 367 358 354 358 348 357 323 300 300 304 300 300 303 307
3266 3284 3278 3284 3284 3282 3290 3297 3311 3340 3352 3399 3393 3382 3387 3388 3391 3403 3417 3441 3437 3433 3421 3410 3407 3410 3424 3449 3461 3481 3471 3470 3468 3456 3462 3466 3454 3448 3456 3463 3469 3467 3469 3477 3488 3501 3500 3519 3517 3533 3545 3576 3587 3601 3585 3585 3591 3600 3601 3616 3615 3615 3607 3595 3597 3566 3558 3526 3514 3489 3493 3473 3466 3442 3439 3414 3401 3390 3380 3352 3343 3307 3286 3234 3221 3205 3206 3208 3195 3172 3173 3167 3155 3141 3143 3133 3123 3105 3078 3033 3019 3016 3004 2986 2993 2991 2999 3008 3022 3025 3016 3004 3010 3012 3006 3008 3010 2995 2988 2973 2966 2938 2916 2871 2869 2861 2852 2834 2821 2786 2773 2732 2716 2665 2663 2602 2590 2541 2514 2429 2408 2363 2373 2362 2348 2314 2284 2216 2195 2150 2143 2117 2111 2074 2067 2034 2013 1980 1990 1974 1966 1939 1920 1872 1859 1822 1815 1801 1805 1818 1817 1822 1821 1830 1832 1831 1826 1816 1822 1812 1810 1792 1791 1772 1768 1744 1721 1682 1678 1663 1654 1626 1620 1600 1593 1564 1542 1495 1506 1476 1453 1381 1357 1273 1247 1198 1205 1173 1160 1117 1095 1032 1005 949 943 900 893 861 840 782 768 748 747 724 719 680 680 653 627 585 587 561 559 526 525 501 490 490 471 443 440 406 389 359 343 333 332 335 333 317 310 281 284 285 286 290 294
3253 3268 3283 3277 3274 3285 3300 3299 3295 3330 3353 3375 3397 3376 3367 3374 3378 3395 3411 3419 3424 3410 3401 3393 3381 3395 3407 3425 3453 3455 3457 3452 3446 3445 3446 3449 3448 3439 3438 3450 3478 3464 3463 3480 3513 3503 3506 3508 3505 3530 3560 3581 3620 3596 3584 3585 3589 3602 3614 3626 3645 3616 3598 3591 3591 3562 3545 3525 3511 3496 3492 3479 3475 3460 3448 3430 3411 3397 3374 3370 3382 3327 3285 3249 3202 3214 3206 3206 3196 3181 3167 3172 3174 3161 3149 3152 3164 3121 3085 3043 2987 3002 2997 2987 2972 2987 3008 3019 3059 3030 3027 3012 3018 3004 2997 3001 3011 2994 2988 2973 2971 2936 2906 2884 2858 2858 2842 2820 2792 2774 2747 2718 2694 2661 2632 2618 2635 2547 2488 2446 2397 2387 2378 2376 2389 2336 2295 2243 2196 2180 2155 2149 2157 2104 2062 2047 2021 2019 2014 2009 2019 1972 1940 1901 1874 1853 1831 1814 1789 1809 1818 1819 1818 1823 1828 1824 1823 1817 1820 1813 1815 1789 1767 1765 1764 1728 1696 1676 1654 1645 1624 1603 1584 1567 1543 1514 1466 1460 1453 1448 1456 1375 1319 1261 1188 1199 1197 1189 1196 1134 1086 1037 996 952 919 899 893 846 806 769 711 738 739 731 713 687 666 645 613 591 571 571 589 538 514 500 487 482 470 448 430 396 359 341 314 317 305 309 323 301 288 277 272 273 267 277 286
3250 3252 3261 3270 3273 3286 3285 3307 3314 3333 3326 3351 3347 3358 3365 3366 3376 3391 3391 3400 3391 3382 3390 3381 3383 3382 3382 3394 3403 3430 3437 3435 3433 3434 3438 3436 3430 3425 3424 3424 3434 3451 3459 3467 3469 3492 3501 3504 3511 3524 3540 3571 3563 3580 3590 3583 3599 3606 3616 3630 3608 3606 3598 3583 3567 3546 3540 3518 3516 3495 3488 3476 3478 3476 3468 3447 3441 3413 3402 3374 3364 3337 3326 3276 3278 3245 3231 3215 3211 3189 3192 3183 3181 3181 3171 3163 3154 3132 3117 3068 3064 3010 2998 2994 2983 2977 2978 3002 3000 3012 3014 3000 3006 2989 2992 2991 2988 2982 2975 2961 2954 2931 2928 2902 2894 2871 2847 2815 2812 2772 2748 2701 2694 2654 2632 2605 2574 2524 2526 2470 2461 2412 2395 2375 2369 2348 2334 2268 2268 2222 2199 2168 2150 2125 2112 2074 2080 2061 2049 2030 2019 1990 1973 1921 1924 1885 1860 1836 1830 1814 1808 1819 1821 1818 1821 1814 1815 1809 1815 1808 1796 1783 1773 1759 1742 1711 1711 1674 1665 1639 1615 1581 1579 1543 1521 1483 1475 1429 1413 1410 1387 1345 1342 1267 1274 1213 1200 1191 1172 1138 1109 1035 1024 944 923 884 871 826 821 778 787 757 747 750 729 690 683 649 637 595 582 563 548 524 528 499 497 483 465 449 431 392 370 334 336 316 293 276 277 279 271 268 271 271 264 266 271
3246 3258 3269 3265 3254 3272 3276 3303 3318 3331 3328 3335 3328 3339 3340 3358 3382 3384 3395 3383 3372 3367 3374 3366 3370 3371 3373 3381 3383 3407 3430 3419 3408 3420 3437 3425 3416 3407 3399 3406 3424 3429 3441 3452 3454 3477 3495 3500 3512 3535 3562 3559 3542 3567 3577 3599 3623 3624 3639 3614 3583 3579 3560 3558 3543 3527 3507 3505 3509 3488 3470 3470 3470 3472 3474 3460 3456 3428 3412 3390 3371 3345 3312 3302 3308 3274 3265 3243 3234 3212 3201 3196 3193 3184 3168 3172 3174 3142 3106 3095 3094 3038 3003 2986 2965 2965 2964 2979 2979 2988 2985 2997 3011 2990 2973 2984 2983 2969 2947 2941 2939 2918 2908 2900 2899 2870 2845 2831 2822 2771 2728 2699 2676 2624 2576 2561 2538 2503 2478 2467 2477 2424 2399 2387 2376 2355 2334 2300 2287 2243 2210 2178 2152 2125 2092 2099 2124 2094 2085 2062 2042 2003 1962 1952 1951 1896 1847 1840 1840 1820 1811 1825 1831 1827 1835 1822 1811 1812 1822 1798 1776 1763 1736 1739 1732 1709 1695 1667 1652 1620 1588 1576 1568 1518 1477 1458 1448 1396 1350 1353 1343 1320 1302 1278 1299 1234 1209 1183 1162 1120 1070 1039 1031 945 871 857 856 812 789 786 809 778 771 763 740 714 681 660 638 601 559 551 536 514 500 491 495 471 442 429 414 373 327 329 337 301 268 255 248 237 217 238 258 253 250 258 262
3253 3265 3260 3270 3268 3272 3284 3311 3331 3345 3334 3336 3335 3330 3336 3345 3353 3371 3367 3365 3351 3341 3343 3342 3346 3361 3365 3375 3371 3386 3388 3403 3397 3404 3401 3414 3406 3391 3389 3380 3388 3403 3423 3449 3450 3467 3471 3490 3512 3543 3539 3562 3565 3571 3582 3614 3619 3631 3616 3604 3599 3570 3563 3548 3530 3514 3512 3487 3485 3478 3479 3467 3467 3468 3467 3465 3459 3433 3432 3403 3391 3360 3342 3314 3295 3281 3282 3261 3255 3226 3227 3210 3204 3197 3198 3183 3179 3159 3148 3113 3082 3046 3036 2984 2973 2956 2970 2972 2978 2978 2986 2994 2988 2988 2992 2992 2981 2966 2952 2919 2913 2897 2904 2892 2884 2865 2862 2842 2817 2762 2749 2693 2655 2590 2583 2525 2495 2474 2473 2446 2432 2410 2423 2399 2394 2365 2347 2313 2289 2254 2237 2184 2169 2133 2133 2109 2107 2106 2104 2091 2074 2021 2015 1977 1944 1902 1891 1838 1822 1816 1830 1839 1831 1825 1827 1830 1820 1808 1799 1788 1783 1760 1747 1729 1711 1699 1681 1648 1636 1601 1596 1568 1539 1487 1477 1424 1400 1358 1352 1310 1301 1291 1276 1244 1237 1216 1214 1171 1158 1112 1082 1020 993 936 909 817 799 778 795 770 769 775 788 791 786 747 722 672 651 613 593 546 518 496 494 470 471 464 449 411 403 359 356 320 303 284 274 229 224 207 219 212 216 235 244 255 265
3248 3252 3259 3260 3261 3273 3299 3330 3394 3351 3340 3337 3349 3340 3344 3346 3357 3353 3351 3333 3304 3315 3317 3317 3309 3340 3354 3357 3351 3367 3383 3375 3352 3372 3381 3385 3382 3374 3369 3375 3370 3398 3419 3434 3443 3458 3476 3495 3520 3529 3539 3557 3565 3579 3601 3622 3657 3625 3608 3598 3586 3568 3552 3533 3500 3507 3506 3488 3469 3467 3464 3468 3465 3472 3466 3468 3465 3448 3439 3412 3392 3366 3326 3313 3273 3286 3279 3273 3269 3248 3240 3221 3208 3215 3221 3209 3209 3174 3147 3111 3066 3049 3022 2995 2949 2976 2988 2985 2998 2991 2993 2988 2988 2980 2980 2985 2995 2961 2940 2918 2891 2894 2890 2882 2874 2857 2843 2832 2819 2767 2721 2677 2610 2583 2541 2498 2406 2445 2435 2427 2396 2409 2408 2407 2416 2368 2335 2301 2258 2248 2223 2191 2151 2151 2138 2130 2122 2106 2096 2094 2101 2050 2020 1981 1937 1913 1876 1847 1789 1820 1827 1839 1850 1831 1825 1816 1810 1801 1792 1777 1763 1748 1725 1709 1683 1668 1647 1628 1601 1586 1563 1547 1516 1475 1430 1396 1342 1327 1294 1285 1256 1255 1226 1213 1189 1189 1170 1156 1143 1091 1034 1000 948 914 854 810 730 773 778 768 744 769 779 802 837 771 731 693 641 619 577 544 474 488 475 466 451 439 429 407 401 365 334 313 283 273 249 229 194 208 211 211 202 215 230 251 280
3237 3238 3239 3251 3249 3263 3277 3319 3305 3325 3333 3326 3332 3337 3338 3339 3336 3336 3329 3315 3316 3300 3297 3303 3316 3338 3334 3348 3349 3350 3356 3363 3363 3351 3355 3366 3362 3355 3371 3383 3385 3400 3405 3427 3429 3447 3468 3494 3495 3516 3537 3562 3559 3582 3592 3617 3597 3605 3612 3596 3591 3564 3561 3533 3538 3508 3502 3492 3485 3458 3464 3477 3479 3490 3483 3478 3471 3458 3446 3416 3417 3388 3372 3340 3333 3314 3296 3286 3277 3259 3249 3227 3240 3236 3232 3224 3209 3183 3170 3121 3118 3065 3057 3028 3034 3013 2987 2984 2988 2995 2993 2980 2979 2967 2973 2975 2966 2946 2948 2922 2922 2899 2878 2874 2864 2849 2846 2826 2811 2769 2750 2687 2673 2594 2575 2523 2526 2468 2441 2431 2430 2424 2412 2407 2389 2357 2351 2300 2301 2257 2239 2208 2210 2185 2168 2151 2127 2103 2097 2088 2080 2060 2049 1993 1992 1940 1924 1888 1882 1848 1834 1841 1831 1827 1821 1801 1805 1794 1785 1765 1768 1745 1732 1701 1686 1644 1639 1617 1613 1580 1568 1543 1520 1469 1451 1391 1375 1317 1302 1281 1272 1247 1224 1194 1201 1184 1173 1140 1124 1076 1059 1001 990 919 903 841 853 807 781 780 782 779 782 801 783 769 775 729 712 648 626 582 567 507 481 469 447 413 408 387 390 369 352 315 311 276 264 244 238 220 216 219 203 193 206 241 248
3225 3226 3221 3222 3226 3244 3268 3281 3277 3291 3290 3306 3326 3326 3330 3329 3328 3319 3308 3300 3298 3291 3281 3300 3308 3330 3344 3351 3346 3351 3360 3360 3358 3355 3354 3352 3347 3351 3365 3378 3390 3407 3423 3425 3423 3454 3488 3491 3495 3517 3552 3552 3555 3580 3607 3590 3566 3585 3592 3592 3598 3579 3562 3559 3559 3529 3508 3494 3486 3470 3455 3478 3487 3497 3502 3492 3482 3466 3448 3435 3426 3395 3369 3358 3355 3329 3311 3298 3285 3272 3243 3245 3258 3253 3260 3233 3209 3190 3169 3146 3142 3098 3071 3064 3073 3037 3004 2996 2988 2992 3002 2981 2977 2964 2965 2966 2963 2946 2929 2925 2928 2888 2848 2850 2845 2834 2835 2817 2809 2766 2728 2699 2691 2620 2575 2567 2572 2512 2462 2445 2433 2424 2421 2403 2384 2360 2333 2311 2314 2266 2235 2228 2225 2200 2187 2153 2118 2099 2077 2086 2078 2063 2043 2019 2015 1967 1932 1918 1916 1880 1860 1844 1829 1825 1806 1803 1803 1785 1774 1771 1772 1739 1721 1696 1677 1642 1612 1607 1608 1576 1548 1528 1505 1462 1428 1384 1365 1307 1268 1264 1269 1234 1200 1196 1201 1182 1179 1138 1110 1064 1017 1000 1007 946 907 896 913 853 810 798 791 791 805 794 783 768 765 746 740 680 635 612 604 532 477 452 433 401 382 377 378 352 325 318 321 283 254 244 242 235 234 210 190 186 190 214 225
3217 3220 3206 3191 3200 3219 3229 3261 3262 3272 3277 3285 3294 3311 3313 3320 3320 3307 3295 3280 3280 3285 3291 3311 3316 3330 3341 3366 3358 3349 3353 3360 3361 3358 3353 3343 3338 3337 3355 3376 3387 3417 3415 3430 3440 3459 3461 3489 3485 3506 3515 3542 3553 3577 3566 3570 3574 3578 3575 3585 3587 3592 3589 3582 3567 3544 3531 3491 3491 3483 3492 3493 3495 3510 3507 3506 3500 3477 3468 3450 3429 3397 3391 3371 3356 3338 3336 3312 3320 3303 3282 3253 3254 3258 3252 3240 3235 3201 3187 3154 3139 3116 3109 3087 3082 3058 3046 3009 2998 2983 2980 2967 2965 2949 2960 2963 2962 2948 2940 2921 2907 2880 2872 2836 2825 2809 2810 2798 2788 2759 2739 2690 2670 2620 2630 2599 2591 2549 2524 2455 2445 2420 2419 2403 2394 2366 2342 2299 2281 2261 2261 2246 2236 2203 2191 2156 2134 2098 2104 2101 2090 2073 2059 2026 2019 1982 1972 1936 1925 1897 1884 1847 1852 1839 1822 1802 1790 1772 1780 1775 1753 1721 1716 1685 1674 1636 1627 1593 1591 1569 1556 1517 1500 1449 1421 1355 1328 1281 1282 1241 1239 1221 1218 1190 1181 1167 1152 1125 1113 1054 1033 975 966 951 952 924 916 885 870 813 808 792 792 790 782 757 759 753 734 698 680 629 607 540 518 432 412 377 375 361 348 338 330 311 305 283 274 237 243 244 227 198 197 173 183 200 200
3207 3202 3190 3181 3170 3196 3213 3234 3249 3258 3275 3280 3291 3297 3297 3309 3325 3291 3268 3262 3249 3269 3272 3304 3345 3344 3363 3362 3373 3360 3358 3362 3367 3362 3356 3345 3318 3348 3360 3375 3390 3406 3426 3433 3451 3463 3476 3473 3460 3491 3519 3527 3544 3555 3564 3558 3543 3560 3571 3578 3582 3587 3586 3585 3582 3554 3530 3509 3483 3502 3508 3517 3525 3522 3527 3514 3515 3484 3466 3449 3422 3398 3371 3364 3349 3346 3339 3339 3355 3316 3289 3272 3263 3258 3252 3244 3242 3209 3187 3158 3119 3112 3092 3099 3112 3074 3045 3021 2999 2990 2984 2967 2945 2951 2952 2955 2973 2944 2930 2909 2900 2871 2845 2826 2809 2803 2790 2780 2760 2733 2699 2673 2644 2623 2611 2613 2641 2567 2522 2480 2446 2436 2423 2405 2387 2357 2320 2283 2232 2240 2226 2240 2260 2213 2181 2149 2098 2108 2101 2105 2110 2083 2062 2040 2025 1993 1958 1948 1938 1904 1877 1862 1864 1838 1820 1800 1782 1776 1770 1756 1744 1710 1688 1666 1654 1624 1602 1596 1592 1561 1530 1506 1486 1435 1378 1325 1250 1255 1241 1233 1226 1208 1192 1176 1170 1141 1118 1098 1096 1040 993 968 924 939 929 931 949 901 871 844 820 804 795 784 779 758 744 737 723 688 654 631 624 551 497 432 362 355 331 331 314 312 295 300 304 273 256 242 238 232 224 202 184 179 170 179 177
3190 3192 3184 3176 3183 3183 3193 3215 3214 3237 3247 3271 3270 3289 3289 3294 3282 3264 3268 3254 3265 3270 3266 3291 3298 3338 3345 3348 3355 3362 3368 3366 3366 3370 3372 3363 3371 3378 3370 3377 3380 3392 3403 3428 3439 3467 3463 3468 3473 3481 3481 3505 3519 3537 3540 3555 3554 3548 3558 3574 3578 3591 3596 3593 3582 3561 3555 3533 3542 3534 3533 3545 3529 3529 3522 3508 3504 3481 3484 3461 3441 3403 3394 3367 3364 3358 3350 3352 3335 3318 3313 3285 3282 3262 3252 3242 3233 3209 3201 3174 3163 3122 3113 3106 3098 3084 3073 3031 3031 2996 2989 2973 2972 2959 2941 2933 2933 2926 2916 2887 2889 2862 2850 2815 2821 2804 2785 2772 2754 2716 2700 2662 2655 2620 2613 2603 2587 2559 2559 2499 2501 2458 2437 2409 2394 2357 2339 2284 2285 2242 2229 2228 2218 2208 2202 2161 2166 2136 2116 2111 2103 2089 2079 2047 2036 2007 1993 1960 1937 1906 1888 1860 1854 1831 1820 1796 1797 1781 1760 1737 1723 1690 1676 1639 1638 1606 1611 1597 1580 1555 1533 1493 1479 1429 1395 1317 1320 1251 1237 1227 1211 1194 1177 1154 1144 1109 1090 1053 1050 1019 1018 980 978 954 935 924 918 902 908 874 853 812 796 773 775 753 743 729 711 677 664 620 605 543 523 437 431 350 334 319 309 303 297 292 272 250 255 238 236 223 216 203 205 192 179 171 172
3171 3164 3162 3169 3183 3184 3206 3196 3194 3214 3233 3243 3247 3269 3282 3277 3273 3252 3231 3249 3268 3262 3254 3274 3294 3322 3350 3349 3347 3358 3372 3368 3370 3377 3388 3382 3390 3389 3407 3397 3392 3403 3402 3421 3436 3456 3468 3465 3468 3475 3480 3502 3517 3531 3524 3543 3550 3557 3568 3576 3578 3596 3618 3598 3588 3569 3547 3557 3574 3566 3572 3552 3537 3533 3529 3511 3502 3486 3482 3453 3435 3405 3386 3367 3362 3354 3344 3343 3332 3314 3297 3287 3292 3262 3244 3236 3231 3210 3179 3172 3171 3135 3107 3111 3113 3089 3068 3052 3052 3015 2991 2979 2974 2954 2928 2926 2921 2907 2880 2878 2878 2853 2826 2814 2821 2791 2757 2751 2741 2702 2664 2652 2642 2611 2585 2580 2576 2552 2540 2522 2528 2469 2438 2414 2390 2362 2331 2308 2294 2253 2217 2222 2211 2202 2180 2178 2187 2148 2121 2120 2114 2098 2073 2045 2028 1997 1980 1944 1924 1886 1848 1853 1851 1823 1791 1792 1792 1768 1741 1720 1696 1666 1634 1619 1620 1590 1590 1572 1566 1529 1495 1480 1464 1409 1349 1334 1334 1265 1221 1200 1183 1162 1135 1126 1122 1079 1029 1024 1012 992 977 975 986 956 939 929 920 906 908 879 857 816 779 778 779 750 712 712 697 664 636 611 606 537 488 455 442 364 306 296 286 277 280 271 252 242 228 222 230 213 203 199 204 182 171 168 169
3139 3133 3146 3157 3150 3164 3166 3169 3184 3194 3198 3222 3234 3258 3251 3260 3258 3242 3244 3245 3238 3257 3256 3258 3275 3308 3315 3351 3354 3353 3359 3366 3376 3380 3377 3387 3378 3381 3397 3412 3422 3428 3419 3420 3430 3454 3453 3459 3469 3474 3490 3508 3524 3547 3538 3546 3550 3565 3569 3586 3583 3597 3595 3595 3600 3581 3582 3575 3576 3585 3578 3557 3558 3539 3528 3508 3497 3480 3469 3434 3428 3398 3389 3354 3357 3353 3347 3346 3335 3312 3300 3276 3265 3253 3254 3229 3233 3221 3203 3165 3160 3142 3141 3119 3110 3094 3085 3059 3047 3024 3017 2979 2976 2956 2949 2922 2922 2904 2894 2868 2856 2846 2832 2795 2791 2782 2771 2735 2719 2689 2682 2640 2625 2600 2593 2558 2553 2534 2539 2522 2492 2453 2458 2421 2404 2373 2358 2323 2299 2262 2262 2235 2219 2210 2200 2187 2166 2150 2154 2136 2135 2119 2088 2034 2018 1975 1964 1912 1901 1867 1874 1854 1837 1820 1819 1792 1778 1758 1746 1708 1690 1644 1626 1586 1569 1546 1550 1535 1528 1503 1502 1471 1445 1396 1388 1339 1306 1256 1237 1170 1153 1136 1128 1094 1086 1057 1051 1004 976 960 967 959 954 948 950 935 919 895 894 880 860 819 816 783 781 757 744 710 682 647 630 583 567 513 509 456 424 361 345 273 254 242 259 261 251 240 225 195 191 198 197 186 179 164 172 164 164
3114 3118 3126 3124 3120 3135 3149 3154 3167 3175 3184 3203 3226 3227 3239 3241 3248 3228 3219 3223 3222 3237 3244 3259 3283 3293 3308 3333 3362 3357 3373 3372 3389 3380 3374 3372 3359 3385 3408 3419 3442 3434 3437 3439 3447 3460 3465 3471 3475 3489 3513 3530 3564 3554 3544 3555 3567 3573 3575 3581 3583 3593 3610 3602 3606 3590 3584 3585 3598 3592 3596 3576 3564 3542 3529 3501 3474 3477 3462 3435 3400 3397 3372 3356 3336 3344 3330 3335 3338 3304 3282 3264 3234 3242 3244 3238 3239 3217 3195 3176 3157 3148 3135 3130 3121 3095 3076 3059 3040 3027 3014 2993 2980 2964 2945 2933 2934 2906 2883 2862 2833 2831 2809 2792 2764 2765 2748 2731 2696 2685 2658 2636 2599 2598 2574 2563 2538 2539 2524 2506 2456 2447 2430 2415 2386 2373 2346 2320 2282 2275 2258 2239 2215 2207 2194 2176 2150 2148 2144 2147 2166 2118 2086 2043 1992 1970 1941 1902 1845 1860 1852 1847 1827 1822 1813 1791 1773 1749 1727 1692 1668 1624 1580 1553 1512 1511 1502 1495 1485 1477 1468 1446 1420 1386 1354 1319 1281 1243 1191 1152 1088 1112 1101 1087 1058 1044 1022 982 914 943 939 939 935 941 933 926 910 894 884 862 834 824 808 796 806 762 731 700 661 632 594 571 537 504 464 441 392 358 306 269 196 239 249 247 226 227 216 186 146 172 175 174 165 163 159 157 159
3090 3101 3095 3096 3100 3110 3116 3134 3138 3155 3163 3180 3177 3186 3197 3217 3211 3206 3209 3208 3217 3226 3230 3253 3249 3273 3286 3312 3316 3342 3349 3362 3367 3380 3375 3370 3381 3394 3397 3414 3418 3430 3446 3455 3461 3475 3480 3488 3487 3496 3511 3538 3538 3563 3563 3564 3569 3587 3580 3583 3583 3584 3589 3597 3594 3589 3591 3583 3591 3592 3597 3588 3575 3536 3525 3494 3505 3494 3476 3445 3448 3421 3398 3365 3369 3358 3341 3327 3309 3284 3286 3266 3258 3237 3233 3240 3228 3213 3211 3189 3185 3161 3155 3147 3128 3092 3088 3064 3059 3031 3019 3000 2997 2976 2957 2932 2922 2903 2896 2864 2860 2838 2821 2801 2798 2766 2763 2746 2739 2698 2679 2647 2645 2621 2605 2585 2583 2560 2546 2525 2504 2451 2442 2423 2420 2389 2373 2330 2331 2301 2277 2249 2241 2212 2198 2175 2171 2150 2146 2143 2128 2102 2100 2060 2042 1972 1956 1913 1922 1876 1866 1855 1847 1829 1815 1786 1779 1741 1717 1668 1658 1606 1578 1534 1524 1484 1469 1459 1459 1452 1449 1428 1415 1374 1356 1304 1299 1245 1226 1161 1166 1125 1109 1098 1077 1039 1033 990 997 960 932 925 937 949 940 927 915 888 874 852 853 835 818 790 781 754 741 701 681 626 609 570 558 502 492 452 441 376 360 303 314 270 253 253 243 227 216 190 197 170 168 172 168 166 154 146 156
3057 3067 3070 3071 3069 3084 3103 3112 3117 3136 3152 3157 3160 3162 3160 3180 3182 3185 3176 3195 3218 3219 3220 3228 3226 3257 3278 3300 3303 3322 3331 3347 3356 3364 3362 3378 3386 3406 3424 3427 3422 3444 3459 3466 3478 3491 3513 3504 3501 3514 3535 3542 3541 3558 3564 3577 3581 3590 3585 3590 3591 3593 3593 3592 3581 3591 3587 3596 3606 3604 3610 3596 3583 3547 3509 3503 3506 3500 3494 3471 3465 3433 3409 3386 3383 3356 3345 3318 3297 3271 3259 3252 3249 3228 3222 3217 3215 3208 3206 3193 3198 3171 3157 3147 3138 3107 3076 3071 3066 3034 3005 2998 3001 2966 2941 2922 2909 2894 2886 2866 2855 2834 2815 2813 2816 2793 2776 2765 2764 2718 2675 2659 2656 2631 2615 2609 2615 2584 2563 2539 2519 2478 2441 2440 2438 2407 2388 2361 2347 2306 2278 2264 2248 2219 2192 2174 2167 2149 2141 2131 2123 2099 2075 2058 2050 1992 1947 1947 1961 1917 1889 1872 1855 1834 1821 1796 1778 1734 1686 1654 1632 1569 1506 1507 1499 1460 1423 1424 1426 1426 1432 1411 1393 1360 1329 1301 1293 1247 1217 1186 1189 1146 1125 1093 1070 1051 1047 1023 1018 974 930 935 937 946 951 934 914 886 847 847 843 831 815 789 773 739 706 685 668 619 582 575 568 520 479 478 475 423 371 374 380 331 296 271 243 238 224 217 215 198 187 178 161 158 142 155 164
3039 3043 3045 3050 3051 3056 3070 3094 3103 3120 3123 3138 3139 3145 3152 3162 3166 3176 3179 3180 3189 3212 3217 3214 3228 3254 3268 3307 3305 3315 3325 3340 3350 3358 3373 3395 3396 3420 3429 3449 3456 3466 3464 3473 3483 3499 3499 3517 3516 3524 3532 3554 3562 3567 3580 3602 3597 3609 3602 3603 3603 3605 3603 3599 3601 3608 3605 3609 3607 3611 3607 3604 3588 3563 3548 3504 3505 3507 3496 3483 3474 3437 3421 3390 3369 3339 3330 3306 3286 3245 3248 3235 3219 3207 3207 3194 3203 3198 3192 3182 3177 3171 3164 3149 3147 3122 3113 3079 3062 3034 3022 2987 2980 2948 2941 2907 2889 2878 2873 2862 2850 2829 2832 2823 2823 2817 2801 2775 2773 2738 2718 2660 2652 2632 2631 2622 2620 2600 2586 2549 2537 2504 2491 2458 2445 2415 2410 2379 2350 2300 2302 2282 2266 2225 2214 2165 2154 2138 2136 2118 2120 2096 2082 2050 2035 2000 2002 1968 1959 1945 1928 1891 1869 1831 1827 1800 1783 1734 1699 1633 1594 1533 1531 1489 1467 1435 1425 1391 1386 1394 1389 1393 1384 1345 1328 1281 1273 1234 1221 1179 1179 1148 1131 1081 1079 1048 1052 1039 1028 991 984 950 946 949 947 946 929 897 880 848 842 833 812 780 764 723 710 667 638 603 609 582 572 532 534 509 493 470 467 443 424 380 359 295 277 258 252 242 238 222 213 195 179 165 171 171 176
3017 3019 3031 3029 3031 3044 3063 3076 3095 3103 3119 3119 3121 3133 3141 3154 3167 3172 3180 3184 3188 3210 3224 3224 3227 3262 3287 3309 3323 3331 3345 3356 3371 3374 3386 3396 3409 3434 3462 3469 3488 3489 3495 3496 3501 3506 3505 3517 3512 3534 3549 3565 3592 3598 3611 3617 3614 3622 3618 3620 3619 3621 3619 3614 3604 3613 3622 3619 3621 3617 3608 3601 3578 3564 3544 3519 3500 3496 3490 3476 3483 3431 3393 3371 3338 3317 3292 3273 3250 3233 3216 3203 3177 3182 3181 3183 3198 3181 3174 3164 3151 3152 3140 3146 3162 3135 3113 3085 3062 3033 3003 2988 2981 2949 2909 2884 2832 2849 2845 2838 2825 2824 2824 2830 2840 2815 2797 2798 2804 2757 2711 2673 2641 2629 2616 2624 2644 2603 2581 2558 2534 2509 2485 2473 2468 2435 2408 2375 2336 2310 2281 2276 2281 2242 2220 2174 2123 2132 2121 2122 2127 2096 2061 2043 2015 2004 1991 1976 1976 1938 1915 1887 1868 1844 1823 1800 1779 1721 1653 1601 1524 1507 1473 1457 1441 1410 1378 1360 1337 1350 1344 1358 1366 1329 1293 1271 1249 1212 1179 1171 1173 1135 1108 1085 1062 1054 1054 1042 1037 1002 979 965 955 953 956 940 925 888 862 847 842 817 795 765 738 711 678 639 579 590 585 587 593 554 529 518 516 496 480 486 503 431 383 326 259 273 267 264 265 239 221 204 172 187 187 192 193
2992 2987 2994 3006 3015 3028 3034 3055 3059 3080 3085 3098 3106 3125 3127 3149 3148 3167 3177 3188 3195 3217 3215 3233 3250 3283 3287 3320 3315 3343 3348 3370 3366 3381 3387 3397 3416 3448 3455 3477 3489 3507 3512 3518 3519 3521 3523 3537 3538 3553 3547 3566 3586 3622 3633 3644 3644 3650 3649 3641 3644 3643 3639 3636 3634 3620 3621 3625 3625 3629 3622 3616 3602 3571 3557 3530 3522 3490 3470 3450 3443 3411 3400 3364 3350 3302 3280 3244 3249 3221 3209 3186 3184 3164 3157 3162 3160 3154 3161 3150 3151 3149 3142 3136 3142 3144 3126 3087 3083 3033 3021 2984 2982 2959 2938 2890 2885 2843 2833 2820 2824 2820 2825 2836 2822 2807 2818 2817 2802 2775 2746 2682 2678 2629 2623 2615 2603 2590 2596 2568 2559 2513 2507 2484 2476 2451 2425 2379 2370 2324 2298 2263 2262 2242 2239 2189 2191 2147 2132 2123 2114 2102 2087 2049 2043 2011 1995 1970 1950 1916 1913 1874 1877 1855 1837 1801 1780 1718 1689 1596 1583 1500 1468 1428 1416 1387 1369 1334 1336 1328 1320 1332 1321 1315 1303 1263 1236 1187 1177 1153 1137 1114 1113 1090 1082 1055 1047 1041 1035 1003 1003 978 973 952 948 934 916 871 867 837 827 798 783 748 750 705 681 634 643 594 587 591 575 563 551 520 528 519 521 518 493 459 442 369 375 311 294 285 272 249 252 231 236 227 215 218 220
2974 2974 2967 2983 2995 3008 3023 3030 3039 3053 3068 3081 3085 3104 3116 3132 3135 3160 3189 3187 3196 3211 3223 3239 3260 3285 3320 3317 3311 3336 3356 3368 3368 3384 3402 3416 3434 3461 3487 3499 3511 3524 3535 3540 3544 3537 3536 3549 3557 3561 3557 3582 3609 3638 3677 3672 3674 3683 3694 3681 3674 3667 3660 3656 3661 3646 3636 3637 3624 3628 3624 3617 3615 3582 3550 3534 3527 3484 3443 3436 3424 3389 3345 3343 3343 3285 3236 3235 3240 3204 3181 3177 3173 3151 3128 3143 3143 3141 3144 3139 3134 3137 3133 3142 3149 3136 3114 3099 3100 3048 3007 2992 2985 2953 2923 2903 2898 2859 2838 2820 2814 2814 2819 2828 2824 2814 2808 2821 2819 2780 2726 2700 2693 2645 2607 2602 2594 2590 2584 2573 2575 2529 2500 2490 2485 2444 2403 2380 2370 2318 2269 2265 2262 2247 2245 2221 2210 2169 2136 2128 2111 2095 2070 2055 2051 2009 1987 1949 1926 1899 1888 1867 1865 1845 1825 1801 1779 1716 1664 1606 1584 1495 1422 1396 1378 1341 1314 1304 1307 1295 1284 1293 1294 1282 1269 1230 1202 1159 1120 1106 1102 1079 1075 1074 1075 1048 1031 1043 1043 1016 996 987 983 960 954 926 903 872 835 827 812 780 746 747 755 704 650 657 669 617 586 573 561 545 529 536 547 532 533 528 516 479 437 426 437 368 322 302 289 273 263 258 268 250 244 245 249
2970 2969 2969 2966 2973 2987 2996 3004 3012 3026 3045 3074 3074 3093 3104 3129 3127 3149 3155 3178 3196 3210 3215 3241 3252 3277 3288 3317 3328 3334 3349 3381 3378 3385 3400 3432 3446 3477 3486 3521 3532 3545 3545 3564 3556 3550 3561 3567 3569 3580 3586 3597 3612 3646 3659 3693 3704 3716 3707 3715 3707 3692 3685 3669 3672 3670 3672 3666 3653 3638 3627 3614 3613 3592 3569 3529 3513 3476 3467 3428 3414 3376 3361 3320 3299 3262 3266 3220 3199 3175 3184 3170 3156 3139 3144 3140 3130 3126 3133 3129 3127 3132 3134 3150 3145 3140 3122 3098 3085 3052 3042 2992 2984 2947 2941 2901 2893 2859 2854 2808 2804 2804 2817 2836 2829 2819 2831 2842 2828 2801 2769 2702 2689 2651 2641 2593 2595 2595 2582 2566 2553 2530 2527 2491 2473 2438 2422 2368 2355 2309 2311 2267 2253 2239 2248 2241 2222 2185 2178 2144 2133 2100 2082 2052 2033 1989 1973 1916 1896 1867 1868 1841 1844 1835 1824 1800 1772 1704 1670 1583 1548 1475 1449 1358 1330 1288 1294 1264 1267 1261 1264 1262 1260 1250 1231 1189 1171 1130 1111 1052 1041 1028 1050 1056 1046 1032 1052 1060 1049 1023 1017 994 972 952 943 913 914 881 861 826 802 765 769 741 734 708 705 676 651 619 610 554 544 527 546 550 536 532 544 545 540 504 491 462 437 403 379 312 310 291 288 273 275 264 271 271 276
2968 2969 2969 2972 2974 2984 2999 3000 2995 3019 3042 3060 3061 3086 3112 3120 3115 3140 3159 3183 3208 3208 3214 3234 3269 3274 3299 3315 3341 3349 3370 3380 3392 3400 3418 3442 3476 3488 3514 3531 3575 3560 3562 3569 3578 3573 3583 3585 3594 3600 3613 3628 3650 3664 3689 3705 3733 3727 3725 3724 3730 3718 3707 3698 3690 3690 3693 3680 3672 3653 3635 3628 3625 3585 3540 3520 3500 3466 3437 3422 3411 3369 3325 3305 3270 3258 3241 3211 3166 3165 3153 3148 3134 3130 3124 3123 3126 3126 3134 3121 3104 3115 3120 3135 3158 3125 3102 3090 3077 3053 3026 3006 2990 2962 2933 2911 2890 2875 2853 2818 2768 2800 2816 2830 2845 2834 2839 2843 2864 2804 2755 2720 2677 2660 2627 2613 2587 2595 2576 2568 2532 2531 2513 2496 2466 2434 2399 2372 2342 2325 2298 2278 2239 2252 2251 2244 2219 2194 2175 2158 2155 2107 2066 2047 2023 1987 1936 1892 1815 1847 1839 1828 1813 1808 1797 1774 1762 1686 1614 1554 1473 1446 1382 1333 1252 1265 1249 1239 1229 1225 1226 1227 1247 1213 1191 1148 1096 1091 1063 1026 964 1002 1014 1024 1021 1025 1041 1053 1085 1036 1011 989 948 941 926 914 911 871 837 817 783 774 759 747 744 715 684 677 662 626 599 562 512 538 548 546 536 542 552 560 580 524 485 473 449 411 364 342 315 308 299 295 303 288 284 293 310
2963 2973 2972 2980 2974 2977 2990 3004 3008 3015 3030 3065 3065 3080 3095 3124 3122 3138 3152 3189 3183 3200 3204 3214 3225 3254 3274 3304 3315 3352 3366 3380 3390 3405 3421 3444 3447 3487 3489 3517 3523 3560 3567 3573 3577 3584 3596 3599 3607 3613 3628 3653 3649 3673 3681 3705 3708 3736 3736 3729 3739 3746 3738 3727 3725 3709 3706 3692 3691 3669 3660 3640 3615 3583 3561 3512 3497 3454 3440 3412 3404 3364 3349 3306 3301 3260 3250 3219 3211 3167 3151 3137 3135 3124 3118 3105 3112 3120 3121 3119 3119 3107 3103 3114 3106 3102 3111 3084 3085 3057 3045 3018 3013 2980 2965 2921 2921 2898 2877 2843 2845 2812 2809 2825 2820 2833 2837 2830 2820 2797 2790 2746 2736 2685 2671 2645 2646 2624 2613 2598 2581 2551 2538 2514 2485 2433 2416 2379 2380 2353 2337 2311 2303 2279 2271 2266 2242 2199 2192 2159 2149 2108 2092 2049 2041 2002 1971 1902 1911 1869 1837 1822 1810 1787 1771 1739 1723 1667 1634 1548 1540 1455 1412 1340 1335 1272 1235 1215 1207 1185 1183 1173 1170 1166 1161 1119 1126 1077 1058 1027 1035 1005 992 1005 1004 1009 1021 1028 1024 1028 1033 1003 988 941 922 906 895 856 853 824 816 790 771 745 745 725 718 686 668 624 617 585 595 567 552 552 549 549 553 566 544 528 530 496 477 430 416 378 373 328 316 305 302 302 308 308 312
2950 2962 2967 2972 2971 2986 3007 3010 3016 3027 3047 3066 3073 3096 3117 3119 3115 3141 3166 3182 3185 3200 3196 3208 3219 3245 3269 3288 3307 3350 3392 3395 3407 3420 3443 3443 3441 3469 3478 3494 3502 3540 3562 3581 3591 3605 3625 3623 3635 3640 3653 3660 3657 3678 3697 3703 3703 3729 3746 3749 3757 3756 3751 3752 3760 3742 3735 3718 3710 3677 3660 3631 3602 3565 3525 3499 3483 3435 3397 3400 3406 3361 3315 3308 3316 3272 3253 3231 3217 3174 3134 3135 3129 3117 3111 3102 3101 3106 3122 3115 3119 3103 3088 3093 3090 3098 3101 3093 3097 3064 3031 3029 3028 2992 2971 2941 2932 2904 2879 2870 2873 2851 2833 2828 2808 2827 2841 2831 2816 2790 2755 2753 2758 2711 2679 2678 2689 2659 2644 2620 2602 2570 2557 2518 2481 2435 2387 2383 2391 2362 2344 2329 2324 2307 2302 2275 2253 2219 2192 2175 2155 2107 2059 2050 2050 1999 1960 1936 1940 1886 1843 1817 1793 1768 1748 1719 1692 1628 1560 1544 1545 1452 1382 1357 1346 1276 1202 1189 1180 1154 1145 1130 1117 1118 1112 1103 1119 1073 1033 1032 1048 1020 997 998 990 1006 1027 1013 1002 1004 1016 1003 999 941 894 897 895 853 822 815 814 783 766 759 752 734 720 694 679 639 599 614 631 597 578 563 547 550 562 548 532 522 516 509 497 455 410 414 423 364 317 314 302 305 321 313 318
2951 2958 2963 2973 2977 2989 2992 3014 3022 3032 3049 3081 3094 3114 3110 3121 3125 3146 3159 3190 3199 3219 3209 3203 3211 3239 3249 3275 3298 3349 3354 3402 3409 3428 3432 3446 3463 3473 3469 3479 3497 3539 3550 3599 3606 3623 3621 3635 3641 3662 3662 3677 3675 3687 3691 3708 3714 3731 3738 3764 3770 3773 3771 3770 3767 3766 3752 3736 3714 3670 3659 3622 3605 3550 3528 3479 3449 3409 3413 3387 3379 3360 3341 3295 3279 3261 3261 3238 3230 3180 3174 3142 3122 3105 3100 3091 3090 3082 3088 3103 3106 3099 3097 3083 3095 3102 3098 3092 3091 3073 3068 3039 3024 2990 2981 2940 2927 2910 2906 2885 2895 2887 2870 2846 2834 2827 2825 2837 2823 2793 2785 2756 2742 2724 2727 2702 2695 2682 2671 2636 2618 2573 2561 2520 2502 2441 2426 2378 2364 2363 2360 2340 2338 2323 2311 2279 2274 2234 2223 2197 2172 2109 2094 2042 2018 1984 1979 1944 1933 1892 1873 1813 1792 1744 1736 1699 1662 1595 1583 1525 1487 1427 1429 1360 1348 1285 1254 1162 1138 1106 1107 1086 1083 1080 1072 1065 1071 1064 1056 1022 1028 1031 1023 1003 994 1001 990 997 985 971 982 995 977 933 935 895 876 841 838 802 786 765 779 775 765 741 724 692 691 656 656 641 625 613 604 575 558 544 539 535 531 514 526 527 512 486 476 446 430 389 381 334 310 295 301 308 306
2945 2962 2973 2977 2982 2986 2997 3015 3038 3051 3069 3096 3135 3131 3133 3130 3119 3153 3186 3200 3223 3229 3232 3223 3206 3240 3264 3283 3301 3336 3358 3389 3414 3432 3450 3462 3491 3478 3484 3490 3492 3533 3561 3599 3643 3631 3636 3641 3645 3662 3675 3680 3684 3698 3712 3718 3721 3737 3754 3774 3800 3792 3785 3787 3784 3766 3747 3731 3715 3667 3636 3609 3591 3536 3483 3442 3385 3389 3373 3368 3375 3339 3304 3277 3246 3242 3232 3237 3251 3194 3158 3134 3108 3090 3075 3073 3079 3069 3069 3083 3102 3087 3087 3089 3108 3102 3109 3095 3101 3079 3064 3043 3036 2999 2968 2938 2890 2907 2900 2908 2930 2900 2874 2859 2831 2834 2828 2833 2824 2805 2778 2767 2736 2732 2724 2718 2718 2698 2679 2651 2622 2584 2552 2523 2490 2448 2407 2376 2330 2350 2347 2342 2348 2328 2320 2293 2282 2238 2209 2196 2193 2125 2071 2031 1988 1970 1940 1934 1937 1886 1849 1804 1768 1737 1709 1665 1609 1575 1520 1492 1436 1416 1386 1368 1368 1289 1224 1159 1082 1079 1058 1042 1024 1028 1028 1036 1044 1037 1022 1020 1028 1023 1012 996 975 976 972 968 947 955 962 962 964 935 915 893 876 843 814 791 758 760 764 765 781 735 714 695 696 671 650 650 647 620 599 573 538 539 532 529 515 521 533 529 522 495 475 467 476 422 380 347 297 307 301 300 294
2967 2974 2974 2980 2975 2978 2994 3014 3023 3065 3074 3100 3102 3142 3146 3149 3156 3161 3170 3204 3211 3243 3245 3252 3251 3254 3258 3293 3296 3338 3347 3384 3395 3439 3442 3462 3458 3466 3484 3505 3515 3542 3554 3595 3592 3625 3637 3648 3658 3669 3669 3685 3694 3712 3719 3732 3733 3743 3758 3778 3787 3810 3816 3809 3796 3767 3759 3729 3705 3647 3632 3587 3572 3522 3491 3422 3432 3391 3362 3338 3335 3318 3310 3264 3265 3230 3231 3228 3205 3190 3177 3129 3117 3074 3058 3048 3042 3049 3050 3058 3059 3062 3073 3078 3080 3092 3091 3081 3085 3081 3067 3035 3032 3002 2992 2954 2959 2929 2920 2917 2916 2911 2907 2885 2876 2852 2845 2844 2842 2827 2821 2798 2781 2746 2744 2731 2722 2713 2698 2669 2645 2589 2571 2533 2513 2457 2440 2392 2393 2363 2349 2335 2331 2324 2318 2293 2276 2230 2226 2185 2173 2129 2098 2026 2027 1971 1947 1917 1900 1868 1850 1787 1781 1728 1703 1644 1638 1577 1548 1490 1479 1418 1393 1360 1338 1281 1255 1168 1156 1071 1034 1002 997 983 986 1008 1011 1020 1024 1009 1014 1023 1014 995 986 957 957 957 949 940 934 928 930 928 917 889 881 842 827 790 786 755 751 740 727 704 706 679 690 683 675 662 646 623 612 582 580 544 542 535 532 522 528 535 518 499 497 473 469 443 432 379 376 335 316 299 301
2983 2981 2998 2980 2969 2980 3004 3007 3017 3057 3096 3102 3100 3134 3161 3170 3184 3188 3196 3208 3214 3243 3263 3264 3268 3269 3280 3288 3289 3335 3365 3391 3399 3435 3455 3456 3455 3469 3476 3507 3529 3559 3587 3592 3590 3620 3634 3658 3679 3679 3678 3693 3704 3722 3749 3745 3748 3767 3791 3796 3808 3821 3847 3834 3823 3790 3756 3723 3698 3634 3579 3560 3545 3491 3431 3420 3432 3374 3335 3318 3312 3297 3283 3262 3265 3233 3220 3197 3172 3159 3141 3122 3110 3058 3003 3001 2996 3002 3014 3031 3050 3051 3052 3063 3066 3076 3086 3077 3069 3065 3051 3036 3030 3000 2976 2974 2985 2958 2944 2936 2937 2922 2904 2897 2894 2872 2856 2868 2871 2855 2837 2817 2802 2776 2763 2737 2721 2707 2694 2665 2644 2590 2540 2525 2511 2461 2421 2407 2410 2381 2368 2337 2320 2315 2310 2283 2261 2230 2209 2183 2169 2115 2045 2034 2042 1973 1915 1892 1878 1836 1811 1778 1761 1711 1674 1639 1624 1569 1516 1497 1491 1420 1359 1342 1328 1265 1205 1170 1163 1065 981 964 948 942 932 972 990 1006 1025 1008 1002 1005 1011 992 983 961 940 938 930 923 923 915 904 902 889 879 878 833 802 785 786 761 753 723 702 683 660 672 687 672 660 654 651 624 596 593 596 570 553 544 540 537 540 526 506 503 495 485 488 455 431 409 411 364 333 319 311
2977 2971 2974 2976 2978 2969 2976 2995 3010 3053 3063 3113 3122 3134 3148 3189 3201 3213 3211 3219 3237 3255 3252 3275 3270 3276 3281 3291 3317 3349 3363 3419 3427 3450 3443 3454 3466 3480 3491 3520 3534 3580 3577 3597 3606 3633 3639 3673 3680 3693 3693 3705 3703 3725 3731 3752 3763 3786 3784 3807 3813 3822 3832 3860 3863 3815 3774 3710 3679 3615 3598 3532 3508 3467 3451 3398 3375 3338 3337 3287 3286 3276 3263 3239 3231 3218 3204 3169 3161 3134 3130 3110 3085 3045 3024 2960 2944 2952 2982 3004 3018 3040 3047 3056 3058 3063 3070 3075 3073 3059 3050 3030 3017 2994 2995 2981 2979 2975 2973 2949 2950 2937 2929 2905 2906 2889 2902 2903 2902 2886 2866 2834 2823 2796 2771 2733 2722 2700 2692 2654 2641 2590 2575 2516 2494 2458 2453 2407 2393 2383 2368 2328 2329 2308 2296 2269 2254 2221 2211 2169 2159 2117 2095 2024 2003 1966 1940 1861 1830 1787 1789 1753 1727 1682 1672 1616 1596 1559 1548 1491 1465 1415 1399 1322 1300 1249 1228 1144 1113 1045 1028 926 903 905 938 961 965 989 995 999 994 987 984 979 977 966 955 925 912 899 908 906 903 887 877 860 844 812 811 764 758 750 735 699 689 666 674 664 658 661 660 643 635 627 621 598 593 588 576 548 544 548 539 526 523 513 500 486 477 461 456 417 407 377 371 335 327
2977 2973 2969 2971 2971 2971 2973 2985 2988 3038 3071 3102 3146 3147 3169 3196 3244 3223 3230 3244 3279 3269 3264 3270 3267 3277 3290 3315 3348 3366 3396 3424 3477 3465 3471 3467 3478 3489 3512 3535 3563 3582 3604 3603 3610 3632 3661 3681 3721 3702 3695 3700 3705 3725 3743 3750 3768 3778 3797 3806 3835 3826 3841 3859 3930 3813 3751 3692 3635 3593 3550 3507 3457 3437 3396 3367 3333 3314 3294 3276 3247 3244 3225 3214 3185 3189 3164 3151 3121 3117 3104 3085 3046 3022 2981 2943 2861 2941 2978 3003 3016 3031 3042 3050 3064 3067 3076 3073 3072 3063 3045 3027 2995 2992 2977 2983 2986 2982 2985 2969 2970 2951 2938 2928 2927 2919 2922 2931 2963 2909 2873 2846 2825 2794 2755 2733 2693 2705 2694 2665 2626 2594 2550 2518 2464 2463 2437 2404 2363 2368 2351 2331 2314 2308 2288 2257 2218 2208 2196 2167 2143 2113 2073 2029 1977 1944 1891 1840 1760 1767 1739 1714 1662 1660 1631 1601 1538 1547 1518 1490 1441 1414 1371 1331 1272 1246 1193 1141 1058 1036 978 922 800 899 941 966 981 993 1002 992 968 976 969 970 953 957 948 926 885 896 898 896 899 880 858 846 818 811 792 758 716 725 705 687 639 661 664 659 647 655 650 636 612 615 611 600 590 591 573 560 529 547 543 529 516 506 496 487 467 469 461 436 405 389 361 353 336
2970 2978 2974 2971 2971 2972 2974 2984 3000 3040 3040 3079 3094 3142 3160 3184 3179 3208 3226 3250 3252 3280 3280 3275 3275 3277 3296 3333 3335 3371 3379 3405 3415 3464 3470 3465 3475 3489 3511 3547 3545 3581 3591 3603 3613 3624 3636 3671 3673 3699 3709 3697 3707 3727 3730 3737 3742 3761 3767 3786 3787 3807 3801 3808 3779 3758 3751 3673 3656 3575 3547 3489 3492 3429 3399 3344 3339 3293 3291 3277 3266 3230 3228 3210 3207 3190 3174 3153 3146 3112 3106 3083 3070 3019 3013 2973 2991 2975 2969 3017 3007 3026 3029 3038 3049 3068 3071 3071 3079 3078 3063 3038 3033 3003 2995 2989 2987 2983 2986 2973 2973 2959 2956 2945 2946 2939 2936 2937 2923 2916 2900 2854 2844 2802 2790 2754 2757 2735 2710 2686 2662 2611 2587 2542 2542 2495 2457 2411 2412 2375 2358 2333 2338 2325 2301 2255 2246 2198 2188 2162 2162 2119 2098 2044 2025 1945 1920 1849 1850 1785 1743 1704 1700 1668 1650 1619 1620 1573 1550 1510 1490 1432 1412 1362 1349 1273 1238 1171 1156 1066 1045 986 1002 951 936 981 978 1002 1005 1001 996 981 979 981 972 963 959 949 938 905 889 881 884 876 873 850 847 824 799 761 766 729 726 708 707 678 663 663 664 662 657 639 638 611 608 602 617 616 605 593 586 568 544 532 524 500 505 499 502 489 480 461 452 413 402 380 376
2957 2965 2970 2975 2974 2975 2971 2988 3006 3034 3055 3076 3087 3132 3168 3164 3155 3182 3203 3235 3250 3269 3288 3283 3284 3293 3307 3332 3349 3374 3394 3393 3395 3437 3475 3472 3477 3499 3532 3538 3542 3578 3617 3613 3624 3633 3642 3652 3663 3686 3719 3705 3710 3728 3753 3736 3727 3744 3755 3760 3760 3761 3754 3739 3710 3684 3643 3626 3625 3551 3490 3492 3500 3427 3366 3336 3323 3282 3264 3268 3263 3239 3227 3213 3203 3187 3171 3162 3158 3129 3108 3094 3075 3044 3016 3021 3037 3027 3024 3025 3010 3032 3037 3047 3051 3068 3083 3089 3094 3082 3064 3051 3048 3019 2994 3000 3001 2997 3003 2984 2977 2963 2952 2954 2963 2945 2944 2933 2920 2900 2869 2853 2850 2809 2781 2777 2787 2757 2726 2691 2659 2614 2572 2574 2582 2522 2460 2443 2427 2394 2362 2353 2346 2331 2313 2271 2244 2207 2177 2173 2174 2132 2088 2061 2040 1968 1912 1885 1876 1798 1725 1708 1690 1669 1651 1651 1658 1615 1580 1534 1503 1458 1415 1402 1391 1312 1239 1212 1196 1128 1073 1079 1094 1047 1012 1007 990 1018 1036 1019 1001 994 986 984 978 976 974 960 952 919 887 890 882 881 868 860 856 828 793 784 784 759 753 739 737 703 673 675 669 677 683 665 653 633 609 622 641 629 621 617 611 579 549 539 523 519 508 517 527 515 503 483 475 437 411 413 413
2955 2955 2969 2985 2979 2983 2990 2993 3007 3036 3045 3084 3102 3131 3125 3150 3157 3165 3189 3239 3241 3259 3267 3287 3295 3304 3312 3341 3355 3383 3367 3378 3387 3415 3427 3471 3477 3498 3507 3534 3546 3575 3580 3608 3625 3642 3632 3634 3646 3665 3675 3697 3706 3723 3716 3729 3737 3734 3730 3739 3735 3726 3710 3685 3669 3628 3613 3564 3550 3514 3523 3491 3466 3413 3386 3313 3283 3248 3270 3269 3259 3236 3234 3215 3209 3187 3180 3166 3162 3141 3135 3112 3096 3069 3074 3061 3063 3074 3064 3052 3063 3057 3058 3064 3060 3073 3080 3108 3102 3092 3080 3054 3053 3031 3029 3017 3006 3002 2994 2984 2980 2967 2968 2958 2947 2935 2940 2933 2918 2898 2881 2842 2825 2804 2809 2786 2791 2780 2752 2695 2671 2617 2627 2603 2589 2554 2538 2474 2453 2413 2403 2374 2366 2343 2322 2274 2252 2209 2209 2181 2169 2147 2127 2075 2039 1976 1963 1904 1879 1808 1794 1714 1693 1668 1676 1679 1669 1649 1617 1545 1532 1482 1479 1441 1418 1348 1328 1242 1215 1180 1188 1163 1160 1131 1103 1045 1044 1044 1037 1039 1031 1010 1004 991 988 992 982 968 958 935 935 911 907 901 883 868 860 840 824 798 783 772 773 758 760 726 722 698 697 694 687 687 675 659 653 639 642 641 646 644 625 590 588 554 548 545 541 534 542 544 523 496 482 450 462 450 442
2954 2968 2981 2981 2978 2993 3010 3011 3028 3038 3057 3089 3139 3131 3133 3139 3145 3168 3200 3226 3265 3262 3274 3282 3304 3304 3322 3344 3389 3370 3360 3365 3363 3404 3430 3451 3464 3491 3520 3533 3544 3570 3597 3606 3634 3625 3630 3630 3644 3655 3675 3683 3687 3701 3704 3715 3735 3723 3720 3723 3723 3691 3669 3641 3609 3584 3551 3522 3480 3473 3463 3457 3471 3386 3318 3278 3206 3233 3242 3253 3270 3237 3224 3212 3208 3182 3166 3164 3171 3146 3129 3117 3097 3090 3091 3093 3102 3098 3094 3096 3120 3103 3102 3089 3068 3081 3090 3109 3128 3102 3082 3072 3063 3039 3021 3020 3012 3005 2992 2988 2967 2970 2972 2963 2946 2938 2930 2917 2900 2885 2864 2833 2788 2797 2798 2805 2819 2780 2748 2704 2648 2643 2630 2633 2630 2583 2545 2505 2465 2437 2400 2394 2388 2356 2326 2282 2214 2220 2202 2194 2174 2149 2115 2074 2020 1979 1935 1908 1893 1828 1779 1728 1665 1675 1667 1686 1700 1656 1618 1570 1521 1508 1492 1471 1469 1391 1333 1280 1200 1218 1214 1233 1274 1198 1145 1112 1075 1084 1078 1065 1041 1034 1015 1008 985 999 993 982 956 951 945 934 931 908 884 871 866 837 805 792 772 774 779 782 806 759 729 722 723 708 701 693 673 675 664 667 682 667 661 654 645 616 598 576 547 563 562 564 582 553 526 510 481 480 475 466 463
2972 2984 2976 2983 2989 3001 3005 3015 3013 3032 3046 3076 3079 3123 3128 3131 3139 3165 3174 3200 3210 3252 3255 3264 3266 3288 3302 3327 3326 3348 3358 3360 3377 3408 3408 3441 3451 3484 3496 3534 3537 3566 3572 3586 3585 3596 3610 3612 3623 3636 3652 3676 3673 3691 3688 3693 3698 3704 3715 3711 3683 3649 3641 3601 3598 3551 3532 3496 3481 3438 3423 3405 3382 3344 3341 3278 3278 3238 3226 3234 3224 3221 3221 3202 3194 3168 3162 3156 3148 3143 3147 3133 3123 3106 3107 3118 3116 3124 3119 3119 3119 3134 3130 3123 3114 3095 3099 3110 3101 3106 3109 3091 3070 3041 3037 3030 3024 3016 3016 3010 2997 2974 2975 2976 2964 2943 2931 2905 2903 2880 2870 2841 2840 2801 2803 2820 2803 2776 2771 2728 2727 2677 2676 2669 2642 2606 2589 2537 2526 2471 2445 2417 2399 2369 2355 2314 2305 2256 2233 2221 2203 2163 2141 2088 2067 1988 1957 1903 1885 1833 1818 1755 1754 1702 1689 1698 1679 1660 1647 1597 1592 1538 1516 1482 1468 1417 1415 1348 1338 1279 1268 1284 1260 1245 1241 1183 1180 1141 1120 1104 1097 1071 1061 1041 1040 1028 1021 1014 996 969 960 949 941 919 897 867 859 837 822 793 794 775 780 787 780 777 770 741 735 716 719 711 715 704 698 684 682 685 683 669 658 632 634 608 610 599 584 578 574 561 565 537 534 515 495 477 481
2979 2978 2985 2988 2991 3006 3026 3009 2997 3023 3048 3061 3061 3102 3120 3118 3128 3152 3187 3183 3190 3221 3240 3239 3238 3264 3289 3305 3308 3331 3337 3356 3380 3404 3420 3441 3451 3482 3502 3519 3530 3558 3593 3575 3562 3580 3600 3606 3614 3634 3652 3657 3652 3674 3684 3688 3692 3703 3710 3678 3653 3620 3593 3574 3573 3521 3474 3453 3439 3402 3371 3339 3318 3290 3272 3266 3279 3240 3228 3216 3199 3199 3192 3184 3184 3148 3117 3124 3130 3131 3142 3125 3127 3116 3110 3125 3132 3128 3131 3126 3131 3132 3145 3140 3138 3124 3124 3111 3100 3105 3114 3088 3066 3042 3016 3022 3032 3025 3028 3019 3014 2998 2983 2980 2966 2949 2932 2913 2899 2881 2860 2855 2854 2825 2805 2822 2818 2790 2761 2755 2758 2721 2713 2689 2665 2630 2585 2566 2553 2490 2428 2425 2413 2383 2352 2333 2325 2281 2244 2237 2227 2180 2139 2104 2080 1998 1917 1891 1869 1827 1794 1779 1783 1733 1694 1700 1692 1668 1632 1619 1617 1567 1525 1504 1483 1448 1426 1396 1395 1342 1310 1314 1300 1287 1262 1248 1251 1197 1162 1149 1138 1113 1091 1077 1076 1061 1059 1036 1009 992 969 963 951 916 871 858 848 818 792 796 804 790 786 781 777 771 756 755 757 743 726 735 747 730 733 707 698 700 699 681 673 655 652 641 636 623 613 605 598 588 581 568 560 533 507 500 504
2971 2965 2977 2996 2997 3006 3000 3001 3005 3015 3027 3059 3075 3104 3092 3096 3103 3131 3139 3157 3174 3202 3200 3217 3225 3243 3256 3296 3305 3333 3334 3349 3367 3409 3416 3453 3461 3492 3488 3513 3520 3546 3544 3561 3567 3563 3576 3601 3612 3637 3632 3650 3660 3671 3672 3686 3701 3707 3674 3639 3627 3586 3573 3529 3519 3489 3468 3405 3396 3362 3330 3263 3252 3226 3246 3235 3227 3218 3221 3205 3208 3187 3173 3160 3149 3126 3123 3096 3104 3112 3106 3100 3113 3124 3130 3141 3132 3127 3130 3126 3121 3119 3134 3155 3151 3140 3131 3113 3108 3102 3096 3082 3073 3048 3037 3012 3019 3027 3028 3026 3027 3022 3013 2998 2980 2955 2944 2917 2908 2887 2885 2865 2854 2840 2847 2847 2834 2806 2801 2776 2753 2738 2737 2709 2710 2665 2644 2591 2564 2509 2497 2443 2420 2399 2385 2344 2329 2302 2291 2256 2240 2191 2174 2109 2076 2007 1977 1878 1848 1813 1818 1784 1771 1754 1749 1717 1709 1690 1668 1630 1615 1588 1573 1527 1505 1468 1458 1416 1411 1384 1389 1364 1361 1342 1329 1299 1275 1234 1234 1195 1183 1153 1137 1100 1097 1084 1077 1064 1052 1024 1009 986 962 926 899 848 818 795 806 798 790 797 791 776 782 774 772 766 769 773 769 757 747 738 736 716 724 718 702 685 677 664 669 668 660 647 645 632 637 615 610 596 575 552 538 513 510
2969 2967 2968 2983 3002 3001 3005 3001 2979 3016 3038 3064 3089 3100 3109 3094 3068 3115 3141 3146 3150 3177 3191 3202 3201 3227 3247 3277 3302 3323 3346 3353 3374 3396 3424 3446 3479 3485 3498 3508 3522 3531 3539 3546 3553 3565 3579 3597 3612 3624 3630 3646 3668 3671 3681 3689 3729 3684 3660 3618 3575 3552 3525 3501 3465 3443 3406 3373 3344 3309 3256 3221 3149 3189 3205 3200 3185 3185 3183 3190 3212 3173 3148 3136 3119 3108 3087 3088 3093 3090 3084 3091 3088 3116 3131 3142 3153 3138 3135 3124 3109 3123 3134 3148 3165 3140 3135 3115 3096 3099 3101 3080 3049 3045 3022 3024 3021 3026 3027 3031 3035 3026 3019 3000 2984 2960 2939 2919 2899 2900 2892 2871 2854 2852 2848 2856 2880 2828 2807 2779 2739 2747 2744 2739 2755 2694 2658 2612 2571 2530 2484 2453 2410 2409 2384 2360 2318 2305 2282 2269 2271 2213 2169 2115 2051 2006 1943 1882 1786 1817 1806 1791 1754 1759 1745 1738 1737 1695 1662 1639 1612 1590 1561 1536 1500 1488 1466 1449 1418 1424 1416 1422 1431 1401 1375 1346 1308 1281 1258 1240 1224 1191 1159 1132 1114 1099 1087 1075 1063 1043 1017 997 968 927 874 838 759 791 783 786 773 787 788 786 794 782 771 775 782 787 789 778 769 753 744 730 729 721 707 687 661 676 671 678 675 668 666 668 691 647 631 604 573 554 530 523 513
2972 2969 2966 2968 2978 2991 3006 3020 3025 3034 3040 3072 3074 3100 3102 3103 3113 3121 3111 3139 3147 3165 3182 3200 3202 3220 3230 3264 3274 3313 3323 3346 3351 3378 3391 3429 3439 3474 3485 3499 3500 3519 3525 3531 3544 3566 3576 3596 3598 3618 3624 3637 3638 3664 3659 3661 3643 3641 3638 3598 3588 3524 3513 3486 3468 3415 3390 3337 3327 3274 3260 3219 3220 3179 3169 3176 3169 3155 3163 3163 3150 3145 3146 3118 3115 3100 3088 3076 3075 3073 3078 3092 3100 3124 3122 3143 3132 3138 3142 3129 3130 3131 3125 3141 3125 3120 3129 3118 3119 3097 3096 3088 3087 3063 3049 3042 3035 3030 3029 3039 3030 3029 3024 2999 2995 2965 2953 2921 2932 2923 2903 2875 2878 2868 2856 2851 2836 2820 2826 2794 2798 2769 2757 2751 2732 2698 2691 2631 2625 2559 2534 2478 2483 2444 2426 2395 2371 2320 2301 2270 2261 2221 2199 2131 2113 2025 1994 1922 1927 1865 1840 1821 1811 1783 1772 1756 1734 1693 1687 1652 1645 1602 1594 1556 1557 1520 1509 1496 1495 1480 1481 1478 1466 1456 1438 1404 1384 1324 1313 1285 1273 1228 1204 1156 1152 1113 1107 1089 1085 1071 1056 1020 1001 942 930 874 875 829 798 793 793 792 788 786 790 789 789 781 794 807 806 797 785 763 753 734 741 733 725 698 709 708 701 698 691 685 682 684 664 654 651 618 610 564 561 538 530
2980 2968 2959 2971 2986 2999 3014 3028 3042 3053 3078 3085 3086 3104 3119 3112 3119 3123 3119 3141 3146 3178 3213 3209 3198 3221 3236 3259 3273 3307 3331 3334 3334 3360 3383 3413 3431 3469 3491 3488 3486 3506 3531 3532 3542 3565 3591 3595 3602 3615 3630 3630 3623 3635 3646 3617 3590 3590 3587 3572 3572 3511 3467 3458 3447 3394 3344 3316 3294 3250 3203 3210 3229 3193 3175 3157 3142 3136 3150 3124 3109 3107 3111 3097 3097 3076 3060 3063 3064 3062 3054 3083 3102 3115 3135 3130 3116 3133 3149 3133 3125 3121 3119 3120 3106 3113 3116 3119 3127 3112 3105 3103 3099 3077 3042 3048 3046 3034 3027 3031 3027 3028 3036 3010 2997 2966 2942 2940 2947 2930 2917 2893 2879 2867 2853 2840 2826 2818 2810 2809 2823 2787 2770 2753 2736 2711 2683 2657 2655 2588 2529 2523 2529 2483 2456 2417 2385 2337 2296 2281 2271 2226 2176 2141 2129 2048 1980 1975 1979 1922 1890 1853 1835 1810 1798 1768 1744 1702 1669 1666 1666 1630 1609 1600 1594 1559 1523 1530 1538 1538 1548 1530 1517 1493 1461 1443 1433 1382 1338 1333 1322 1270 1209 1190 1182 1138 1112 1106 1096 1083 1070 1041 1028 977 939 922 926 867 811 809 805 802 802 798 800 800 793 806 818 830 840 812 793 769 747 748 756 742 742 723 724 725 737 721 712 703 687 676 655 646 642 628 627 585 569 553 541
