138 138 138 138 138 138 138 138 138 138 138 138 138 138 138 138 138 138 139 138 139 139 139 139 139 139 139 139 139 139 139 139 139 139 139 139 139 139 139 139 139 139 139 139 139 139 139 139 139 139 140 139 140 140 140 140 140 140 140 140 140 140 140 140 140 140 141 140 141 141 141 141 141 141 141 141 141 141 141 141 141 141 142 141 142 142 142 142 142 142 142 142 142 142 142 142 142 142 143 142 143 143 143 143 143 143 143 143 143 143 144 144 144 144 144 144 144 144 144 144 144 144 144 144 144 144 145 145 145 145 145 145 145 145 145 145 145 145 146 145 145 145 145 145 145 145 145 145 145 145 145 145 145 145 145 145 145 145 145 145 145 145 145 145 145 145 146 145 146 145 146 145 146 145 146 145 146 145 146 145 146 145 146 145 146 145 146 145 146 145 146 145 146 145 146 145 146 145 146 145 146 145 146 145 146 145 146 145 146 145 146 145 146 145 146 145 146 145 146 145 146 145 146 145 146 145 146 145 146 145 146 145 146 145 146 145 146 145 146 145 146 145 146 145 146 145 146 145 146 145 146 145 146 145 146 145 146
138 138 138 138 138 138 138 138 138 138 138 138 138 138 138 138 138 138 138 138 138 139 139 139 139 139 139 139 139 139 139 139 139 139 139 139 139 139 139 139 139 139 139 139 139 139 139 139 139 139 139 139 139 140 140 140 140 140 140 140 140 140 140 140 140 140 140 140 140 141 141 141 141 141 141 141 141 141 141 141 141 141 141 141 141 142 142 142 142 142 142 142 142 142 142 142 142 142 142 142 142 143 143 143 143 143 143 143 143 143 143 144 144 144 144 144 144 144 144 144 144 144 144 144 144 144 144 145 145 145 145 145 145 145 145 145 145 145 145 145 145 145 145 145 145 145 145 145 145 145 145 145 145 145 145 145 145 145 145 145 145 145 145 145 145 145 145 146 146 146 146 146 146 146 146 146 146 146 146 146 146 146 146 146 146 146 146 146 146 146 146 146 146 146 146 146 146 146 146 146 146 146 146 146 146 146 146 146 146 146 146 146 146 146 146 146 146 146 146 146 146 146 146 146 146 146 146 146 146 146 146 146 146 146 146 146 146 146 146 146 146 146 146 146 146 146 146 146 146 146 146 146 146 146 146 146 146
139 138 138 138 138 138 138 138 139 138 138 138 138 138 138 138 139 138 138 138 139 138 139 139 140 139 139 139 139 139 139 139 140 139 139 139 139 139 139 139 140 139 139 139 139 139 139 139 140 139 139 139 140 139 140 140 141 140 140 140 140 140 140 140 141 140 140 140 141 140 141 141 142 141 141 141 141 141 141 141 142 141 141 141 142 141 142 142 143 142 142 142 142 142 142 142 143 142 142 142 143 142 143 143 144 143 143 143 144 143 144 144 144 144 144 144 144 144 144 144 145 144 144 144 145 144 145 145 145 145 145 145 145 145 145 145 146 145 145 145 146 145 145 145 146 145 145 145 145 145 145 145 146 145 145 145 145 145 145 145 146 145 145 145 146 145 146 146 147 146 146 146 146 146 146 146 147 146 146 146 146 146 146 146 147 146 146 146 146 146 146 146 147 146 146 146 146 146 146 146 147 146 146 146 146 146 146 146 147 146 146 146 147 146 146 146 147 146 146 146 147 146 146 146 147 146 146 146 147 146 146 146 147 146 146 146 147 146 146 146 147 146 146 146 147 146 147 147 148 147 147 146 147 146 147 147 148
138 138 138 138 138 138 138 138 138 138 138 138 138 138 138 138 138 138 138 138 138 138 138 139 139 139 139 139 139 139 139 139 139 139 139 139 139 139 139 139 139 139 139 139 139 139 139 139 139 139 139 139 139 139 139 140 140 140 140 140 140 140 140 140 140 140 140 140 140 140 140 141 141 141 141 141 141 141 141 141 141 141 141 141 141 141 141 142 142 142 142 142 142 142 142 142 142 142 142 142 142 142 142 143 143 143 143 143 143 143 143 144 144 144 144 144 144 144 144 144 144 144 144 144 144 144 144 145 145 145 145 145 145 145 145 145 145 145 145 145 145 145 145 145 145 145 145 145 145 145 145 145 145 145 145 145 145 145 145 145 145 145 145 145 145 146 146 146 146 146 146 146 146 146 146 146 146 146 146 146 146 146 146 146 146 146 146 146 146 146 146 146 146 146 146 146 146 146 146 146 146 146 146 146 146 146 146 146 146 146 146 146 146 146 146 146 146 146 146 146 146 146 146 146 146 146 146 146 146 146 146 146 146 146 146 146 146 146 146 146 146 146 146 146 146 147 147 147 147 147 147 147 147 147 147 147 147
138 137 138 137 138 137 138 137 138 138 138 138 138 138 138 138 138 138 138 138 138 138 139 138 139 138 139 138 139 138 139 138 139 138 139 138 139 138 139 138 139 139 139 139 139 139 139 139 139 139 139 139 139 139 140 139 140 139 140 139 140 139 140 139 140 140 140 140 140 140 141 140 141 141 141 141 141 141 141 141 141 141 141 141 141 141 142 141 142 142 142 142 142 142 142 142 142 142 142 142 142 142 143 143 143 143 143 143 143 143 144 144 144 144 144 144 144 144 144 144 144 144 144 144 144 144 145 145 145 145 145 145 145 145 145 145 145 145 145 145 145 145 146 145 145 145 145 145 145 145 145 145 145 145 145 145 145 145 145 145 145 145 146 145 146 146 146 146 146 146 146 146 146 146 146 146 146 146 146 146 146 146 146 146 146 146 146 146 146 146 146 146 146 146 146 146 146 146 146 146 146 146 146 146 146 146 146 146 146 146 147 146 147 146 147 146 147 146 147 146 147 146 147 146 147 146 147 146 147 146 147 146 147 146 147 146 147 146 147 146 147 146 147 146 147 147 147 147 147 147 148 147 148 147 148 147 148
137 137 137 137 137 137 137 137 137 138 138 138 138 138 138 138 138 138 138 138 138 138 138 138 138 138 138 138 138 138 138 138 138 138 138 138 138 138 138 138 138 139 139 139 139 139 139 139 139 139 139 139 139 139 139 139 139 139 139 139 139 139 139 139 139 140 140 140 140 140 140 140 140 141 141 141 141 141 141 141 141 141 141 141 141 141 141 141 141 142 142 142 142 142 142 142 142 142 142 142 142 142 142 143 143 143 143 143 143 143 143 144 144 144 144 144 144 144 144 144 144 144 144 144 144 144 144 145 145 145 145 145 145 145 145 145 145 145 145 145 145 145 145 145 145 145 145 145 145 145 145 145 145 145 145 145 145 145 145 145 145 145 145 146 146 146 146 146 146 146 146 146 146 146 146 146 146 146 146 146 146 146 146 146 146 146 146 146 146 146 146 146 146 146 146 146 146 146 146 146 146 146 146 146 146 146 146 146 146 146 146 147 147 147 147 147 147 147 147 147 147 147 147 147 147 147 147 147 147 147 147 147 147 147 147 147 147 147 147 147 147 147 147 147 147 147 147 147 147 147 147 148 148 148 148 148 148
138 137 137 137 138 137 137 137 138 137 138 138 138 138 138 138 138 138 138 138 139 138 138 138 139 138 138 138 139 138 138 138 139 138 138 138 139 138 138 138 139 138 139 139 139 139 139 139 139 139 139 139 140 139 139 139 140 139 139 139 140 139 139 139 140 139 140 140 141 140 140 140 141 140 141 141 141 141 141 141 141 141 141 141 142 141 141 141 142 141 142 142 142 142 142 142 142 142 142 142 143 142 143 143 143 143 143 143 144 143 144 144 144 144 144 144 144 144 144 144 144 144 144 144 145 144 145 145 145 145 145 145 145 145 145 145 145 145 145 145 146 145 146 145 146 145 145 145 146 145 145 145 146 145 145 145 146 145 145 145 146 145 146 146 147 146 146 146 147 146 146 146 147 146 146 146 147 146 146 146 147 146 146 146 147 146 146 146 147 146 146 146 147 146 146 146 147 146 146 146 147 146 146 146 147 146 146 146 147 146 147 147 148 147 147 147 148 147 147 147 148 147 147 147 148 147 147 147 148 147 147 147 148 147 147 147 148 147 147 147 148 147 147 147 148 147 147 147 148 147 148 148 149 148 148 148 149
137 137 137 137 137 137 137 137 137 137 137 138 138 138 138 138 138 138 138 138 138 138 138 138 138 138 138 138 138 138 138 138 138 138 138 138 138 138 138 138 138 138 138 139 139 139 139 139 139 139 139 139 139 139 139 139 139 139 139 139 139 139 139 139 139 139 139 140 140 140 140 140 140 140 140 141 141 141 141 141 141 141 141 141 141 141 141 141 141 141 141 142 142 142 142 142 142 142 142 142 142 142 142 143 143 143 143 143 143 143 143 144 144 144 144 144 144 144 144 144 144 144 144 144 144 144 144 145 145 145 145 145 145 145 145 145 145 145 145 145 145 145 145 146 145 145 145 145 145 145 145 145 145 145 145 145 145 145 145 145 145 146 146 146 146 146 146 146 146 146 146 146 146 146 146 146 146 146 146 146 146 146 146 146 146 146 146 146 146 146 146 146 146 146 146 146 146 146 146 146 146 146 146 146 146 146 146 146 146 147 147 147 147 147 147 147 147 147 147 147 147 147 147 147 147 147 147 147 147 147 147 147 147 147 147 147 147 147 147 147 147 147 147 147 147 147 147 147 147 148 148 148 148 148 148 148 148
137 137 137 137 137 137 137 137 137 137 138 137 138 138 138 138 138 138 138 138 138 138 138 138 138 138 138 138 138 138 138 138 138 138 138 138 138 138 138 138 138 138 139 138 139 139 139 139 139 139 139 139 139 139 139 139 139 139 139 139 139 139 139 139 139 139 140 139 140 140 140 140 140 140 141 140 141 141 141 141 141 141 141 141 141 141 141 141 141 141 142 141 142 142 142 142 142 142 142 142 142 142 143 143 143 143 143 143 143 143 144 144 144 144 144 144 144 144 144 144 144 144 144 144 144 144 145 145 145 145 145 145 145 145 145 145 145 145 145 145 145 145 146 146 146 145 146 145 146 145 146 145 146 145 146 145 146 145 146 145 146 146 147 146 146 146 147 146 147 146 147 146 147 146 147 146 147 146 147 146 147 146 147 146 147 146 147 146 147 146 147 146 147 146 147 146 147 146 147 146 147 146 147 146 147 146 147 146 147 147 148 147 147 147 148 147 148 147 148 147 148 147 148 147 148 147 148 147 148 147 148 147 148 147 148 147 148 147 148 147 148 147 148 147 148 147 148 147 148 148 149 148 149 148 149 148 149
137 137 137 137 137 137 137 137 137 137 137 137 137 138 138 138 138 138 138 138 138 138 138 138 138 138 138 138 138 138 138 138 138 138 138 138 138 138 138 138 138 138 138 138 138 139 139 139 139 139 139 139 139 139 139 139 139 139 139 139 139 139 139 139 139 139 139 139 139 140 140 140 140 140 140 140 140 141 141 141 141 141 141 141 141 141 141 141 141 141 141 141 141 142 142 142 142 142 142 142 142 142 142 143 143 143 143 143 143 143 143 144 144 144 144 144 144 144 144 144 144 144 144 144 144 144 144 145 145 145 145 145 145 145 145 145 145 145 145 145 145 145 145 146 146 146 146 146 146 146 146 146 146 146 146 146 146 146 146 146 146 147 146 146 146 146 146 147 147 147 147 147 147 147 147 147 147 147 147 147 147 147 147 147 147 147 147 147 147 147 147 147 147 147 147 147 147 147 147 147 147 147 147 147 147 147 147 147 147 148 147 147 147 147 147 148 148 148 148 148 148 148 148 148 148 148 148 148 148 148 148 148 148 148 148 148 148 148 148 148 148 148 148 148 148 148 148 148 148 149 148 149 149 149 149 149 149
138 137 137 137 137 137 137 137 138 137 137 137 138 137 138 138 139 138 138 138 138 138 138 138 139 138 138 138 138 138 138 138 139 138 138 138 138 138 138 138 139 138 138 138 139 138 139 139 140 139 139 139 139 139 139 139 140 139 139 139 139 139 139 139 140 139 139 139 140 139 140 140 141 140 140 140 141 140 141 141 142 141 141 141 141 141 141 141 142 141 141 141 142 141 142 142 143 142 142 142 143 142 143 143 144 143 143 143 144 143 144 144 145 144 144 144 144 144 144 144 145 144 144 144 145 144 145 145 145 145 145 145 145 145 145 145 146 145 145 145 146 145 146 146 147 146 146 146 146 146 146 146 147 146 146 146 147 146 147 147 148 147 147 146 147 146 147 147 148 147 147 147 147 147 147 147 148 147 147 147 147 147 147 147 148 147 147 147 147 147 147 147 148 147 147 147 147 147 147 147 148 147 147 147 148 147 148 148 149 148 148 147 148 147 148 148 149 148 148 148 149 148 148 148 149 148 148 148 149 148 148 148 149 148 148 148 149 148 149 149 150 149 149 148 149 148 149 149 150 149 149 149 150 149 149 149 150
137 137 137 137 137 137 137 137 137 137 137 137 137 137 137 137 137 138 138 138 138 138 138 138 138 138 138 138 138 138 138 138 138 138 138 138 138 138 138 138 138 138 138 138 138 138 138 138 138 139 139 139 139 139 139 139 139 139 139 139 139 139 139 139 139 139 139 139 139 139 139 140 140 140 140 140 140 140 140 140 140 141 141 141 141 141 141 141 141 141 141 141 141 141 141 142 142 142 142 142 142 142 142 143 143 143 143 143 143 143 143 144 144 144 144 144 144 144 144 144 144 144 144 144 144 144 144 145 145 145 145 145 145 145 145 145 145 145 145 145 145 145 145 146 146 146 146 146 146 146 146 146 146 146 146 146 146 147 147 147 147 147 147 147 147 147 147 147 147 147 147 147 147 147 147 147 147 147 147 147 147 147 147 147 147 147 147 147 147 147 147 147 147 147 147 147 147 147 147 147 147 147 147 147 147 148 148 148 148 148 148 148 148 148 148 148 148 148 148 148 148 148 148 148 148 148 148 148 148 148 148 148 148 148 148 148 148 149 149 149 149 149 149 149 149 149 149 149 149 149 149 149 149 149 149 149 149
137 136 137 136 137 136 137 136 137 136 137 136 137 136 137 136 137 137 138 137 138 137 138 137 138 137 138 137 138 137 138 137 138 137 138 137 138 137 138 137 138 137 138 137 138 137 138 137 138 138 139 138 139 138 139 138 139 139 139 139 139 139 139 139 139 139 139 139 139 139 140 139 140 140 140 140 140 140 140 140 140 140 141 140 141 141 141 141 141 141 141 141 141 141 142 142 142 142 142 142 142 142 143 143 143 143 143 143 143 143 144 144 144 144 144 144 144 144 144 144 144 144 144 144 144 144 145 145 145 145 145 145 145 145 145 145 145 145 145 145 145 145 146 146 146 146 146 146 146 146 146 146 146 146 147 146 147 147 147 147 147 147 147 147 147 147 147 147 147 147 147 147 147 147 147 147 147 147 147 147 147 147 147 147 147 147 147 147 147 147 147 147 147 147 147 147 147 147 147 147 147 147 148 147 148 148 148 148 148 148 148 148 148 148 148 148 148 148 149 148 149 148 149 148 149 148 149 148 149 148 149 148 149 148 149 148 149 149 149 149 149 149 149 149 149 149 149 149 149 149 150 149 150 149 150 149 150
136 136 136 136 136 136 136 136 136 136 136 136 136 136 136 136 136 137 137 137 137 137 137 137 137 137 137 137 137 137 137 137 137 137 137 137 137 137 137 137 137 137 137 137 137 137 137 137 137 138 138 138 138 138 138 138 138 139 139 139 139 139 139 139 139 139 139 139 139 139 139 139 139 140 140 140 140 140 140 140 140 140 140 140 140 141 141 141 141 141 141 141 141 141 141 142 142 142 142 142 142 142 142 143 143 143 143 143 143 143 143 144 144 144 144 144 144 144 144 144 144 144 144 144 144 144 144 145 145 145 145 145 145 145 145 145 145 145 145 145 145 145 145 146 146 146 146 146 146 146 146 146 146 146 146 147 147 147 147 147 147 147 147 147 147 147 147 147 147 147 147 147 147 147 147 147 147 147 147 147 147 147 147 147 147 147 147 147 147 147 147 147 147 147 147 147 147 147 147 147 147 147 147 148 148 148 148 148 148 148 148 148 148 148 148 148 148 148 148 149 149 149 149 149 149 149 149 149 149 149 149 149 149 149 149 149 149 149 149 149 149 149 149 149 149 149 149 149 149 149 149 150 150 150 150 150 150
137 136 136 136 137 136 136 136 137 136 136 136 137 136 136 136 137 136 137 137 138 137 137 137 138 137 137 137 138 137 137 137 138 137 137 137 138 137 137 137 138 137 137 137 138 137 137 137 138 137 138 138 139 138 138 138 139 138 139 139 139 139 139 139 139 139 139 139 140 139 139 139 140 139 140 140 140 140 140 140 140 140 140 140 141 140 141 141 141 141 141 141 142 141 142 142 142 142 142 142 143 142 143 143 143 143 143 143 144 143 144 144 144 144 144 144 144 144 144 144 144 144 144 144 145 144 145 145 145 145 145 145 145 145 145 145 145 145 145 145 146 145 146 146 146 146 146 146 147 146 146 146 147 146 147 147 147 147 147 147 147 147 147 147 148 147 147 147 148 147 147 147 148 147 147 147 148 147 147 147 148 147 147 147 148 147 147 147 148 147 147 147 148 147 147 147 148 147 147 147 148 147 148 148 149 148 148 148 149 148 148 148 149 148 148 148 149 148 149 149 150 149 149 149 150 149 149 149 150 149 149 149 150 149 149 149 150 149 149 149 150 149 149 149 150 149 149 149 150 149 150 150 151 150 150 150 151
136 136 136 136 136 136 136 136 136 136 136 136 136 136 136 136 136 136 136 137 137 137 137 137 137 137 137 137 137 137 137 137 137 137 137 137 137 137 137 137 137 137 137 137 137 137 137 137 137 137 137 138 138 138 138 138 138 138 138 139 139 139 139 139 139 139 139 139 139 139 139 139 139 139 139 140 140 140 140 140 140 140 140 140 140 140 140 141 141 141 141 141 141 141 141 142 142 142 142 142 142 142 142 143 143 143 143 143 143 143 143 144 144 144 144 144 144 144 144 144 144 144 144 144 144 144 144 145 145 145 145 145 145 145 145 145 145 145 145 145 145 145 145 146 146 146 146 146 146 146 146 146 146 147 147 147 147 147 147 147 147 147 147 147 147 147 147 147 147 147 147 147 147 147 147 147 147 147 147 147 147 147 147 147 147 147 147 147 147 147 147 147 147 147 147 147 147 147 147 147 147 148 148 148 148 148 148 148 148 148 148 148 148 148 148 148 148 149 149 149 149 149 149 149 149 149 149 149 149 149 149 149 149 149 149 149 149 149 149 149 149 149 149 149 149 149 149 149 149 150 150 150 150 150 150 150 150
136 136 136 136 136 136 136 136 136 136 136 136 136 136 136 136 136 136 137 136 137 137 137 137 137 137 137 137 137 137 137 137 137 137 137 137 137 137 137 137 137 137 137 137 137 137 137 137 137 137 138 137 138 138 138 138 138 138 139 138 139 139 139 139 139 139 139 139 139 139 139 139 139 139 140 139 140 140 140 140 140 140 140 140 140 140 141 141 141 141 141 141 141 141 142 142 142 142 142 142 142 142 143 143 143 143 143 143 143 143 144 144 144 144 144 144 144 144 144 144 144 144 144 144 144 144 145 145 145 145 145 145 145 145 145 145 145 145 145 145 145 145 146 146 146 146 146 146 146 146 147 146 147 147 147 147 147 147 147 147 147 147 147 147 147 147 148 147 148 147 148 147 148 147 148 147 148 147 148 147 148 147 148 147 148 147 148 147 148 147 148 147 148 147 148 147 148 147 148 147 148 148 149 148 149 148 149 148 149 148 149 148 149 148 149 148 149 149 150 149 150 149 150 149 150 149 150 149 150 149 150 149 150 149 150 149 150 149 150 149 150 149 150 149 150 149 150 149 150 150 151 150 151 150 151 150 151
136 136 136 136 136 136 136 136 136 136 136 136 136 136 136 136 136 136 136 136 136 137 137 137 137 137 137 137 137 137 137 137 137 137 137 137 137 137 137 137 137 137 137 137 137 137 137 137 137 137 137 137 137 138 138 138 138 138 138 138 138 139 139 139 139 139 139 139 139 139 139 139 139 139 139 139 139 140 140 140 140 140 140 140 140 140 140 141 141 141 141 141 141 141 141 142 142 142 142 142 142 142 142 143 143 143 143 143 143 143 143 144 144 144 144 144 144 144 144 144 144 144 144 144 144 144 144 145 145 145 145 145 145 145 145 145 145 145 145 145 145 145 145 146 146 146 146 146 146 146 146 147 147 147 147 147 147 147 147 147 147 147 147 147 147 147 147 148 148 148 148 148 148 148 148 148 148 148 148 148 148 148 148 148 148 148 148 148 148 148 148 148 148 148 148 148 148 148 148 148 148 149 148 149 149 149 149 149 149 149 149 149 149 149 149 149 149 150 149 150 150 150 150 150 150 150 150 150 150 150 150 150 150 150 150 150 150 150 150 150 150 150 150 150 150 150 150 150 150 151 150 151 151 151 151 151 151
137 136 136 136 136 136 136 136 137 136 136 136 136 136 136 136 137 136 136 136 137 136 137 137 138 137 137 137 137 137 137 137 138 137 137 137 137 137 137 137 138 137 137 137 137 137 137 137 138 137 137 137 138 137 138 138 139 138 138 138 139 138 139 139 139 139 139 139 139 139 139 139 140 139 139 139 140 139 140 140 140 140 140 140 141 140 141 141 142 141 141 141 142 141 142 142 143 142 142 142 143 142 143 143 144 143 143 143 144 143 144 144 144 144 144 144 144 144 144 144 145 144 144 144 145 144 145 145 145 145 145 145 145 145 145 145 146 145 145 145 146 145 146 146 146 146 146 146 147 146 147 147 148 147 147 147 147 147 147 147 148 147 147 147 148 147 148 148 149 148 148 148 148 148 148 148 149 148 148 148 148 148 148 148 149 148 148 148 149 148 148 148 149 148 148 148 149 148 149 149 150 149 149 149 150 149 149 149 150 149 149 149 150 149 150 150 151 150 150 150 151 150 150 150 151 150 150 150 151 150 150 150 151 150 150 150 151 150 150 150 151 150 150 150 151 150 151 151 152 151 151 151 152 151 151 151 152
136 136 136 136 136 136 136 136 136 136 136 136 136 136 136 136 136 136 136 136 136 136 136 136 136 137 137 137 137 137 137 137 137 137 137 137 137 137 137 137 137 137 137 137 137 137 137 137 137 137 137 137 137 137 137 138 138 138 138 138 138 138 138 139 139 139 139 139 139 139 139 139 139 139 139 139 139 139 139 140 140 140 140 140 140 140 140 141 141 141 141 141 141 141 141 142 142 142 142 142 142 142 142 143 143 143 143 143 143 143 143 144 144 144 144 144 144 144 144 144 144 144 144 144 144 144 144 145 145 145 145 145 145 145 145 145 145 145 145 145 145 145 145 146 146 146 146 146 146 146 146 147 147 147 147 147 147 147 147 147 147 147 147 147 147 148 148 148 148 148 148 148 148 148 148 148 148 148 148 148 148 148 148 148 148 148 148 148 148 148 148 148 148 148 148 148 148 149 149 149 149 149 149 149 149 149 149 149 149 149 149 149 149 150 150 150 150 150 150 150 150 150 150 150 150 150 150 150 150 150 150 150 150 150 150 150 150 150 150 150 150 150 150 150 150 151 151 151 151 151 151 151 151 151 151 151 151
136 135 136 135 136 135 136 135 136 135 136 135 136 135 136 135 136 135 136 135 136 135 136 135 136 136 137 136 137 137 137 137 137 137 137 137 137 137 137 137 137 137 137 137 137 137 137 137 137 137 137 137 137 137 138 137 138 138 138 138 138 138 139 139 139 139 139 139 139 139 139 139 139 139 139 139 139 139 140 140 140 140 140 140 140 140 141 141 141 141 141 141 141 141 142 142 142 142 142 142 142 142 143 143 143 143 143 143 143 143 144 144 144 144 144 144 144 144 144 144 144 144 144 144 144 144 145 145 145 145 145 145 145 145 145 145 145 145 145 145 145 145 146 146 146 146 146 146 146 146 147 147 147 147 147 147 147 147 147 147 147 147 148 147 148 148 148 148 148 148 148 148 148 148 148 148 148 148 148 148 148 148 148 148 148 148 149 148 149 148 149 148 149 148 149 148 149 149 149 149 149 149 150 149 150 149 150 149 150 149 150 149 150 150 150 150 150 150 151 150 151 150 151 150 151 150 151 150 151 150 151 150 151 150 151 150 151 150 151 150 151 150 151 150 151 151 151 151 151 151 152 151 152 151 152 151 152
135 135 135 135 135 135 135 135 135 135 135 135 135 135 135 135 135 135 135 135 135 135 135 135 135 136 136 136 136 137 137 137 137 137 137 137 137 137 137 137 137 137 137 137 137 137 137 137 137 137 137 137 137 137 137 137 137 138 138 138 138 138 138 139 139 139 139 139 139 139 139 139 139 139 139 139 139 139 139 140 140 140 140 140 140 140 140 141 141 141 141 141 141 141 141 142 142 142 142 142 142 142 142 143 143 143 143 143 143 143 143 144 144 144 144 144 144 144 144 144 144 144 144 144 144 144 144 145 145 145 145 145 145 145 145 145 145 145 145 145 145 145 145 146 146 146 146 146 146 146 146 147 147 147 147 147 147 147 147 147 147 147 147 148 148 148 148 148 148 148 148 148 148 148 148 148 148 148 148 148 148 148 148 148 148 148 148 149 149 149 149 149 149 149 149 149 149 149 149 149 149 149 149 150 150 150 150 150 150 150 150 150 150 150 150 150 150 150 150 151 151 151 151 151 151 151 151 151 151 151 151 151 151 151 151 151 151 151 151 151 151 151 151 151 151 151 151 151 151 151 151 152 152 152 152 152 152
136 135 135 135 136 135 135 135 136 135 135 135 136 135 135 135 136 135 135 135 136 135 135 135 136 135 136 136 137 136 137 137 137 137 137 137 137 137 137 137 137 137 137 137 137 137 137 137 137 137 137 137 138 137 137 137 138 137 138 138 139 138 139 139 139 139 139 139 139 139 139 139 139 139 139 139 140 139 140 140 140 140 140 140 141 140 141 141 141 141 141 141 142 141 142 142 142 142 142 142 143 142 143 143 143 143 143 143 144 143 144 144 144 144 144 144 144 144 144 144 144 144 144 144 145 144 145 145 145 145 145 145 145 145 145 145 145 145 145 145 146 145 146 146 146 146 146 146 147 146 147 147 147 147 147 147 148 147 147 147 148 147 148 148 149 148 148 148 148 148 148 148 149 148 148 148 149 148 148 148 149 148 148 148 149 148 149 149 150 149 149 149 150 149 149 149 150 149 149 149 150 149 150 150 151 150 150 150 151 150 150 150 151 150 150 150 151 150 151 151 152 151 151 151 152 151 151 151 152 151 151 151 152 151 151 151 152 151 151 151 152 151 151 151 152 151 151 151 152 151 152 152 153 152 152 152 153
135 135 135 135 135 135 135 135 135 135 135 135 135 135 135 135 135 135 135 135 135 135 135 135 135 135 135 136 136 136 136 137 137 137 137 137 137 137 137 137 137 137 137 137 137 137 137 137 137 137 137 137 137 137 137 137 137 137 137 138 138 138 138 139 139 139 139 139 139 139 139 139 139 139 139 139 139 139 139 140 140 140 140 140 140 140 140 141 141 141 141 141 141 141 141 142 142 142 142 142 142 142 142 143 143 143 143 143 143 143 143 144 144 144 144 144 144 144 144 144 144 144 144 144 144 144 144 145 145 145 145 145 145 145 145 145 145 145 145 145 145 145 145 146 146 146 146 146 146 146 146 147 147 147 147 147 147 147 147 147 147 148 148 148 148 148 148 148 148 148 148 148 148 148 148 148 148 148 148 148 148 148 148 148 148 149 149 149 149 149 149 149 149 149 149 149 149 149 149 149 149 150 150 150 150 150 150 150 150 150 150 150 150 150 150 150 150 151 151 151 151 151 151 151 151 151 151 151 151 151 151 151 151 151 151 151 151 151 151 151 151 151 151 151 151 151 151 151 151 152 152 152 152 152 152 152 152
135 135 135 135 135 134 135 134 135 134 135 134 135 135 135 135 135 135 135 135 135 135 135 135 135 135 136 135 136 136 137 137 137 137 137 137 137 136 137 136 137 137 137 137 137 137 137 137 137 137 137 137 137 137 137 137 137 137 138 137 138 138 139 139 139 139 139 139 139 139 139 139 139 139 139 139 139 139 140 140 140 140 140 140 140 140 141 141 141 141 141 141 141 141 142 142 142 142 143 142 142 142 143 143 143 143 143 143 143 143 144 144 144 144 144 144 144 144 144 144 144 144 144 144 144 144 145 145 145 145 145 145 145 145 145 145 145 145 145 145 145 145 146 146 146 146 147 146 146 146 147 147 147 147 147 147 147 147 148 147 148 148 149 148 148 148 148 148 148 148 148 148 148 148 149 148 149 148 149 148 149 148 149 148 149 149 149 149 149 149 150 149 150 149 150 149 150 149 150 149 150 150 151 150 151 150 151 150 151 150 151 150 151 150 151 150 151 151 152 151 152 151 152 151 152 151 152 151 152 151 152 151 152 151 152 151 152 151 152 151 152 151 152 151 152 151 152 151 152 152 153 152 153 152 153 152 153
135 135 135 135 134 134 134 134 134 134 134 134 134 135 135 135 135 135 135 135 135 135 135 135 135 135 135 135 135 136 136 137 137 137 137 137 136 136 136 136 136 137 137 137 137 137 137 137 137 137 137 137 137 137 137 137 137 137 137 137 137 138 138 139 139 139 139 139 139 139 139 139 139 139 139 139 139 139 139 140 140 140 140 140 140 140 140 141 141 141 141 141 141 141 141 142 142 143 142 142 142 142 142 143 143 143 143 143 143 143 143 144 144 144 144 144 144 144 144 144 144 144 144 144 144 144 144 145 145 145 145 145 145 145 145 145 145 145 145 145 145 145 145 146 146 147 146 146 146 146 146 147 147 147 147 147 147 147 147 148 148 149 148 148 148 148 148 148 148 148 148 148 148 148 148 149 149 149 149 149 149 149 149 149 149 149 149 149 149 149 149 150 150 150 150 150 150 150 150 150 150 151 150 151 151 151 151 151 151 151 151 151 151 151 151 151 151 152 151 152 152 152 152 152 152 152 152 152 152 152 152 152 152 152 152 152 152 152 152 152 152 152 152 152 152 152 152 152 152 153 152 153 153 153 153 153 153
136 135 135 134 135 134 134 134 135 134 134 134 135 134 135 135 136 135 135 135 135 135 135 135 136 135 135 135 136 135 136 136 138 137 137 136 137 136 136 136 137 136 137 137 137 137 137 137 138 137 137 137 137 137 137 137 138 137 137 137 138 137 138 138 140 139 139 139 139 139 139 139 140 139 139 139 140 139 140 140 141 140 140 140 141 140 141 141 142 141 141 141 142 141 142 142 144 143 143 142 143 142 143 143 144 143 143 143 144 143 144 144 145 144 144 144 144 144 144 144 145 144 144 144 145 144 145 145 146 145 145 145 145 145 145 145 146 145 145 145 146 145 146 146 148 147 147 146 147 146 147 147 148 147 147 147 148 147 148 148 150 149 149 148 149 148 148 148 149 148 148 148 149 148 149 149 150 149 149 149 149 149 149 149 150 149 149 149 150 149 150 150 152 151 151 150 151 150 151 151 152 151 151 151 152 151 152 152 153 152 152 151 152 151 152 152 153 152 152 152 153 152 153 153 154 153 153 152 153 152 152 152 153 152 152 152 153 152 153 153 154 153 153 152 153 152 153 153 154 153 153 153 154 153 154 154 155
134 134 134 134 134 134 134 134 134 134 134 134 134 134 134 134 134 135 135 135 135 135 135 135 135 135 135 135 135 135 135 136 135 136 136 136 136 136 136 136 136 136 136 137 137 137 137 137 137 137 137 137 137 137 137 137 137 137 137 137 137 137 137 138 138 139 139 139 139 139 139 139 139 139 139 139 139 139 139 140 140 140 140 140 140 140 140 141 141 141 141 141 141 141 141 142 142 143 143 143 143 143 143 143 143 143 143 143 143 143 143 144 144 144 144 144 144 144 144 144 144 144 144 144 144 144 144 145 145 145 145 145 145 145 145 145 145 145 145 145 145 146 146 146 146 147 147 147 147 147 147 147 147 147 147 147 147 148 148 148 148 149 149 149 148 148 148 148 148 148 148 148 148 149 149 149 149 149 149 149 149 149 149 149 149 149 149 149 149 150 150 150 150 151 151 151 151 151 151 151 151 151 151 151 151 152 152 152 152 152 152 152 152 152 152 152 152 152 152 152 152 153 153 153 153 153 153 153 152 152 152 152 152 152 152 152 152 153 153 153 153 153 153 153 153 153 153 153 153 153 153 153 153 154 154 154 154
134 133 134 133 134 133 134 133 134 133 134 133 134 133 134 133 134 134 135 134 135 134 135 134 135 135 135 135 135 135 136 135 135 135 136 135 136 136 136 136 136 136 137 136 137 136 137 136 137 137 137 137 137 137 137 137 137 137 137 137 137 137 138 137 138 138 139 138 139 139 139 139 139 139 139 139 139 139 140 140 140 140 140 140 140 140 141 141 141 141 141 141 141 141 142 141 142 142 143 142 143 143 143 143 143 143 143 143 143 143 144 144 144 144 144 144 144 144 144 144 144 144 144 144 144 144 145 145 145 145 145 145 145 145 145 145 145 145 146 145 146 146 147 146 146 146 147 147 147 147 147 147 147 147 148 147 148 148 148 148 148 148 149 148 149 148 149 148 149 148 149 148 149 149 149 149 149 149 149 149 149 149 149 149 149 149 150 149 150 150 151 150 150 150 151 151 151 151 151 151 151 151 152 151 152 152 152 152 152 152 152 152 152 152 152 152 152 152 153 152 153 153 153 153 153 153 153 153 153 152 153 152 153 152 153 152 153 153 153 153 153 153 154 153 154 153 154 153 154 153 154 153 154 154 154 154 154
133 133 133 133 133 133 133 133 133 133 133 133 133 133 133 133 133 134 134 134 134 134 134 134 134 135 135 135 135 135 135 135 135 135 135 135 135 136 136 136 136 136 136 136 136 136 136 136 136 137 137 137 137 137 137 137 137 137 137 137 137 137 137 137 137 138 138 138 138 139 139 139 139 139 139 139 139 139 139 140 140 140 140 140 140 140 140 141 141 141 141 141 141 141 141 141 141 142 142 142 142 143 143 143 143 143 143 143 143 143 143 144 144 144 144 144 144 144 144 144 144 144 144 144 144 144 144 145 145 145 145 145 145 145 145 145 145 145 145 146 146 146 146 146 146 146 146 147 147 147 147 147 147 147 147 148 148 148 148 148 148 148 148 148 148 149 149 149 149 149 149 149 149 149 149 149 149 149 149 149 149 149 149 149 149 149 149 150 150 150 150 150 150 150 150 151 151 151 151 151 151 151 151 152 152 152 152 152 152 152 152 152 152 152 152 152 152 152 152 153 153 153 153 153 153 153 153 153 153 153 153 153 153 153 153 153 153 153 153 153 153 153 153 154 154 154 154 154 154 154 154 154 154 154 154 154 154
134 133 133 133 134 133 133 133 134 133 133 133 134 133 133 133 134 133 134 134 135 134 134 134 135 134 135 135 136 135 135 135 135 135 135 135 136 135 136 136 137 136 136 136 137 136 136 136 137 136 137 137 137 137 137 137 137 137 137 137 138 137 137 137 138 137 138 138 139 138 139 139 139 139 139 139 140 139 140 140 140 140 140 140 141 140 141 141 141 141 141 141 142 141 141 141 142 141 142 142 143 142 143 143 143 143 143 143 144 143 144 144 144 144 144 144 144 144 144 144 144 144 144 144 145 144 145 145 145 145 145 145 146 145 145 145 146 145 146 146 147 146 147 146 147 146 147 147 148 147 147 147 148 147 148 148 149 148 148 148 148 148 148 148 149 148 149 149 149 149 149 149 150 149 149 149 150 149 149 149 150 149 149 149 150 149 150 150 151 150 151 150 151 150 151 151 152 151 151 151 152 151 152 152 153 152 152 152 153 152 152 152 153 152 152 152 153 152 153 153 154 153 153 153 154 153 153 153 154 153 153 153 154 153 153 153 154 153 153 153 154 153 154 154 155 154 154 154 155 154 154 154 155 154 154 154 155
133 133 133 133 133 133 133 133 133 133 133 133 133 133 133 133 133 133 133 134 134 134 134 134 134 134 134 135 135 135 135 135 135 135 135 135 135 135 135 136 136 136 136 136 136 136 136 136 136 136 136 137 137 137 137 137 137 137 137 137 137 137 137 137 137 137 137 138 138 138 138 139 139 139 139 139 139 139 139 140 140 140 140 140 140 140 140 141 141 141 141 141 141 141 141 141 141 141 141 142 142 142 142 143 143 143 143 143 143 143 143 144 144 144 144 144 144 144 144 144 144 144 144 144 144 144 144 145 145 145 145 145 145 145 145 145 145 146 146 146 146 146 146 147 147 147 147 147 147 147 147 147 147 148 148 148 148 148 148 148 148 148 148 148 148 148 148 149 149 149 149 149 149 149 149 149 149 149 149 149 149 149 149 149 149 150 150 150 150 150 150 151 151 151 151 151 151 151 151 151 151 152 152 152 152 152 152 152 152 152 152 152 152 152 152 152 152 153 153 153 153 153 153 153 153 153 153 153 153 153 153 153 153 153 153 153 153 153 153 153 153 154 154 154 154 154 154 154 154 154 154 154 154 154 154 154 154
133 133 133 133 133 133 133 133 133 133 133 133 133 133 133 133 133 133 134 133 134 134 134 134 134 134 135 134 135 134 135 134 135 134 135 134 135 135 136 136 136 136 136 136 136 136 136 136 136 136 137 136 137 137 137 137 137 137 137 137 137 137 137 137 137 137 138 137 138 138 139 139 139 139 139 139 139 139 140 140 140 140 140 140 140 140 141 141 141 141 141 141 141 141 141 141 141 141 142 141 142 142 143 143 143 143 143 143 143 143 144 144 144 144 144 144 144 144 144 144 144 144 144 144 144 144 145 145 145 145 145 145 145 145 146 145 146 146 146 146 146 146 147 147 147 147 147 147 147 147 148 147 148 148 148 148 148 148 148 148 148 148 148 148 148 148 149 149 149 149 149 149 149 149 150 149 150 149 150 149 150 149 150 149 150 150 151 150 150 150 151 151 151 151 151 151 151 151 152 151 152 152 153 152 153 152 153 152 153 152 153 152 153 152 153 152 153 153 154 153 154 153 154 153 154 153 154 153 154 153 154 153 154 153 154 153 154 153 154 153 154 154 155 154 155 154 155 154 155 154 155 154 155 154 155 154 155
133 133 133 133 133 133 133 133 133 133 133 133 133 133 133 133 133 133 133 133 133 134 134 134 134 134 134 134 134 134 134 134 134 134 134 134 134 135 135 136 136 136 136 136 136 136 136 136 136 136 136 136 136 137 137 137 137 137 137 137 137 137 137 137 137 137 137 137 137 138 138 139 139 139 139 139 139 139 139 140 140 140 140 140 140 140 140 141 141 141 141 141 141 141 141 141 141 141 141 141 141 142 142 143 143 143 143 143 143 143 143 144 144 144 144 144 144 144 144 144 144 144 144 144 144 144 144 145 145 145 145 145 145 145 145 146 146 146 146 146 146 146 146 147 147 147 147 147 147 147 147 148 148 148 148 148 148 148 148 148 148 148 148 148 148 148 148 149 149 149 149 149 149 149 149 150 150 150 150 150 150 150 150 150 150 151 150 150 150 150 150 151 151 151 151 151 151 151 151 152 152 153 152 153 153 153 153 153 153 153 153 153 153 153 153 153 153 154 153 154 154 154 154 154 154 154 154 154 154 154 154 154 154 154 154 154 154 154 154 154 154 155 154 155 155 155 155 155 155 155 155 155 155 155 155 155 155
134 133 133 133 133 133 133 133 134 133 133 133 133 133 133 133 134 133 133 133 134 133 134 134 135 134 134 134 135 134 134 134 135 134 134 134 135 134 135 135 137 136 136 136 136 136 136 136 137 136 136 136 137 136 137 137 138 137 137 137 137 137 137 137 138 137 137 137 138 137 138 138 140 139 139 139 140 139 140 140 140 140 140 140 141 140 141 141 142 141 141 141 141 141 141 141 142 141 141 141 142 141 142 142 144 143 143 143 144 143 144 144 144 144 144 144 144 144 144 144 145 144 144 144 145 144 145 145 145 145 145 145 146 145 146 146 147 146 146 146 147 146 147 147 147 147 147 147 148 147 148 148 149 148 148 148 149 148 148 148 149 148 148 148 149 148 149 149 150 149 149 149 150 149 150 150 151 150 150 150 151 150 151 151 152 151 151 150 151 150 151 151 152 151 151 151 152 151 152 152 154 153 153 153 154 153 153 153 154 153 153 153 154 153 154 154 155 154 154 154 155 154 154 154 155 154 154 154 155 154 155 155 156 155 155 154 155 154 155 155 156 155 155 155 156 155 156 156 157 156 156 155 156 155 156 156 157
133 133 133 133 133 133 133 133 133 133 133 133 133 133 133 133 133 133 133 133 133 133 133 134 134 134 134 134 134 134 134 134 134 134 134 134 134 134 134 135 135 136 136 136 136 136 136 136 136 136 136 136 136 136 136 137 137 137 137 137 137 137 137 137 137 137 137 137 137 137 137 138 138 139 139 139 139 139 139 140 140 140 140 140 140 140 140 141 140 141 141 141 141 141 141 141 141 141 141 141 141 141 141 142 142 143 143 143 143 143 143 144 144 144 144 144 144 144 144 144 144 144 144 144 144 144 144 145 145 145 145 145 145 145 145 146 146 146 146 146 146 146 146 147 147 147 147 147 147 147 147 148 148 148 148 148 148 148 148 148 148 148 148 148 148 149 149 149 149 149 149 149 149 150 150 150 150 150 150 150 150 151 151 151 151 151 151 151 151 151 151 151 151 151 151 151 151 152 152 153 152 153 153 153 153 153 153 153 153 153 153 153 153 154 154 154 154 154 154 154 154 154 154 154 154 154 154 154 154 155 155 155 155 155 155 155 155 155 155 155 155 155 155 155 155 156 156 156 156 156 156 156 156 156 156 156 156
133 132 133 132 133 132 133 132 133 133 133 133 133 133 133 133 133 133 133 133 133 133 134 133 134 134 134 134 134 134 134 134 134 134 134 134 134 134 135 135 135 135 136 135 136 136 136 136 136 136 136 136 136 136 137 136 137 137 137 137 137 137 137 137 137 137 137 137 137 137 138 138 138 138 139 139 139 139 140 140 140 140 140 140 140 140 141 140 140 140 141 140 141 141 141 141 141 141 141 141 141 141 142 142 142 142 143 143 143 143 144 144 144 144 144 144 144 144 144 144 144 144 144 144 144 144 145 145 145 145 145 145 145 145 146 146 146 146 146 146 146 146 147 147 147 147 147 147 147 147 148 148 148 148 148 148 148 148 149 148 149 148 149 148 149 149 149 149 149 149 150 149 150 150 150 150 150 150 151 150 151 151 151 151 151 151 151 151 151 151 151 151 151 151 152 151 152 152 153 153 153 153 154 153 154 153 154 153 154 153 154 153 154 154 154 154 154 154 155 154 155 154 155 154 155 154 155 154 155 155 155 155 155 155 156 155 156 155 156 155 156 155 156 155 156 156 156 156 156 156 157 156 157 156 157 156 157
132 132 132 132 132 132 132 132 132 133 133 133 133 133 133 133 133 133 133 133 133 133 133 133 133 134 134 134 134 134 134 134 134 134 134 134 134 134 134 135 135 135 135 135 135 136 136 136 136 136 136 136 136 136 136 136 136 137 137 137 137 137 137 137 137 137 137 137 137 137 137 138 138 138 138 139 139 139 139 140 140 140 140 140 140 140 140 140 140 140 140 140 140 141 141 141 141 141 141 141 141 141 141 142 142 142 142 143 143 143 143 144 144 144 144 144 144 144 144 144 144 144 144 144 144 144 144 145 145 145 145 145 145 145 145 146 146 146 146 146 146 146 146 147 147 147 147 147 147 147 147 148 148 148 148 148 148 148 148 149 149 149 149 149 149 149 149 149 149 149 149 150 150 150 150 150 150 150 150 151 151 151 151 151 151 151 151 151 151 151 151 151 151 151 151 152 152 152 152 153 153 153 153 154 154 154 154 154 154 154 154 154 154 154 154 154 154 154 154 155 155 155 155 155 155 155 155 155 155 155 155 155 155 155 155 156 156 156 156 156 156 156 156 156 156 156 156 156 156 156 156 157 157 157 157 157 157
133 132 132 132 133 132 132 132 133 132 133 133 133 133 133 133 133 133 133 133 134 133 133 133 134 133 134 134 134 134 134 134 134 134 134 134 135 134 135 135 135 135 135 135 136 135 136 136 136 136 136 136 137 136 136 136 137 136 137 137 137 137 137 137 137 137 137 137 138 137 138 138 138 138 139 139 140 139 140 140 140 140 140 140 141 140 140 140 140 140 140 140 141 140 141 141 141 141 141 141 142 141 142 142 142 142 143 143 144 143 144 144 144 144 144 144 144 144 144 144 144 144 144 144 145 144 145 145 145 145 145 145 146 145 146 146 146 146 146 146 147 146 147 147 147 147 147 147 148 147 148 148 148 148 148 148 149 148 149 149 149 149 149 149 150 149 149 149 150 149 150 150 151 150 150 150 151 150 151 151 152 151 151 151 152 151 151 151 152 151 151 151 152 151 152 152 153 152 153 153 153 153 154 154 155 154 154 154 155 154 154 154 155 154 154 154 155 154 155 155 156 155 155 155 156 155 155 155 156 155 155 155 156 155 156 156 157 156 156 156 157 156 156 156 157 156 156 156 157 156 157 157 158 157 157 157 158
132 132 132 132 132 132 132 132 132 132 132 133 133 133 133 133 133 133 133 133 133 133 133 133 133 133 133 134 134 134 134 134 134 134 134 134 134 134 134 135 135 135 135 135 135 135 135 136 136 136 136 136 136 136 136 136 136 136 136 137 137 137 137 137 137 137 137 137 137 137 137 138 138 138 138 139 139 139 139 140 140 140 140 140 140 140 140 140 140 140 140 140 140 140 140 141 141 141 141 141 141 141 141 142 142 142 142 143 143 143 143 144 144 144 144 144 144 144 144 144 144 144 144 144 144 144 144 145 145 145 145 145 145 145 145 146 146 146 146 146 146 146 146 147 147 147 147 147 147 147 147 148 148 148 148 148 148 148 148 149 149 149 149 149 149 149 149 149 149 150 150 150 150 150 150 150 150 151 151 151 151 151 151 151 151 151 151 151 151 151 151 151 151 152 152 152 152 153 153 153 153 153 153 154 154 154 154 154 154 154 154 154 154 154 154 154 154 155 155 155 155 155 155 155 155 155 155 155 155 155 155 155 155 156 156 156 156 156 156 156 156 156 156 156 156 156 156 156 156 157 157 157 157 157 157 157 157
132 132 132 132 132 132 132 132 132 132 133 132 133 133 133 133 133 133 133 133 133 133 133 133 133 133 134 133 134 134 134 134 134 134 134 134 134 134 135 135 135 135 135 135 135 135 136 136 136 136 136 136 136 136 136 136 136 136 137 136 137 137 137 137 137 137 137 137 137 137 138 138 138 138 139 138 139 139 140 140 140 140 140 140 140 140 140 140 140 140 140 140 140 140 141 141 141 141 141 141 141 141 142 142 142 142 143 142 143 143 144 144 144 144 144 144 144 144 144 144 144 144 144 144 144 144 145 145 145 145 145 145 145 145 146 146 146 146 146 146 146 146 147 147 147 147 148 147 147 147 148 148 148 148 148 148 148 148 149 149 149 149 149 149 149 149 150 149 150 150 150 150 150 150 151 150 151 151 152 151 151 151 152 151 152 151 152 151 152 151 152 151 152 152 153 152 153 153 153 153 153 153 154 154 154 154 155 154 155 154 155 154 155 154 155 154 155 155 156 155 156 155 156 155 156 155 156 155 156 155 156 155 156 156 157 156 157 156 157 156 157 156 157 156 157 156 157 156 157 157 158 157 158 157 158 157 158
132 132 132 132 132 132 132 132 132 132 132 132 132 133 133 133 133 133 133 133 133 133 133 133 133 133 133 133 133 134 134 134 134 134 134 134 134 134 134 135 135 135 135 135 135 135 135 136 136 136 136 136 136 136 136 136 136 136 136 136 136 137 137 137 137 137 137 137 137 137 137 138 138 138 138 138 138 139 139 140 140 140 140 140 140 140 140 140 140 140 140 140 140 140 140 141 141 141 141 141 141 141 141 142 142 142 142 142 142 143 143 144 144 144 144 144 144 144 144 144 144 144 144 144 144 144 144 145 145 145 145 145 145 145 145 146 146 146 146 146 146 146 146 147 147 148 147 147 147 147 147 148 148 148 148 148 148 148 148 149 149 149 149 149 149 149 149 150 150 150 150 150 150 150 150 151 151 152 151 151 151 151 151 152 152 152 152 152 152 152 152 152 152 153 152 153 153 153 153 153 153 154 153 154 154 154 154 155 155 155 155 155 155 155 155 155 155 156 155 156 156 156 156 156 156 156 156 156 156 156 156 156 156 157 156 157 157 157 157 157 157 157 157 157 157 157 157 157 157 158 157 158 158 158 158 158 158
133 132 132 132 132 132 132 132 133 132 132 132 133 132 133 133 134 133 133 133 133 133 133 133 134 133 133 133 134 133 134 134 135 134 134 134 135 134 135 135 136 135 135 135 136 135 136 136 137 136 136 136 136 136 136 136 137 136 136 136 137 136 137 137 138 137 137 137 138 137 138 138 139 138 138 138 139 138 139 139 141 140 140 140 140 140 140 140 141 140 140 140 141 140 141 141 142 141 141 141 142 141 142 142 143 142 142 142 143 142 143 143 145 144 144 144 144 144 144 144 145 144 144 144 145 144 145 145 146 145 145 145 146 145 146 146 147 146 146 146 147 146 147 147 149 148 148 147 148 147 148 148 149 148 148 148 149 148 149 149 150 149 149 149 150 149 150 150 151 150 150 150 151 150 151 151 153 152 152 151 152 151 152 152 153 152 152 152 153 152 153 153 154 153 153 153 154 153 154 154 155 154 154 154 155 154 155 155 157 156 156 155 156 155 156 156 157 156 156 156 157 156 156 156 157 156 156 156 157 156 157 157 158 157 157 157 158 157 158 158 159 158 158 157 158 157 158 158 159 158 158 158 159 158 159 159 160
132 132 132 132 132 132 132 132 132 132 132 132 132 132 132 132 132 133 133 133 133 133 133 133 133 133 133 133 133 133 133 134 134 134 134 134 134 134 134 135 135 135 135 135 135 135 135 135 135 136 136 136 136 136 136 136 136 136 136 136 136 136 136 137 137 137 137 137 137 137 137 138 138 138 138 138 138 138 138 139 139 140 140 140 140 140 140 140 140 140 140 140 140 140 140 141 141 141 141 141 141 141 141 142 142 142 142 142 142 142 142 143 143 144 144 144 144 144 144 144 144 144 144 144 144 145 145 145 145 145 145 145 145 146 146 146 146 146 146 146 146 147 147 147 147 148 148 148 148 148 148 148 148 148 148 148 148 149 149 149 149 149 149 149 149 150 150 150 150 150 150 150 150 151 151 151 151 152 152 152 152 152 152 152 152 152 152 152 152 153 153 153 153 153 153 153 153 154 154 154 154 154 154 154 154 155 155 155 155 156 156 156 156 156 156 156 156 156 156 156 156 156 156 156 156 156 156 156 156 157 157 157 157 157 157 157 157 158 158 158 158 158 158 158 158 158 158 158 158 158 158 158 158 159 159 159 159
132 131 132 131 132 131 132 131 132 131 132 131 132 131 132 131 132 132 133 132 133 132 133 132 133 133 133 133 133 133 134 133 134 134 134 134 134 134 135 134 135 134 135 134 135 134 135 134 135 135 136 135 136 136 136 136 136 136 136 136 136 136 137 137 137 137 137 137 137 137 138 138 138 138 138 138 138 138 139 139 139 139 140 139 140 140 140 140 140 140 140 140 140 140 141 141 141 141 141 141 141 141 142 142 142 142 142 142 142 142 143 143 143 143 144 144 144 144 144 144 144 144 145 144 145 145 145 145 145 145 146 145 146 146 146 146 146 146 147 146 147 147 148 147 147 147 148 148 148 148 148 148 148 148 149 148 149 149 149 149 149 149 150 149 150 150 150 150 150 150 151 150 151 151 152 151 151 151 152 152 152 152 152 152 152 152 153 152 153 153 153 153 153 153 154 153 154 154 154 154 154 154 155 154 155 155 156 155 155 155 156 156 156 156 156 156 156 156 157 156 157 156 157 156 157 156 157 156 157 157 157 157 157 157 158 157 158 158 158 158 158 158 159 158 159 158 159 158 159 158 159 158 159 159 160 159 160
131 131 131 131 131 131 131 131 131 131 131 131 131 131 131 131 131 132 132 132 132 132 132 132 132 133 133 133 133 133 133 133 133 134 134 134 134 134 134 134 134 134 134 134 134 134 134 134 134 135 135 135 135 136 136 136 136 136 136 136 136 136 136 137 137 137 137 137 137 137 137 138 138 138 138 138 138 138 138 139 139 139 139 139 139 140 140 140 140 140 140 140 140 140 140 141 141 141 141 141 141 141 141 142 142 142 142 142 142 142 142 143 143 143 143 144 144 144 144 144 144 144 144 145 145 145 145 145 145 145 145 146 146 146 146 146 146 146 146 147 147 147 147 147 147 147 147 148 148 148 148 148 148 148 148 149 149 149 149 149 149 149 149 150 150 150 150 150 150 150 150 151 151 151 151 151 151 151 151 152 152 152 152 152 152 152 152 153 153 153 153 153 153 153 153 154 154 154 154 154 154 154 154 155 155 155 155 155 155 155 155 156 156 156 156 156 156 156 156 157 157 157 157 157 157 157 157 157 157 157 157 157 157 157 157 158 158 158 158 158 158 158 158 159 159 159 159 159 159 159 159 159 159 160 159 160 160
132 131 131 131 132 131 131 131 132 131 131 131 132 131 131 131 132 131 132 132 133 132 132 132 133 132 133 133 134 133 133 133 134 133 134 134 135 134 134 134 135 134 134 134 135 134 134 134 135 134 135 135 136 135 136 136 136 136 136 136 137 136 137 137 137 137 137 137 138 137 138 138 138 138 138 138 139 138 139 139 139 139 139 139 140 139 140 140 140 140 140 140 141 140 141 141 141 141 141 141 142 141 142 142 142 142 142 142 143 142 143 143 143 143 144 144 145 144 144 144 145 144 145 145 146 145 145 145 146 145 146 146 147 146 146 146 147 146 147 147 148 147 148 147 148 147 148 148 149 148 148 148 149 148 149 149 150 149 149 149 150 149 150 150 151 150 150 150 151 150 151 151 152 151 152 151 152 151 152 152 153 152 152 152 153 152 153 153 154 153 153 153 154 153 154 154 155 154 154 154 155 154 155 155 156 155 156 155 156 155 156 156 157 156 156 156 157 156 157 157 158 157 157 157 158 157 157 157 158 157 157 157 158 157 158 158 159 158 158 158 159 158 159 159 160 159 159 159 160 159 160 160 161 160 160 160 161
131 131 131 131 131 131 131 131 131 131 131 131 131 131 131 131 131 131 131 132 132 132 132 132 132 132 132 133 133 133 133 133 133 133 133 134 134 134 134 134 134 134 134 134 134 134 134 134 134 134 134 135 135 135 135 136 136 136 136 136 136 136 136 137 137 137 137 137 137 137 137 138 138 138 138 138 138 138 138 139 139 139 139 139 139 139 139 140 140 140 140 140 140 140 140 141 141 141 141 141 141 141 141 142 142 142 142 142 142 142 142 143 143 143 143 144 144 144 144 144 144 145 145 145 145 145 145 145 145 146 146 146 146 146 146 146 146 147 147 147 147 147 147 148 148 148 148 148 148 148 148 148 148 149 149 149 149 149 149 149 149 150 150 150 150 150 150 150 150 151 151 151 151 151 151 152 152 152 152 152 152 152 152 152 152 153 153 153 153 153 153 153 153 154 154 154 154 154 154 154 154 155 155 155 155 156 156 156 156 156 156 156 156 156 156 156 156 157 157 157 157 157 157 157 157 157 157 157 157 157 157 157 157 158 158 158 158 158 158 158 158 159 159 159 159 159 159 159 159 160 160 160 160 160 160 160 160
131 131 131 131 131 131 131 131 131 131 131 131 131 131 131 131 131 131 132 131 132 132 132 132 132 132 133 132 133 133 133 133 133 133 134 133 134 134 134 134 134 134 134 134 134 134 134 134 134 134 135 134 135 135 136 136 136 136 136 136 136 136 137 137 137 137 137 137 137 137 138 138 138 138 138 138 138 138 139 139 139 139 139 139 139 139 140 140 140 140 140 140 140 140 141 141 141 141 141 141 141 141 142 142 142 142 142 142 142 142 143 143 143 143 144 144 144 144 145 144 145 145 145 145 145 145 146 145 146 146 146 146 146 146 147 146 147 147 147 147 147 147 148 148 148 148 148 148 148 148 149 148 149 149 149 149 149 149 150 149 150 150 150 150 150 150 151 150 151 151 151 151 151 151 152 152 152 152 152 152 152 152 153 152 153 153 154 153 154 153 154 153 154 154 155 154 155 154 155 154 155 155 156 155 156 156 156 156 156 156 157 156 157 156 157 156 157 157 158 157 158 157 158 157 158 157 158 157 158 157 158 157 158 158 159 158 159 158 159 158 159 159 160 159 160 159 160 159 160 160 161 160 161 160 161 160 161
131 131 131 131 131 131 131 131 131 131 131 131 131 131 131 131 131 131 131 131 131 132 132 132 132 132 132 132 132 133 133 133 133 133 133 133 133 134 134 134 134 134 134 134 134 134 134 134 134 134 134 134 134 135 135 136 136 136 136 136 136 136 136 137 137 137 137 137 137 137 137 138 138 138 138 138 138 138 138 139 139 139 139 139 139 139 139 140 140 140 140 140 140 140 140 141 141 141 141 141 141 141 141 142 142 142 142 142 142 142 142 143 143 143 143 144 144 144 144 145 145 145 145 145 145 145 145 146 146 146 146 146 146 146 146 147 147 147 147 147 147 147 147 148 148 148 148 148 148 148 148 149 149 149 149 149 149 149 149 150 150 150 150 150 150 150 150 151 151 151 151 151 151 151 151 152 152 152 152 152 152 152 152 153 153 154 153 154 154 154 154 154 154 155 154 155 155 155 155 155 155 156 155 156 156 156 156 156 156 156 156 157 157 157 157 157 157 158 157 158 158 158 158 158 158 158 158 158 158 158 158 158 158 159 158 159 159 159 159 159 159 159 159 160 160 160 160 160 160 161 160 161 161 161 161 161 161
132 131 131 131 131 131 131 131 132 131 131 131 131 131 131 131 132 131 131 131 132 131 132 132 133 132 132 132 133 132 133 133 134 133 133 133 134 133 134 134 135 134 134 134 134 134 134 134 135 134 134 134 135 134 135 135 137 136 136 136 137 136 137 137 137 137 137 137 138 137 138 138 139 138 138 138 139 138 139 139 139 139 139 139 140 139 140 140 141 140 140 140 141 140 141 141 142 141 141 141 142 141 142 142 143 142 142 142 143 142 143 143 144 143 144 144 145 144 145 145 146 145 145 145 146 145 146 146 147 146 146 146 147 146 147 147 148 147 147 147 148 147 148 148 148 148 148 148 149 148 149 149 150 149 149 149 150 149 150 150 151 150 150 150 151 150 151 151 152 151 151 151 152 151 152 152 153 152 152 152 153 152 153 153 155 154 154 154 155 154 155 155 156 155 155 155 156 155 156 156 157 156 156 156 157 156 156 156 157 156 157 157 158 157 158 158 159 158 158 158 159 158 158 158 159 158 158 158 159 158 159 159 160 159 159 159 160 159 159 159 160 159 160 160 161 160 161 161 162 161 161 161 162 161 162 162 163
131 131 131 131 131 131 131 131 131 131 131 131 131 131 131 131 131 131 131 131 131 131 131 132 132 132 132 132 132 132 132 133 133 133 133 133 133 133 133 134 134 134 134 134 134 134 134 134 134 134 134 134 134 134 134 135 135 136 136 136 136 136 136 137 137 137 137 137 137 137 137 138 138 138 138 138 138 138 138 139 139 139 139 139 139 139 139 140 140 140 140 140 140 140 140 141 141 141 141 141 141 141 141 142 142 142 142 142 142 142 142 143 143 143 143 144 144 144 144 145 145 145 145 145 145 146 146 146 146 146 146 146 146 147 147 147 147 147 147 147 147 148 148 148 148 148 148 148 148 148 148 149 149 149 149 149 149 150 150 150 150 150 150 150 150 151 151 151 151 151 151 151 151 152 152 152 152 152 152 152 152 153 153 154 153 154 154 154 154 155 155 155 155 155 155 155 155 156 156 156 156 156 156 156 156 156 156 156 156 157 157 157 157 158 158 158 158 158 158 158 158 158 158 158 158 158 158 158 158 159 159 159 159 159 159 159 159 159 159 159 159 160 160 160 160 161 161 161 161 161 161 161 161 162 162 162 162
131 130 131 130 131 130 131 130 131 131 131 131 131 131 131 131 131 131 131 131 131 131 132 131 132 132 132 132 132 132 133 133 133 133 133 133 133 133 134 133 134 134 134 134 134 134 134 134 134 134 134 134 134 134 135 135 135 135 136 136 136 136 137 137 137 137 137 137 137 137 138 137 138 138 138 138 138 138 139 139 139 139 139 139 139 139 140 140 140 140 140 140 140 140 141 141 141 141 141 141 141 141 142 142 142 142 142 142 142 142 143 143 143 143 144 144 144 144 145 145 145 145 146 145 146 146 146 146 146 146 147 146 147 147 147 147 147 147 148 147 148 148 148 148 148 148 148 148 148 148 149 149 149 149 150 149 150 150 150 150 150 150 151 150 151 151 151 151 151 151 152 151 152 152 152 152 152 152 153 152 153 153 154 154 154 154 155 154 155 155 155 155 155 155 156 155 156 156 156 156 156 156 157 156 157 156 157 156 157 157 158 157 158 158 158 158 158 158 159 158 159 158 159 158 159 158 159 158 159 159 160 159 160 159 160 159 160 159 160 159 160 160 161 160 161 161 161 161 161 161 162 161 162 162 163 162 163
130 130 130 130 130 130 130 130 130 131 131 131 131 131 131 131 131 131 131 131 131 131 131 131 131 132 132 132 132 132 132 133 133 133 133 133 133 133 133 133 133 134 134 134 134 134 134 134 134 134 134 134 134 134 134 135 135 135 135 136 136 136 136 137 137 137 137 137 137 137 137 137 137 138 138 138 138 138 138 139 139 139 139 139 139 139 139 140 140 140 140 140 140 140 140 141 141 141 141 141 141 141 141 142 142 142 142 142 142 142 142 143 143 143 143 144 144 144 144 145 145 145 145 146 146 146 146 146 146 146 146 147 147 147 147 147 147 147 147 148 148 148 148 148 148 148 148 148 148 148 148 149 149 149 149 150 150 150 150 150 150 150 150 151 151 151 151 151 151 151 151 152 152 152 152 152 152 152 152 153 153 153 153 154 154 154 154 155 155 155 155 155 155 155 155 156 156 156 156 156 156 156 156 157 157 157 157 157 157 157 157 158 158 158 158 158 158 158 158 159 159 159 159 159 159 159 159 159 159 160 159 160 160 160 160 160 160 160 160 160 160 160 160 161 161 161 161 161 161 162 162 162 162 163 163 163 163
131 130 130 130 131 130 130 130 131 130 131 131 131 131 131 131 131 131 131 131 132 131 131 131 132 131 132 132 133 132 133 133 133 133 133 133 134 133 133 133 134 133 134 134 134 134 134 134 134 134 134 134 135 134 135 135 135 135 136 136 137 136 137 137 137 137 137 137 138 137 137 137 138 137 138 138 139 138 139 139 139 139 139 139 140 139 140 140 140 140 140 140 141 140 141 141 141 141 141 141 142 141 142 142 142 142 142 142 143 142 143 143 144 143 144 144 145 144 145 145 145 145 146 146 147 146 146 146 147 146 147 147 148 147 147 147 148 147 148 148 148 148 148 148 148 148 148 148 149 148 149 149 149 149 150 150 151 150 150 150 151 150 151 151 152 151 151 151 152 151 152 152 153 152 152 152 153 152 153 153 154 153 154 154 154 154 155 155 156 155 156 155 156 155 156 156 157 156 156 156 157 156 157 157 158 157 157 157 158 157 158 158 159 158 158 158 159 158 159 159 160 159 160 159 160 159 160 160 161 160 160 160 161 160 161 160 161 160 161 160 161 160 161 161 162 161 162 161 162 162 163 163 164 163 164 163 164
130 130 130 130 130 130 130 130 130 130 130 131 131 131 131 131 131 131 131 131 131 131 131 131 131 131 131 132 132 132 132 133 133 133 133 133 133 133 133 133 133 133 133 134 134 134 134 134 134 134 134 134 134 134 134 135 135 135 135 136 136 136 136 137 137 137 137 137 137 137 137 137 137 137 137 138 138 138 138 139 139 139 139 139 139 139 139 140 140 140 140 140 140 140 140 141 141 141 141 141 141 141 141 142 142 142 142 142 142 142 142 143 143 143 143 144 144 144 144 145 145 145 145 146 146 146 146 146 146 147 147 147 147 147 147 147 147 148 148 148 148 148 148 148 148 148 148 148 148 149 149 149 149 149 149 150 150 150 150 150 150 151 151 151 151 151 151 151 151 152 152 152 152 152 152 152 152 153 153 153 153 154 154 154 154 154 154 155 155 156 156 156 156 156 156 156 156 156 156 156 156 157 157 157 157 157 157 157 157 158 158 158 158 158 158 158 158 159 159 159 159 160 160 160 160 160 160 160 160 160 160 160 160 161 161 161 161 161 161 161 161 161 161 161 161 162 162 162 162 163 163 163 163 164 164 164 164
130 130 130 130 130 130 130 130 130 130 131 130 131 131 131 131 131 131 131 131 131 131 131 131 131 131 132 131 132 132 133 133 133 133 133 133 133 133 133 133 133 133 134 133 134 134 134 134 134 134 134 134 134 134 135 135 135 135 136 135 136 136 137 137 137 137 137 137 137 137 137 137 137 137 138 137 138 138 139 139 139 139 139 139 139 139 140 140 140 140 140 140 140 140 141 141 141 141 142 141 141 141 142 142 142 142 142 142 142 142 143 143 143 143 144 144 144 144 145 145 145 145 146 146 146 146 147 146 147 147 148 147 147 147 148 147 148 148 148 148 148 148 148 148 148 148 149 148 149 149 149 149 149 149 150 150 150 150 151 150 151 151 152 151 151 151 152 151 152 152 152 152 152 152 153 152 153 153 154 153 154 154 154 154 154 154 155 155 155 156 157 156 157 156 157 156 157 156 157 156 157 157 158 157 158 157 158 157 158 158 159 158 159 158 159 158 159 159 160 159 160 160 161 160 161 160 161 160 161 160 161 160 161 161 162 161 162 161 162 161 162 161 162 161 162 162 163 162 163 163 164 163 164 164 165 164 165
130 130 130 130 130 130 130 130 130 130 130 130 130 131 131 131 131 131 131 131 131 131 131 131 131 131 131 131 131 132 132 133 133 133 133 133 133 133 133 133 133 133 133 133 133 134 134 134 134 134 134 134 134 134 134 135 135 135 135 135 135 136 136 137 137 137 137 137 137 137 137 137 137 137 137 137 137 138 138 139 139 139 139 139 139 139 139 140 140 140 140 140 140 140 140 141 141 142 141 141 141 141 141 142 142 142 142 142 142 142 142 143 143 144 143 144 144 144 144 145 145 145 145 146 146 146 146 147 147 148 147 147 147 147 147 148 148 148 148 148 148 148 148 148 148 149 148 149 149 149 149 149 149 150 149 150 150 150 150 151 151 152 151 151 151 151 151 152 152 152 152 152 152 152 152 153 153 154 153 154 154 154 154 154 154 155 155 155 155 156 156 157 157 157 157 157 157 157 157 157 157 158 157 158 158 158 158 158 158 159 158 159 159 159 159 159 159 160 159 160 160 160 160 161 161 161 161 161 161 161 161 161 161 162 161 162 162 162 162 162 162 162 162 162 162 163 163 163 163 164 163 164 164 164 164 165 165
131 130 130 130 130 130 130 130 131 130 130 130 131 130 131 131 132 131 131 131 131 131 131 131 132 131 131 131 132 131 132 132 134 133 133 133 133 133 133 133 134 133 133 133 134 133 134 134 135 134 134 134 135 134 135 135 136 135 135 135 136 135 136 136 138 137 137 137 137 137 137 137 138 137 137 137 138 137 138 138 140 139 139 139 140 139 140 140 141 140 140 140 141 140 141 141 143 142 142 141 142 141 142 142 143 142 142 142 143 142 143 143 145 144 144 144 145 144 145 145 146 145 146 146 147 146 147 147 149 148 148 147 148 147 148 148 149 148 148 148 149 148 149 149 150 149 149 149 150 149 150 150 151 150 150 150 151 150 151 151 153 152 152 151 152 151 152 152 153 152 152 152 153 152 153 153 155 154 154 154 155 154 155 155 156 155 156 156 157 156 157 157 159 158 158 157 158 157 158 158 159 158 158 158 159 158 159 159 160 159 159 159 160 159 160 160 161 160 160 160 161 160 161 161 163 162 162 161 162 161 162 162 163 162 162 162 163 162 163 163 164 163 163 163 164 163 164 164 165 164 164 164 165 164 165 165 167
130 130 130 130 130 130 130 130 130 130 130 130 130 130 130 130 130 131 131 131 131 131 131 131 131 131 131 131 131 131 131 132 132 133 133 133 133 133 133 133 133 133 133 133 133 133 133 133 133 134 134 134 134 134 134 135 135 135 135 135 135 135 135 136 136 137 137 137 137 137 137 137 137 137 137 137 137 137 137 138 138 139 139 139 139 139 139 140 140 140 140 140 140 140 140 141 141 142 142 142 142 142 142 142 142 142 142 142 142 142 142 143 143 144 144 144 144 144 144 145 145 145 145 146 146 146 146 147 146 147 147 147 147 148 148 148 148 148 148 148 148 148 148 149 149 149 149 149 149 149 149 150 150 150 150 150 150 150 150 151 151 152 152 152 152 152 152 152 152 152 152 152 152 153 153 153 153 154 154 154 154 154 154 155 155 155 155 156 156 156 156 157 157 158 158 158 158 158 158 158 158 158 158 158 158 159 159 159 159 159 159 159 159 160 160 160 160 160 160 160 160 161 161 161 161 162 162 162 162 162 162 162 162 162 162 162 162 163 163 163 163 163 163 163 163 164 164 164 164 164 164 164 164 165 165 166 166
130 129 130 129 130 129 130 129 130 129 130 129 130 129 130 129 130 130 131 130 131 130 131 130 131 131 131 131 131 131 132 131 132 132 133 132 133 132 133 132 133 132 133 132 133 132 133 132 133 133 134 133 134 134 135 134 135 135 135 135 135 135 136 135 136 136 137 136 137 136 137 136 137 137 137 137 137 137 138 137 138 138 139 138 139 139 140 139 140 140 140 140 140 140 141 140 141 141 142 141 142 142 142 142 142 142 142 142 142 142 143 143 143 143 144 144 144 144 145 145 145 145 146 145 146 146 147 146 146 146 147 147 148 148 148 148 148 148 148 148 148 148 149 149 149 149 149 149 149 149 150 150 150 150 150 150 150 150 151 151 151 151 152 152 152 152 152 152 152 152 153 152 153 153 154 153 153 153 154 154 154 154 155 155 155 155 156 156 156 156 157 157 157 157 158 157 158 158 158 158 158 158 159 158 159 159 159 159 159 159 160 159 160 160 160 160 160 160 161 160 161 161 162 161 161 161 162 162 162 162 162 162 162 162 163 162 163 163 163 163 163 163 164 163 164 164 164 164 164 164 165 164 165 165 166 166 166
129 129 129 129 129 129 129 129 129 129 129 129 129 129 129 129 129 130 130 130 130 130 130 130 130 131 131 131 131 131 131 131 131 132 132 132 132 132 132 132 132 132 132 132 132 132 132 132 132 133 133 133 133 134 134 134 134 135 135 135 135 135 135 135 135 136 136 136 136 136 136 136 136 137 137 137 137 137 137 137 137 138 138 138 138 139 139 139 139 140 140 140 140 140 140 140 140 141 141 141 141 142 142 142 142 142 142 142 142 142 142 143 143 143 143 144 144 144 144 145 145 145 145 145 145 146 146 146 146 146 146 147 147 148 148 148 148 148 148 148 148 148 148 149 149 149 149 149 149 149 149 150 150 150 150 150 150 150 150 151 151 151 151 152 152 152 152 152 152 152 152 153 153 153 153 153 153 153 153 154 154 154 154 155 155 155 155 156 156 156 156 157 157 157 157 157 157 158 158 158 158 158 158 159 159 159 159 159 159 159 159 160 160 160 160 160 160 160 160 161 161 161 161 161 161 161 161 162 162 162 162 162 162 162 162 163 163 163 163 163 163 163 163 164 164 164 164 164 164 164 164 165 165 165 165 166 166
130 129 129 129 130 129 129 129 130 129 129 129 130 129 129 129 130 129 130 130 131 130 130 130 131 130 131 131 132 131 131 131 132 131 132 132 133 132 132 132 133 132 132 132 133 132 132 132 133 132 133 133 134 133 134 134 135 134 135 135 136 135 135 135 136 135 136 136 137 136 136 136 137 136 137 137 138 137 137 137 138 137 138 138 139 138 139 139 140 139 140 140 141 140 140 140 141 140 141 141 142 141 142 142 142 142 142 142 143 142 143 143 143 143 144 144 145 144 145 145 145 145 145 145 146 145 146 145 146 145 146 146 148 147 148 148 148 148 148 148 149 148 149 149 149 149 149 149 150 149 150 150 150 150 150 150 151 150 151 151 151 151 152 152 153 152 152 152 153 152 153 153 154 153 154 153 154 153 154 154 155 154 155 155 156 155 156 156 157 156 157 157 157 157 157 157 158 157 158 158 159 158 159 159 160 159 159 159 160 159 160 160 161 160 160 160 161 160 161 161 162 161 162 161 162 161 162 162 163 162 162 162 163 162 163 163 164 163 163 163 164 163 164 164 165 164 164 164 165 164 165 165 166 165 166 166 167
129 129 129 129 129 129 129 129 129 129 129 129 129 129 129 129 129 129 129 130 130 130 130 130 130 130 130 131 131 131 131 131 131 131 131 132 132 132 132 132 132 132 132 132 132 132 132 132 132 132 132 133 133 133 133 134 134 134 134 135 135 135 135 135 135 135 135 136 136 136 136 136 136 136 136 137 137 137 137 137 137 137 137 138 138 138 138 139 139 139 139 140 140 140 140 140 140 140 140 141 141 141 141 142 142 142 142 142 142 142 142 143 143 143 143 144 144 144 144 145 145 145 145 145 145 145 145 145 145 145 145 146 146 147 147 148 148 148 148 148 148 148 148 149 149 149 149 149 149 149 149 150 150 150 150 150 150 150 150 151 151 151 151 152 152 152 152 152 152 153 153 153 153 153 153 154 154 154 154 154 154 155 155 155 155 156 156 156 156 156 156 157 157 157 157 157 157 157 157 158 158 158 158 159 159 159 159 159 159 160 160 160 160 160 160 160 160 161 161 161 161 162 162 162 162 162 162 162 162 162 162 162 162 163 163 163 163 163 163 163 163 164 164 164 164 164 164 164 164 165 165 165 165 166 166 166 166
129 129 129 129 129 129 129 129 129 129 129 129 129 129 129 129 129 129 130 129 130 130 130 130 130 130 131 130 131 130 131 130 131 131 132 131 132 132 132 132 132 132 132 132 132 132 132 132 132 132 133 132 133 133 134 134 134 134 135 134 135 134 135 134 135 135 136 135 136 136 136 136 136 136 137 136 137 137 137 137 137 137 138 137 138 138 139 139 139 139 140 139 140 139 140 139 140 140 141 140 141 141 142 142 142 142 142 142 142 142 143 143 143 143 144 143 144 144 145 145 145 145 145 145 145 145 145 145 145 145 146 146 146 147 148 148 148 148 148 148 148 148 149 149 149 149 149 149 149 149 150 150 150 150 150 150 150 150 151 151 151 151 152 152 152 152 153 152 153 153 153 153 153 153 154 154 154 154 155 154 155 155 156 155 156 156 156 156 156 156 157 157 157 157 157 157 157 157 158 158 158 158 159 159 159 159 160 159 160 160 161 160 161 160 161 160 161 161 162 161 162 162 162 162 162 162 163 162 163 162 163 162 163 163 164 163 164 163 164 163 164 164 165 164 165 164 165 164 165 165 166 165 166 166 167 166 167
129 129 129 129 129 129 129 129 129 129 129 129 129 129 129 129 129 129 129 129 129 130 130 130 130 130 130 130 130 130 130 130 130 131 131 131 131 132 132 132 132 132 132 132 132 132 132 132 132 132 132 132 132 133 133 134 134 134 134 134 134 134 134 134 134 135 135 135 135 136 136 136 136 136 136 136 136 137 137 137 137 137 137 137 137 138 138 139 139 139 139 139 139 139 139 139 139 140 140 140 140 141 141 142 142 142 142 142 142 142 142 143 143 143 143 143 143 144 144 145 145 145 145 145 145 145 145 145 145 145 145 146 146 147 147 148 148 148 148 148 148 148 148 149 149 149 149 149 149 149 149 150 150 150 150 150 150 150 150 151 151 151 151 152 152 152 152 153 153 153 153 153 153 153 153 154 154 154 154 155 155 155 155 156 156 156 156 156 156 156 156 157 157 157 157 157 157 157 157 158 158 159 158 159 159 159 159 160 160 160 160 161 161 161 161 161 161 162 161 162 162 162 162 162 162 162 162 163 163 163 163 163 163 164 163 164 164 164 164 164 164 165 164 165 165 165 165 165 165 166 165 166 166 166 166 167 167
130 129 129 129 129 129 129 129 130 129 129 129 129 129 129 129 130 129 129 129 130 129 130 130 131 130 130 130 131 130 130 130 131 130 131 131 132 131 132 132 133 132 132 132 132 132 132 132 133 132 132 132 133 132 133 133 135 134 134 134 135 134 134 134 135 134 135 135 136 135 136 136 137 136 136 136 137 136 137 137 138 137 137 137 138 137 138 138 140 139 139 139 140 139 139 139 140 139 140 140 141 140 141 141 143 142 142 142 143 142 143 143 144 143 143 143 144 143 144 144 146 145 145 145 145 145 145 145 146 145 146 146 147 146 147 147 149 148 148 148 149 148 149 149 150 149 149 149 150 149 150 150 151 150 150 150 151 150 151 151 152 151 152 152 153 152 153 153 154 153 153 153 154 153 154 154 155 154 155 155 156 155 156 156 157 156 156 156 157 156 157 157 157 157 157 157 158 157 158 158 160 159 159 159 160 159 160 160 161 160 161 161 162 161 162 162 163 162 162 162 163 162 162 162 163 162 163 163 164 163 164 164 165 164 164 164 165 164 165 165 166 165 165 165 166 165 166 166 167 166 166 166 167 166 167 167 168
129 129 129 129 129 129 129 129 129 129 129 129 129 129 129 129 129 129 129 129 129 129 129 130 130 130 130 130 130 130 130 130 130 130 130 131 131 131 131 131 131 132 132 132 132 132 132 132 132 132 132 132 132 132 132 133 133 134 134 134 134 134 134 134 134 134 134 135 135 135 135 135 135 136 136 136 136 136 136 137 137 137 137 137 137 137 137 138 138 139 139 139 139 139 139 139 139 139 139 140 140 140 140 141 141 142 142 142 142 142 142 143 143 143 143 143 143 143 143 144 144 145 145 145 145 145 145 145 145 145 145 146 146 146 146 147 147 148 148 148 148 148 148 149 149 149 149 149 149 150 150 150 150 150 150 150 150 151 151 151 151 151 151 152 152 152 152 153 153 153 153 153 153 154 154 154 154 155 155 155 155 156 156 156 156 156 156 156 156 156 156 157 157 157 157 157 157 158 158 159 158 159 159 159 159 160 160 160 160 161 161 161 161 162 162 162 162 162 162 162 162 162 162 162 162 163 163 163 163 164 164 164 164 164 164 164 164 165 165 165 165 165 165 165 165 166 166 166 166 166 166 166 166 167 167 167 167
129 128 129 128 129 128 129 128 129 129 129 129 129 129 129 129 129 129 129 129 129 129 130 129 130 130 130 130 130 130 130 130 130 130 131 130 131 131 131 131 131 131 132 131 132 132 132 132 132 132 132 132 132 132 133 132 133 133 134 133 134 133 134 133 134 134 135 134 135 135 135 135 135 135 136 136 136 136 137 137 137 137 137 137 137 137 138 138 138 138 139 138 139 139 139 139 139 139 140 140 140 140 141 141 141 141 142 142 142 142 143 143 143 143 143 143 143 143 144 144 144 144 145 144 145 145 145 145 145 145 146 146 146 146 147 147 147 147 148 148 148 148 149 149 149 149 150 149 150 150 150 150 150 150 151 150 151 151 151 151 151 151 152 152 152 152 153 153 153 153 154 153 154 154 155 154 155 155 156 155 156 156 156 156 156 156 156 156 156 156 157 157 157 157 158 157 158 158 159 159 159 159 160 159 160 160 161 160 161 161 162 161 162 162 162 162 162 162 163 162 163 162 163 162 163 163 164 163 164 164 164 164 164 164 165 164 165 165 165 165 165 165 166 165 166 166 166 166 166 166 167 166 167 167 167 167 167
128 128 128 128 128 128 128 128 128 129 129 129 129 129 129 129 129 129 129 129 129 129 129 129 129 130 130 130 130 130 130 130 130 130 130 130 130 131 131 131 131 131 131 131 131 132 132 132 132 132 132 132 132 132 132 132 132 133 133 133 133 133 133 133 133 134 134 134 134 135 135 135 135 135 135 136 136 136 136 137 137 137 137 137 137 137 137 138 138 138 138 138 138 139 139 139 139 139 139 140 140 140 140 141 141 141 141 142 142 142 142 143 143 143 143 143 143 143 143 144 144 144 144 144 144 145 145 145 145 145 145 146 146 146 146 147 147 147 147 148 148 148 148 149 149 149 149 150 150 150 150 150 150 150 150 151 151 151 151 151 151 151 151 152 152 152 152 153 153 153 153 154 154 154 154 155 155 155 155 156 156 156 156 156 156 156 156 156 156 156 156 157 157 157 157 158 158 158 158 159 159 159 159 160 160 160 160 161 161 161 161 162 162 162 162 162 162 162 162 163 163 163 163 163 163 163 163 164 164 164 164 164 164 164 164 165 165 165 165 165 165 165 165 166 166 166 166 166 166 166 166 167 167 167 167 167 167
129 128 128 128 129 128 128 128 129 128 129 129 129 129 129 129 129 129 129 129 130 129 129 129 130 129 130 130 130 130 130 130 130 130 130 130 131 130 131 131 131 131 131 131 132 131 132 132 132 132 132 132 133 132 132 132 133 132 133 133 134 133 133 133 134 133 134 134 135 134 135 135 135 135 136 136 137 136 137 137 137 137 137 137 138 137 138 138 138 138 138 138 139 138 139 139 140 139 140 140 141 140 141 141 141 141 142 142 143 142 143 143 143 143 143 143 144 143 144 144 144 144 144 144 145 144 145 145 146 145 146 146 147 146 147 147 147 147 148 148 149 148 149 149 150 149 150 150 151 150 150 150 151 150 151 151 152 151 151 151 152 151 152 152 153 152 153 153 153 153 154 154 155 154 155 155 156 155 156 156 157 156 156 156 156 156 156 156 157 156 157 157 158 157 158 158 159 158 159 159 159 159 160 160 161 160 161 161 162 161 162 162 163 162 162 162 163 162 163 163 164 163 163 163 164 163 164 164 165 164 164 164 165 164 165 165 166 165 166 165 166 165 166 166 167 166 166 166 167 166 167 167 168 167 167 167 168
128 128 128 128 128 128 128 128 128 128 128 129 129 129 129 129 129 129 129 129 129 129 129 129 129 129 129 130 130 130 130 130 130 130 130 130 130 130 130 131 131 131 131 131 131 131 131 132 132 132 132 132 132 132 132 132 132 132 132 133 133 133 133 133 133 133 133 134 134 134 134 135 135 135 135 136 136 136 136 137 137 137 137 137 137 137 137 138 138 138 138 138 138 138 138 139 139 139 139 140 140 140 140 141 141 141 141 142 142 142 142 143 143 143 143 143 143 143 143 144 144 144 144 144 144 144 144 145 145 145 145 146 146 146 146 147 147 147 147 148 148 148 148 149 149 149 149 150 150 150 150 150 150 151 151 151 151 151 151 151 151 152 152 152 152 152 152 153 153 153 153 154 154 155 155 155 155 156 156 156 156 156 156 156 156 156 156 156 156 157 157 157 157 158 158 158 158 159 159 159 159 159 159 160 160 161 161 161 161 162 162 162 162 162 162 162 162 163 163 163 163 163 163 163 163 164 164 164 164 164 164 164 164 165 165 165 165 166 166 166 166 166 166 166 166 166 166 166 166 167 167 167 167 167 167 167 167
128 128 128 128 128 128 128 128 128 128 129 128 129 129 129 129 129 129 129 129 129 129 129 129 129 129 130 129 130 130 130 130 130 130 130 130 130 130 131 131 131 131 131 131 131 131 132 132 132 132 132 132 132 132 132 132 132 132 133 132 133 133 133 133 133 133 134 133 134 134 135 135 135 135 136 135 136 136 137 137 137 137 137 137 137 137 138 138 138 138 138 138 138 138 139 139 139 139 140 140 140 140 141 141 141 141 142 141 142 142 143 143 143 143 143 143 143 143 144 144 144 144 144 144 144 144 145 145 145 145 146 145 146 146 147 147 147 147 148 148 148 148 149 149 149 149 150 150 150 150 151 150 151 151 151 151 151 151 152 151 152 152 152 152 152 152 153 153 153 153 154 154 154 155 156 155 156 156 157 156 156 156 157 156 157 156 157 156 157 157 158 157 158 158 159 158 159 159 159 159 159 159 160 160 160 161 162 161 162 162 163 162 163 162 163 162 163 163 164 163 164 163 164 163 164 164 165 164 165 164 165 164 165 165 166 165 166 166 167 166 167 166 167 166 167 166 167 166 167 167 168 167 168 167 168 167 168
128 128 128 128 128 128 128 128 128 128 128 128 128 129 129 129 129 129 129 129 129 129 129 129 129 129 129 129 129 130 130 130 130 130 130 130 130 130 130 131 131 131 131 131 131 131 131 132 132 132 132 132 132 132 132 132 132 132 132 132 132 133 133 133 133 133 133 133 133 134 134 135 135 135 135 135 135 136 136 137 137 137 137 137 137 137 137 138 138 138 138 138 138 138 138 139 139 139 139 140 140 140 140 141 141 141 141 141 141 142 142 143 143 143 143 143 143 143 143 144 144 144 144 144 144 144 144 145 145 145 145 145 145 146 146 147 147 147 147 148 148 148 148 149 149 150 149 150 150 150 150 151 151 151 151 151 151 151 151 152 152 152 152 152 152 152 152 153 153 154 154 154 154 155 155 156 156 157 156 156 156 156 156 157 157 157 157 157 157 157 157 158 158 158 158 159 159 159 159 159 159 160 160 160 160 161 161 162 162 163 162 163 163 163 163 163 163 164 163 164 164 164 164 164 164 165 164 165 165 165 165 165 165 166 165 166 166 166 166 167 167 167 167 167 167 167 167 167 167 168 167 168 168 168 168 168 168
129 128 128 128 128 128 128 128 129 128 128 128 129 128 129 129 130 129 129 129 129 129 129 129 130 129 129 129 130 129 130 130 131 130 130 130 131 130 131 131 132 131 131 131 132 131 132 132 133 132 132 132 132 132 132 132 133 132 132 132 133 132 133 133 134 133 133 133 134 133 134 134 136 135 135 135 136 135 136 136 138 137 137 137 138 137 138 138 139 138 138 138 139 138 139 139 140 139 140 140 141 140 141 141 142 141 141 141 142 141 142 142 144 143 143 143 144 143 144 144 145 144 144 144 145 144 145 145 146 145 145 145 146 145 146 146 148 147 148 148 149 148 149 149 151 150 150 150 151 150 151 151 152 151 151 151 152 151 152 152 153 152 152 152 153 152 153 153 155 154 155 155 156 155 156 156 158 157 157 156 157 156 157 157 158 157 157 157 158 157 158 158 159 158 159 159 160 159 160 160 161 160 161 161 162 161 162 162 164 163 163 163 164 163 164 164 165 164 164 164 165 164 165 165 166 165 165 165 166 165 166 166 167 166 166 166 167 166 167 167 169 168 168 167 168 167 168 168 169 168 168 168 169 168 169 169 170
128 128 128 128 128 128 128 128 128 128 128 128 128 128 128 128 128 129 129 129 129 129 129 129 129 129 129 129 129 129 129 130 130 130 130 130 130 130 130 131 131 131 131 131 131 131 131 131 131 132 132 132 132 132 132 132 132 132 132 132 132 132 132 133 133 133 133 133 133 133 133 134 134 135 135 135 135 135 135 136 136 137 137 137 137 137 137 138 138 138 138 138 138 138 138 139 139 139 139 140 140 140 140 141 141 141 141 141 141 141 141 142 142 143 143 143 143 143 143 144 144 144 144 144 144 144 144 145 145 145 145 145 145 145 145 146 146 147 147 148 148 148 148 149 149 150 150 150 150 150 150 151 151 151 151 151 151 152 152 152 152 152 152 152 152 153 153 154 153 154 154 155 155 155 155 156 156 157 157 157 157 157 157 157 157 157 157 157 157 158 158 158 158 158 158 159 159 159 159 160 160 160 160 161 161 162 162 163 162 163 163 163 163 164 164 164 164 164 164 164 164 165 165 165 165 165 165 165 165 166 166 166 166 166 166 166 166 167 167 168 167 168 168 168 168 168 168 168 168 168 168 168 168 169 169 169 169
128 127 128 127 128 127 128 127 128 127 128 127 128 127 128 127 128 128 129 128 129 128 129 128 129 129 129 129 129 129 130 129 130 130 130 130 130 130 131 130 131 130 131 130 131 130 131 130 131 131 132 131 132 131 132 131 132 132 132 132 132 132 133 132 133 133 133 133 133 133 134 134 134 134 135 135 135 135 136 135 136 136 137 137 137 137 138 138 138 138 138 138 138 138 139 139 139 139 140 140 140 140 141 141 141 141 141 141 141 141 142 142 142 142 143 142 143 143 144 143 144 144 144 144 144 144 145 144 145 145 145 145 145 145 146 146 146 147 148 148 148 148 149 148 149 149 150 150 150 150 151 151 151 151 152 151 152 152 152 152 152 152 153 152 153 153 154 154 154 154 155 155 155 155 156 156 156 156 157 157 157 157 157 157 157 157 158 157 158 158 158 158 158 158 159 159 159 159 160 160 160 160 161 161 162 162 163 163 163 163 164 163 164 164 164 164 164 164 165 164 165 165 165 165 165 165 166 165 166 166 167 166 167 166 167 166 167 167 168 168 168 168 169 168 169 168 169 168 169 168 169 168 169 169 169 169 169
127 127 127 127 127 127 127 127 127 127 127 127 127 127 127 127 127 128 128 128 128 128 128 128 128 129 129 129 129 129 129 129 129 130 130 130 130 130 130 130 130 130 130 130 130 130 130 130 130 131 131 131 131 131 131 131 131 132 132 132 132 132 132 132 132 133 133 133 133 133 133 134 134 134 134 135 135 135 135 135 135 136 136 137 137 137 137 138 138 138 138 138 138 138 138 139 139 139 139 140 140 140 140 141 141 141 141 141 141 141 141 142 142 142 142 142 142 143 143 143 143 144 144 144 144 144 144 144 144 145 145 145 145 145 145 146 146 147 147 148 148 148 148 148 148 149 149 150 150 150 150 151 151 151 151 152 152 152 152 152 152 152 152 153 153 153 153 154 154 154 154 155 155 155 155 156 156 156 156 157 157 157 157 157 157 157 157 158 158 158 158 158 158 158 158 159 159 160 159 160 160 160 160 161 161 162 162 163 163 163 163 164 164 164 164 164 164 164 164 165 165 165 165 165 165 165 165 166 166 166 166 167 167 167 167 167 167 168 167 168 168 168 168 169 169 169 169 169 169 169 169 169 169 169 169 169 169
128 127 127 127 128 127 127 127 128 127 127 127 128 127 127 127 128 127 128 128 129 128 128 128 129 128 129 129 130 129 129 129 130 129 130 130 131 130 130 130 131 130 130 130 131 130 130 130 131 130 131 131 132 131 131 131 132 131 132 132 133 132 132 132 133 132 133 133 134 133 134 134 134 134 135 135 136 135 135 135 136 135 136 136 138 137 138 138 138 138 138 138 139 138 139 139 139 139 140 140 141 140 141 141 141 141 141 141 142 141 142 142 142 142 142 142 143 142 143 143 144 143 144 144 145 144 144 144 145 144 145 145 146 145 146 146 147 147 148 148 149 148 148 148 149 149 150 150 151 150 151 151 152 151 152 152 153 152 152 152 153 152 153 153 154 153 154 154 155 154 155 155 156 155 156 156 156 156 157 157 158 157 157 157 158 157 158 158 159 158 158 158 159 158 159 159 161 160 160 160 161 160 161 161 163 162 163 163 163 163 164 164 165 164 164 164 165 164 165 165 166 165 165 165 166 165 166 166 167 166 167 167 168 167 168 168 169 168 168 168 169 168 169 169 170 169 169 169 170 169 169 169 170 169 169 169 170
127 127 127 127 127 127 127 127 127 127 127 127 127 127 127 127 127 127 127 128 128 128 128 128 128 128 128 129 129 129 129 129 129 129 129 130 130 130 130 130 130 130 130 130 130 130 130 130 130 130 130 131 131 131 131 131 131 131 131 132 132 132 132 132 132 132 132 133 133 133 133 134 134 134 134 135 134 135 135 135 135 135 135 136 136 137 137 138 138 138 138 138 138 138 138 139 139 139 139 140 140 140 140 141 141 141 141 141 141 141 141 142 142 142 142 142 142 142 142 143 143 143 143 144 144 144 144 144 144 144 144 145 145 145 145 146 146 147 147 148 147 148 148 148 148 149 149 150 150 150 150 151 151 151 151 152 152 152 152 152 152 153 153 153 153 154 154 154 154 155 155 155 155 156 156 156 156 156 156 157 157 157 157 157 157 158 158 158 158 158 158 158 158 159 159 160 159 160 160 160 160 161 161 162 161 162 162 163 163 163 163 164 164 164 164 164 164 165 165 165 165 165 165 165 165 166 166 166 166 167 167 167 167 168 168 168 168 168 168 168 168 169 169 169 169 169 169 169 169 169 169 169 169 169 169 169 169
127 126 127 126 127 127 127 127 127 127 127 127 127 127 127 127 127 127 128 127 128 128 128 128 128 128 129 128 129 129 129 129 129 129 130 129 130 130 130 130 130 130 130 130 130 130 130 130 130 130 131 130 131 131 131 131 131 131 132 131 132 132 132 132 132 132 133 132 133 133 134 134 134 134 135 134 134 134 135 135 135 135 136 136 136 137 138 138 138 138 138 138 138 138 139 139 139 139 140 140 140 140 141 141 141 141 141 141 141 141 142 142 142 142 142 142 142 142 143 143 143 143 144 143 144 144 144 144 144 144 145 145 145 145 146 146 147 147 148 147 147 147 148 148 149 149 150 150 150 150 151 151 151 151 152 152 152 152 153 152 153 153 154 153 154 154 155 154 155 155 156 155 156 156 156 156 156 156 157 157 157 157 158 157 158 158 159 158 159 158 159 158 159 159 160 160 160 160 161 160 161 161 162 162 162 162 163 163 163 163 164 164 164 164 165 164 165 165 166 165 166 165 166 165 166 166 167 166 167 167 168 167 168 168 169 168 169 168 169 168 169 169 170 169 170 169 170 169 170 169 170 169 170 169 170 169 170
126 126 126 126 126 127 127 127 127 127 127 127 127 127 127 127 127 127 127 127 127 128 128 128 128 128 128 128 128 129 129 129 129 129 129 129 129 130 130 130 130 130 130 130 130 130 130 130 130 130 130 130 130 131 131 131 131 131 131 131 131 132 132 132 132 132 132 132 132 133 133 134 134 134 134 134 134 134 134 135 135 135 135 136 136 137 137 138 138 138 138 138 138 138 138 139 139 139 139 140 140 140 140 141 141 141 141 141 141 141 141 142 142 142 142 142 142 142 142 143 143 143 143 143 143 144 144 144 144 144 144 145 145 145 145 146 146 147 147 147 147 147 147 148 148 149 149 150 150 150 150 151 151 152 151 152 152 152 152 153 153 153 153 154 154 154 154 155 155 156 155 156 156 156 156 156 156 156 156 157 157 157 157 158 158 159 158 159 159 159 159 159 159 160 160 160 160 161 161 161 161 162 161 162 162 162 162 163 163 163 163 164 164 164 164 165 165 166 165 166 166 166 166 166 166 167 166 167 167 167 167 168 168 169 168 169 169 169 169 169 169 169 169 170 170 170 170 170 170 170 170 170 170 170 170 170 170
127 126 126 126 127 126 127 127 128 127 127 127 127 127 127 127 128 127 127 127 128 127 128 128 129 128 128 128 129 128 129 129 130 129 129 129 130 129 130 130 131 130 130 130 130 130 130 130 131 130 130 130 131 130 131 131 132 131 131 131 132 131 132 132 133 132 132 132 133 132 133 133 135 134 134 134 135 134 135 135 136 135 136 136 137 136 137 137 139 138 138 138 139 138 139 139 140 139 140 140 141 140 141 141 142 141 141 141 142 141 142 142 142 142 142 142 143 142 143 143 144 143 143 143 144 143 144 144 145 144 145 145 146 145 146 146 148 147 148 147 148 147 148 148 149 149 150 150 151 150 151 151 153 152 152 152 153 152 153 153 154 153 154 154 155 154 155 155 157 156 156 156 157 156 156 156 157 156 157 157 158 157 158 158 160 159 159 159 160 159 160 160 161 160 161 161 162 161 162 162 163 162 162 162 163 162 163 163 164 163 164 164 165 164 165 165 167 166 166 166 167 166 167 167 168 167 167 167 168 167 168 168 170 169 169 169 170 169 169 169 170 169 170 170 171 170 171 171 172 171 171 170 171 170 171 171 172
126 126 126 126 126 126 126 126 126 127 127 127 127 127 127 127 127 127 127 127 127 127 127 128 128 128 128 128 128 128 128 129 129 129 129 129 129 129 129 130 130 130 130 130 130 130 130 130 130 130 130 130 130 130 130 131 131 131 131 131 131 131 131 132 132 132 132 132 132 132 132 133 133 134 134 134 134 134 134 135 135 135 135 136 136 136 136 137 137 138 138 138 138 138 138 139 139 139 139 140 140 140 140 141 141 141 141 141 141 141 141 142 142 142 142 142 142 142 142 143 143 143 143 143 143 143 143 144 144 144 144 145 145 145 145 146 146 147 147 148 148 148 148 148 148 149 149 150 150 150 150 151 151 152 152 152 152 153 153 153 153 154 154 154 154 155 155 156 155 156 156 156 156 156 156 156 156 157 157 157 157 158 158 159 158 159 159 159 159 160 160 160 160 160 160 161 161 161 161 162 162 162 162 162 162 163 163 163 163 164 164 164 164 165 165 166 165 166 166 166 166 167 167 167 167 167 167 167 167 168 168 169 168 169 169 169 169 169 169 169 169 170 170 170 170 171 171 171 171 171 171 171 171 171 171 171 171
126 125 126 125 126 125 126 125 126 126 127 126 127 126 127 126 127 127 127 127 127 127 128 127 128 128 128 128 128 128 129 129 129 129 129 129 129 129 130 129 130 130 130 130 130 130 130 130 130 130 130 130 130 130 131 130 131 131 131 131 131 131 132 132 132 132 132 132 132 132 133 133 133 133 134 134 134 134 135 135 135 135 136 136 136 136 137 137 137 137 138 138 138 138 139 139 139 139 140 140 140 140 141 140 141 141 141 141 141 141 142 142 142 142 142 142 142 142 143 143 143 143 143 143 143 143 144 144 144 144 145 145 145 145 146 146 146 147 148 148 148 148 148 148 148 149 150 150 150 150 151 151 151 151 152 152 153 153 154 153 154 154 155 154 155 155 156 156 156 156 157 156 157 156 157 156 157 157 158 157 158 158 159 159 159 159 160 159 160 160 160 160 160 160 161 161 161 161 162 162 162 162 163 162 163 163 164 163 164 164 165 164 165 165 166 166 166 166 167 166 167 167 168 167 168 167 168 167 168 168 169 169 169 169 170 169 170 169 170 169 170 170 171 170 171 171 171 171 171 171 172 171 172 171 172 171 172
125 125 125 125 125 125 125 125 125 126 126 126 126 126 126 126 126 127 127 127 127 127 127 127 127 128 128 128 128 128 128 129 129 129 129 129 129 129 129 129 129 130 130 130 130 130 130 130 130 130 130 130 130 130 130 130 130 131 131 131 131 131 131 132 132 132 132 132 132 132 132 133 133 133 133 134 134 134 134 135 135 135 135 136 136 136 136 137 137 137 137 138 138 138 138 139 139 139 139 140 140 140 140 140 140 141 141 141 141 141 141 142 142 142 142 142 142 142 142 143 143 143 143 143 143 143 143 144 144 144 144 145 145 145 145 146 146 147 147 148 148 148 148 148 148 149 149 150 150 150 150 151 151 151 151 152 152 153 153 154 154 154 154 155 155 155 155 156 156 156 156 157 157 157 157 157 157 157 157 158 158 158 158 159 159 159 159 160 160 160 160 160 160 160 160 161 161 162 161 162 162 162 162 163 163 163 163 164 164 164 164 165 165 165 165 166 166 166 166 167 167 168 168 168 168 168 168 168 168 169 168 169 169 169 169 170 170 170 170 170 170 170 170 171 171 171 171 171 171 171 171 172 172 172 172 172 172
126 125 125 125 126 125 125 125 126 125 126 126 127 126 126 126 127 126 127 127 128 127 127 127 128 127 128 128 129 128 129 129 129 129 129 129 130 129 129 129 130 129 130 130 130 130 130 130 130 130 130 130 131 130 130 130 131 130 131 131 132 131 132 132 132 132 132 132 133 132 133 133 133 133 134 134 135 134 135 135 136 135 136 136 137 136 137 137 137 137 138 138 139 138 139 139 140 139 140 140 141 140 140 140 141 140 141 141 142 141 142 142 142 142 142 142 143 142 143 143 143 143 143 143 144 143 144 144 145 144 145 145 146 145 146 146 147 147 148 148 149 148 148 148 149 149 150 150 151 150 151 151 151 151 152 152 154 153 154 154 155 154 155 155 156 155 156 156 156 156 157 157 158 157 157 157 158 157 158 158 159 158 159 159 159 159 160 160 161 160 160 160 161 160 161 161 163 162 162 162 163 162 163 163 164 163 164 164 165 164 165 165 166 165 166 166 167 166 167 167 169 168 169 168 169 168 169 169 170 169 169 169 170 169 170 170 171 170 171 170 171 170 171 171 172 171 171 171 172 171 172 172 173 172 173 172 173
125 125 125 125 125 125 125 125 125 125 125 126 126 126 126 126 126 126 126 127 127 127 127 127 127 127 127 128 128 128 128 129 129 129 129 129 129 129 129 129 129 129 129 130 130 130 130 130 130 130 130 130 130 130 130 130 130 130 130 131 131 131 131 132 132 132 132 132 132 132 132 133 133 133 133 134 134 134 134 135 135 135 135 136 136 136 136 137 137 137 137 138 138 138 138 139 139 139 139 140 140 140 140 140 140 140 140 141 141 141 141 142 142 142 142 142 142 142 142 143 143 143 143 143 143 143 143 144 144 144 144 145 145 145 145 146 146 147 147 148 148 148 148 148 148 149 149 150 150 150 150 151 151 152 152 153 153 154 154 154 154 155 155 155 155 155 155 156 156 156 156 157 157 157 157 157 157 158 158 158 158 159 159 159 159 159 159 160 160 160 160 160 160 161 161 162 161 162 162 162 162 163 163 163 163 164 164 164 164 165 165 165 165 166 166 166 166 167 167 168 168 169 169 169 169 169 169 169 169 169 169 169 169 170 170 170 170 171 171 171 171 171 171 171 171 171 171 171 171 172 172 172 172 173 173 173 173
125 125 125 125 125 125 125 125 125 125 126 125 126 126 126 126 126 126 127 126 127 127 127 127 127 127 128 127 128 128 129 129 129 129 129 129 129 129 129 129 129 129 130 129 130 130 130 130 130 130 130 130 130 130 130 130 130 130 131 130 131 131 132 132 132 132 132 132 132 132 133 133 133 133 134 134 134 134 135 135 135 135 136 136 136 136 137 137 137 137 138 138 138 138 139 139 139 139 140 140 140 140 140 140 140 140 141 140 141 141 142 142 142 142 142 142 142 142 143 143 143 143 143 143 143 143 144 144 144 144 145 145 145 145 146 146 147 147 148 148 148 148 149 148 149 149 150 150 150 150 151 151 152 152 153 153 153 154 155 154 155 155 156 155 155 155 156 156 156 156 157 157 157 157 158 157 158 158 159 158 159 159 159 159 159 159 160 160 160 160 161 160 161 161 162 162 162 162 163 162 163 163 164 163 164 164 165 164 165 165 166 165 166 166 167 166 167 167 168 168 168 169 170 169 170 169 170 169 170 169 170 169 170 170 171 170 171 171 172 171 172 171 172 171 172 171 172 171 172 172 173 172 173 173 174 173 174
125 125 125 125 125 125 125 125 125 125 125 125 125 126 126 126 126 126 126 126 126 127 127 127 127 127 127 127 127 128 128 129 129 129 129 129 129 129 129 129 129 129 129 129 129 130 130 130 130 130 130 130 130 130 130 130 130 130 130 130 130 131 131 132 132 132 132 132 132 132 132 133 133 133 133 134 134 134 134 135 135 136 135 136 136 136 136 137 137 137 137 138 138 138 138 139 139 140 139 140 140 140 140 140 140 140 140 140 140 141 141 142 142 142 142 142 142 142 142 143 143 143 143 143 143 143 143 144 144 145 144 145 145 145 145 146 146 147 147 148 148 148 148 149 149 150 149 150 150 150 150 151 151 152 152 153 153 154 154 155 155 156 155 155 155 155 155 156 156 157 156 157 157 157 157 158 158 159 158 159 159 159 159 159 159 160 159 160 160 160 160 161 161 162 161 162 162 162 162 163 163 164 163 164 164 164 164 165 165 166 165 166 166 166 166 167 167 168 168 168 168 169 169 170 170 170 170 170 170 170 170 170 170 171 170 171 171 171 171 172 172 172 172 172 172 172 172 172 172 173 172 173 173 173 173 174 174
126 125 125 125 125 125 125 125 126 125 125 125 126 125 126 126 127 126 126 126 127 126 127 127 128 127 127 127 128 127 128 128 130 129 129 128 129 128 129 129 130 129 129 129 130 129 130 130 131 130 130 130 130 130 130 130 131 130 130 130 131 130 131 131 133 132 132 132 133 132 133 133 134 133 134 134 135 134 135 135 137 136 136 136 137 136 137 137 138 137 138 138 139 138 139 139 141 140 140 139 140 140 140 140 141 140 140 140 141 140 141 141 143 142 142 142 143 142 143 143 144 143 143 143 144 143 144 144 146 145 145 145 146 145 146 146 148 147 148 148 149 148 149 149 151 150 150 150 151 150 151 151 153 152 153 153 154 154 155 155 157 156 156 155 156 155 156 156 158 157 157 157 158 157 158 158 160 159 159 159 160 159 160 160 161 160 160 160 161 160 161 161 163 162 162 162 163 162 163 163 165 164 164 164 165 164 165 165 167 166 166 166 167 166 167 167 169 168 169 169 170 169 170 170 172 171 171 170 171 170 171 171 172 171 171 171 172 171 172 172 174 173 173 172 173 172 173 173 174 173 173 173 174 173 174 174 176
125 125 125 125 125 125 125 125 125 125 125 125 125 125 125 125 125 126 126 126 126 126 126 126 126 127 127 127 127 127 127 128 127 128 128 128 128 128 128 128 128 129 129 129 129 129 129 129 129 130 130 130 130 130 130 130 130 130 130 130 130 130 130 131 131 132 132 132 132 132 132 133 133 133 133 134 134 134 134 135 135 136 136 136 136 136 136 137 137 137 137 138 138 138 138 139 138 139 139 139 139 140 140 140 140 140 140 140 140 140 140 141 141 142 142 142 142 142 142 143 143 143 143 143 143 143 143 144 144 145 145 145 145 146 146 147 146 147 147 148 148 148 148 149 149 150 150 150 150 151 151 152 151 152 152 153 153 154 154 155 154 155 155 155 155 156 156 156 156 157 157 157 157 158 158 159 158 159 159 159 159 160 160 160 160 160 160 160 160 161 161 162 161 162 162 162 162 163 163 164 163 164 164 164 164 165 165 166 165 166 166 166 166 167 167 168 167 168 168 169 169 169 169 170 170 171 171 171 171 171 171 171 171 171 171 171 171 172 172 172 172 173 173 173 173 173 173 173 173 173 173 173 173 174 174 175 175
