83 64 52 41 32 23 14 7 98 91 83 76 67 61 54 47 37 32 25 18 9 2 94 86 76 71 63 56 47 41 32 23 11 
64 57 55 40 38 24 19 9 6 94 88 78 75 64 59 50 48 36 31 21 17 5 0 90 88 75 69 59 56 44 39 27 22 
53 47 41 37 38 23 14 10 10 96 85 79 77 66 58 55 54 41 30 24 20 8 99 95 93 79 68 62 59 47 38 33 29 
42 39 37 30 26 19 19 10 7 97 92 78 74 66 65 58 55 45 40 25 19 9 7 98 94 82 77 63 58 49 48 38 35 
36 31 26 22 16 13 9 7 10 95 85 77 68 66 62 60 61 47 36 26 14 9 3 99 97 84 73 64 55 51 46 42 39 
26 23 22 16 15 8 6 2 98 91 89 77 77 68 65 61 57 48 44 29 26 12 6 98 94 84 80 68 67 56 52 46 44 
19 16 13 10 10 3 98 95 92 85 79 77 79 69 64 61 58 48 39 32 30 14 2 96 93 83 74 71 72 60 53 50 48 
12 10 8 4 1 96 95 88 85 79 78 73 70 67 67 61 59 49 44 31 25 12 9 94 89 81 80 71 68 62 61 53 51 
9 4 1 97 93 90 86 82 76 74 70 67 64 63 61 60 64 49 38 29 18 11 1 93 82 80 75 71 65 62 58 55 53 
0 98 97 92 91 86 84 79 78 71 68 64 63 60 58 56 52 45 42 29 27 13 8 97 96 85 80 74 72 65 62 58 56 
93 91 89 87 87 82 78 76 76 69 64 61 61 56 54 50 47 40 33 28 28 14 5 2 3 91 82 77 74 67 63 60 59 
87 86 85 82 80 77 76 73 71 66 64 58 56 52 50 45 43 35 32 24 20 13 13 6 3 95 90 78 75 68 67 62 61 
83 81 79 76 74 72 70 69 69 62 58 54 50 47 44 40 38 31 25 19 12 10 7 6 9 96 87 79 72 69 66 64 63 
77 76 75 72 71 68 66 64 62 58 56 50 49 43 40 36 34 27 24 17 16 9 7 4 0 94 92 82 81 73 70 66 65 
73 71 70 68 67 63 61 58 57 52 49 46 46 39 34 31 29 22 17 15 15 8 3 0 97 91 86 83 85 75 69 67 66 
69 68 66 64 62 59 57 53 51 47 46 42 40 35 33 26 23 18 17 12 9 5 3 96 93 88 87 82 79 75 74 68 66 
68 64 62 59 57 54 52 49 45 43 40 37 34 31 27 23 17 15 12 9 4 2 98 94 88 86 83 80 76 74 71 68 66 
60 59 58 55 54 51 49 46 45 40 38 35 34 29 27 22 21 15 12 8 6 1 99 94 93 87 84 80 79 75 73 70 68 
55 54 53 51 51 47 45 43 43 38 35 33 32 27 24 22 22 16 11 8 6 1 97 95 95 89 84 81 80 76 73 71 70 
50 49 48 47 46 43 43 41 40 36 34 30 28 25 25 22 21 16 14 7 5 0 99 96 94 90 87 81 79 76 75 72 71 
46 44 44 42 41 39 38 37 38 33 30 27 25 23 22 21 22 16 11 6 2 99 97 96 96 90 85 81 78 76 74 72 72 
41 40 40 39 38 36 35 34 32 30 29 26 26 23 22 20 18 15 13 7 6 0 98 95 93 89 88 82 81 77 75 73 72 
37 36 36 35 35 32 31 30 29 26 25 24 25 22 20 19 18 14 10 7 7 0 96 93 92 88 85 83 83 78 75 73 73 
33 33 32 31 30 29 28 26 25 23 23 22 21 20 20 18 17 13 11 6 3 99 98 92 90 86 85 82 81 78 77 74 73 
31 29 29 28 27 25 24 23 21 20 20 19 18 17 17 16 18 12 8 4 0 97 94 91 87 85 83 81 79 77 76 74 74 
26 26 26 25 24 23 22 21 20 19 18 17 16 15 15 14 12 10 9 4 3 97 95 92 91 86 84 81 80 78 77 75 74 
23 22 22 22 22 20 20 19 19 17 16 15 15 13 13 11 10 7 5 3 3 97 94 93 93 87 84 81 81 78 76 74 74 
19 19 19 19 18 18 18 17 17 15 14 13 12 11 10 9 8 5 4 1 99 96 96 93 92 88 86 81 80 77 76 74 74 
17 16 16 16 16 16 16 15 16 13 12 11 10 9 8 7 6 3 1 98 96 94 93 92 94 88 84 81 78 76 75 74 74 
13 13 13 13 13 14 13 13 13 12 11 9 9 7 6 5 4 1 0 97 97 94 93 91 89 87 86 81 81 77 75 73 73 
11 10 11 11 12 12 12 11 11 10 9 8 8 5 4 3 2 99 97 96 96 93 91 89 88 85 83 81 82 77 74 72 72 
8 8 9 10 10 10 10 9 9 8 7 6 5 4 3 1 99 97 97 95 94 92 91 88 86 84 83 80 79 76 75 72 71 
5 7 8 9 9 9 9 8 7 7 6 5 4 3 1 99 97 96 95 94 92 91 89 87 84 83 81 79 77 75 73 71 70 
