1698 1695 1698 1697 1696 1711 1719 1734 1737 1756 1779 1773 1775 1779 1786 1794 1808 1817 1830 1835 1838 1861 1882 1867 1851 1862 1870 1861 1860 1859 1851 1858 1858 1871 1889 1894 1903 1919 1945 1940 1941 1955 1970 1976 1989 1996 2004 2005 2009 2022 2041 2040 2036 2053 2073 2070 2063 2081 2095 2091 2087 2080 2078 2070 2067 2065 2068 2086 2100 2130 2163 2168 2166 2194 2220 2225 2229 2230 2229 2242 2255 2281 2309 2311 2311 2333 2355 2357 2358 2367 2371 2385 2388 2412 2429 2435 2443 2459 2473 2474 2476 2487 2505 2510 2515 2534 2551 2551 2561 2572 2584 2579 2580 2590 2596 2593 2597 2604 2614 2613 2608 2599 2583 2588 2598 2593 2595 2584 2585 2572 2562 2558 2559 2571 2583 2577 2582 2587 2592 2612 2620 2648 2671 2675 2674 2703 2725 2750 2761 2791 2815 2811 2812 2817 2828 2822 2824 2813 2805 2806 2808 2801 2792 2802 2806 2817 2820 2832 2838 2858 2871 2867 2872 2873 2880 2871 2873 2872 2876 2878 2875 2891 2900 2903 2910 2930 2953 2951 2961 2960 2965 2963 2964 2959 2961 2978 2991 3002 3007 3020 3032 3049 3070 3073 3071 3077 3075 3078 3083 3084 3084 3079 3076 3070 3062 3066 3069 3074 3078 3083 3088 3093 3099 3099 3103 3089 3076 3082 3087 3080 3078 3063 3058 3041 3027 3026 3024 3034 3045 3039 3032 3025 3016 3015 3014 3007 3003 3013 3015 3027 3028 3036 3035 3041 3040 3039 3040 3032 3016 3012 3017 3014 3022 3027 3034 3049 3061 3057 3050 3057 3058 3066 3074 3082 3090 3091 3090 3116 3146 3150 3146 3164 3187 3198 3210 3203 3205 3206 3212 3224 3235 3244 3250 3275 3282 3300 3304 3330 3357 3354 3358 3354 3355 3350 3342 3330 3316 3326 3339 3332 3336 3326 3321 3316 3306 3316 3323 3327 3337 3324 3317 3328 3341 3339 3337 3355 3376 3378 3382 3400 3420 3425 3433 3424 3423 3430 3444 3448 3464 3465 3458 3485 3513 3514 3516 3535 3550 3551 3545 3557 3556 3568 3580 3589 3593 3601 3598 3628 3645 3649 3651 3658 3663 3670 3676 3687 3697 3702 3699 3714 3727 3748 3754 3784 3800 3817 3829 3869 3908 3908 3907 3930 3953 3965 3977 3998 4022 4035 4036 4072 4102 4108 4108 4138 4166 4185 4202 4210 4221 4217 4219 4224 4235 4244 4253 4283 4313 4306 4301 4329 4357 4348 4345 4339 4330 4337 4352 4342 4348 4347 4344 4374 4404 4406 4402 4420 4432 4453 4461 4469 4467 4474 4475 4475 4475 4476 4478 4485 4495 4484 4483 4468 4466 4452 4442 4430 4416 4425 4425 4411 4398 4400 4404 4397 4398 4389 4382 4375 4367 4382 4391 4401 4413 4400 4392 4403 4411 4421 4426 4438 4455 4465 4473 4498 4526 4529 4531 4540 4543 4550 4558 4571 4598 4597 4595 4625 4652 4644 4635 4648 4659 4667 4684 4679 4667 4676 4678 4673 4665 4677 4680 4688 4696 4688 4685 4673 4660 4652 4652 4636 4627 4627 4628
1707 1703 1706 1702 1710 1720 1724 1738 1740 1752 1760 1782 1780 1784 1794 1816 1819 1835 1837 1847 1861 1880 1870 1880 1875 1866 1861 1861 1868 1868 1863 1865 1863 1872 1874 1889 1901 1913 1915 1928 1941 1955 1962 1981 1995 2008 2007 2015 2021 2037 2032 2042 2047 2054 2052 2064 2059 2062 2064 2079 2072 2061 2055 2046 2043 2036 2046 2057 2072 2104 2109 2139 2154 2180 2184 2216 2216 2216 2212 2212 2224 2253 2260 2286 2296 2314 2321 2347 2349 2357 2364 2380 2393 2419 2419 2438 2443 2456 2456 2466 2467 2471 2478 2496 2503 2518 2519 2530 2541 2562 2560 2563 2575 2588 2585 2586 2594 2602 2602 2606 2603 2596 2598 2591 2590 2600 2595 2589 2585 2573 2569 2556 2565 2575 2578 2590 2593 2594 2608 2631 2633 2651 2657 2675 2681 2706 2723 2762 2774 2799 2794 2808 2807 2811 2811 2813 2811 2811 2808 2805 2808 2811 2803 2791 2797 2812 2817 2823 2835 2860 2861 2881 2881 2886 2877 2872 2880 2885 2881 2886 2883 2887 2887 2899 2904 2923 2928 2948 2962 2975 2971 2975 2977 2974 2987 3006 3008 3023 3026 3038 3042 3061 3076 3101 3108 3107 3100 3095 3097 3097 3103 3104 3103 3095 3092 3082 3085 3086 3094 3105 3101 3109 3115 3124 3125 3121 3122 3115 3112 3108 3100 3087 3081 3065 3061 3038 3038 3043 3044 3053 3047 3042 3034 3024 3024 3028 3031 3042 3043 3049 3050 3064 3063 3071 3065 3065 3064 3061 3049 3028 3028 3028 3038 3044 3054 3068 3068 3079 3074 3070 3069 3072 3070 3084 3091 3102 3099 3107 3114 3139 3137 3148 3165 3195 3201 3209 3207 3205 3208 3225 3227 3243 3252 3274 3273 3294 3296 3320 3327 3354 3351 3350 3359 3358 3355 3343 3343 3339 3329 3334 3334 3332 3333 3328 3334 3342 3339 3345 3340 3335 3333 3331 3329 3334 3344 3349 3354 3370 3373 3387 3402 3427 3430 3430 3440 3451 3447 3456 3466 3482 3484 3497 3500 3524 3525 3544 3548 3567 3568 3576 3576 3589 3594 3608 3612 3627 3631 3648 3643 3660 3663 3669 3672 3685 3692 3705 3709 3724 3724 3733 3738 3758 3765 3786 3789 3814 3824 3861 3871 3909 3922 3934 3944 3969 3975 4003 4014 4044 4058 4082 4081 4098 4109 4134 4148 4191 4204 4223 4221 4224 4223 4224 4234 4249 4259 4287 4281 4296 4302 4319 4324 4341 4348 4344 4346 4347 4347 4354 4354 4353 4359 4375 4378 4404 4404 4417 4432 4464 4465 4474 4474 4483 4479 4485 4481 4482 4483 4481 4480 4476 4476 4467 4465 4455 4454 4439 4438 4429 4422 4410 4410 4394 4395 4399 4402 4402 4396 4386 4390 4395 4399 4410 4402 4398 4398 4405 4406 4416 4417 4426 4435 4454 4461 4484 4502 4540 4542 4540 4543 4551 4552 4564 4573 4595 4605 4618 4615 4634 4631 4635 4642 4657 4668 4684 4686 4691 4685 4681 4689 4692 4690 4689 4686 4681 4682 4677 4666 4645 4644 4632 4629 4624 4619
1722 1721 1722 1719 1722 1732 1745 1747 1752 1760 1771 1777 1775 1791 1801 1822 1842 1850 1861 1868 1889 1884 1885 1880 1875 1869 1868 1866 1874 1863 1860 1860 1866 1872 1878 1894 1916 1915 1919 1925 1938 1955 1972 1991 2021 2012 2018 2022 2030 2038 2040 2041 2054 2049 2056 2049 2037 2048 2055 2058 2054 2038 2027 2020 2012 2016 2027 2041 2061 2078 2095 2114 2135 2156 2174 2191 2215 2200 2193 2198 2202 2227 2248 2261 2278 2294 2312 2328 2338 2349 2361 2380 2403 2415 2431 2440 2452 2456 2459 2458 2459 2466 2472 2484 2493 2505 2515 2521 2523 2543 2554 2560 2565 2578 2586 2590 2593 2600 2605 2601 2597 2595 2597 2590 2587 2593 2595 2585 2583 2573 2565 2565 2568 2579 2590 2599 2606 2610 2626 2643 2660 2669 2683 2681 2672 2715 2753 2774 2812 2806 2810 2804 2796 2808 2809 2807 2794 2798 2793 2800 2814 2809 2802 2800 2795 2815 2827 2832 2837 2853 2867 2874 2886 2882 2879 2878 2885 2880 2881 2882 2885 2885 2890 2893 2896 2915 2934 2948 2974 2971 2975 2982 2996 2996 3004 3023 3042 3040 3053 3054 3062 3083 3111 3125 3154 3136 3129 3122 3123 3127 3129 3126 3130 3120 3115 3108 3111 3112 3117 3116 3112 3125 3139 3149 3157 3151 3149 3145 3150 3132 3119 3107 3094 3090 3084 3066 3047 3056 3057 3056 3051 3047 3041 3036 3028 3039 3042 3062 3080 3074 3073 3081 3092 3091 3090 3090 3092 3081 3068 3055 3040 3053 3063 3069 3085 3089 3092 3094 3086 3086 3087 3081 3069 3093 3104 3102 3099 3111 3121 3127 3117 3149 3171 3194 3215 3206 3207 3200 3197 3213 3229 3238 3259 3267 3277 3286 3288 3311 3331 3341 3345 3356 3371 3371 3366 3358 3348 3345 3328 3335 3333 3340 3339 3345 3348 3355 3363 3358 3357 3342 3329 3332 3337 3342 3352 3353 3361 3364 3361 3388 3415 3424 3443 3441 3449 3458 3461 3470 3483 3490 3496 3508 3523 3528 3519 3546 3566 3573 3580 3587 3596 3606 3624 3626 3636 3642 3656 3660 3667 3672 3679 3682 3686 3700 3718 3724 3731 3739 3743 3754 3764 3774 3789 3794 3804 3814 3823 3856 3886 3909 3938 3946 3968 3974 3978 4008 4035 4057 4084 4094 4109 4107 4103 4131 4160 4193 4236 4230 4235 4230 4224 4235 4246 4255 4265 4284 4290 4291 4281 4312 4338 4342 4352 4348 4350 4351 4359 4355 4360 4360 4361 4377 4391 4395 4391 4423 4446 4465 4490 4481 4479 4487 4483 4488 4482 4490 4494 4489 4488 4477 4467 4462 4455 4455 4459 4445 4442 4433 4433 4418 4414 4401 4390 4399 4405 4404 4398 4394 4398 4407 4427 4417 4412 4397 4376 4402 4413 4415 4416 4426 4437 4449 4454 4482 4513 4532 4563 4550 4551 4552 4553 4565 4577 4592 4612 4611 4616 4615 4606 4625 4641 4657 4673 4681 4687 4695 4704 4703 4706 4706 4717 4698 4694 4682 4677 4669 4659 4649 4639 4625 4611 4608 4605
1730 1738 1735 1733 1734 1742 1745 1755 1756 1766 1769 1780 1788 1807 1810 1829 1834 1864 1866 1875 1872 1884 1887 1882 1878 1868 1865 1864 1861 1853 1856 1849 1857 1873 1876 1893 1890 1912 1912 1915 1929 1956 1969 1992 1988 2003 2017 2028 2034 2045 2036 2031 2031 2034 2040 2040 2042 2040 2039 2045 2030 2013 2007 1997 1992 1991 1998 2021 2025 2052 2063 2090 2100 2136 2139 2159 2157 2177 2184 2188 2190 2207 2211 2232 2245 2274 2287 2316 2319 2342 2354 2377 2382 2407 2422 2440 2441 2458 2453 2450 2456 2462 2464 2476 2480 2495 2500 2519 2520 2534 2540 2559 2558 2573 2581 2596 2592 2600 2594 2597 2597 2590 2592 2585 2590 2590 2585 2576 2577 2572 2575 2573 2577 2586 2592 2611 2608 2616 2630 2655 2656 2683 2684 2695 2709 2731 2737 2770 2774 2803 2809 2802 2810 2816 2810 2812 2804 2794 2791 2789 2795 2811 2812 2815 2817 2826 2829 2841 2840 2848 2848 2863 2865 2878 2877 2879 2871 2869 2877 2877 2881 2879 2883 2889 2894 2908 2913 2937 2939 2960 2970 2984 2992 3011 3023 3040 3032 3045 3056 3065 3079 3101 3114 3134 3135 3154 3153 3143 3154 3161 3151 3142 3143 3140 3131 3126 3131 3136 3129 3131 3137 3143 3155 3176 3171 3178 3172 3166 3161 3151 3146 3130 3129 3117 3112 3097 3094 3077 3068 3065 3061 3057 3058 3054 3057 3058 3064 3086 3082 3095 3097 3096 3102 3112 3114 3113 3109 3104 3101 3086 3087 3081 3078 3085 3093 3113 3113 3119 3112 3104 3099 3099 3108 3116 3104 3103 3108 3119 3118 3132 3139 3163 3167 3196 3184 3195 3196 3192 3195 3201 3204 3222 3235 3261 3272 3288 3295 3308 3316 3335 3345 3359 3371 3390 3385 3375 3379 3365 3359 3348 3348 3358 3358 3368 3364 3367 3364 3367 3363 3350 3346 3334 3334 3346 3343 3352 3356 3364 3373 3390 3393 3414 3423 3445 3457 3471 3470 3483 3488 3500 3503 3517 3531 3548 3547 3558 3561 3580 3582 3597 3604 3617 3619 3639 3639 3651 3656 3670 3675 3685 3688 3696 3701 3714 3720 3745 3747 3760 3760 3777 3777 3788 3788 3799 3802 3818 3829 3856 3865 3906 3908 3945 3960 3981 3991 4017 4029 4067 4067 4101 4105 4119 4118 4129 4146 4187 4191 4229 4240 4238 4246 4249 4249 4263 4271 4297 4297 4299 4306 4313 4317 4337 4336 4346 4345 4351 4347 4350 4362 4367 4371 4384 4388 4397 4412 4440 4440 4460 4462 4483 4495 4503 4501 4504 4499 4503 4495 4495 4490 4477 4477 4459 4459 4452 4453 4442 4440 4429 4431 4417 4416 4406 4408 4403 4403 4411 4404 4394 4400 4410 4411 4422 4421 4404 4413 4415 4407 4418 4420 4425 4437 4453 4460 4480 4483 4514 4517 4546 4552 4554 4559 4567 4570 4587 4587 4601 4603 4605 4612 4620 4628 4657 4659 4681 4690 4701 4704 4721 4718 4711 4705 4695 4694 4678 4679 4663 4664 4656 4642 4621 4613 4593 4594
1732 1736 1748 1742 1742 1748 1762 1762 1761 1771 1780 1789 1794 1814 1830 1840 1844 1867 1883 1878 1869 1884 1894 1887 1877 1868 1855 1859 1859 1853 1849 1847 1849 1862 1872 1879 1880 1897 1907 1916 1927 1955 1990 1988 1985 2004 2018 2034 2047 2045 2038 2031 2022 2026 2035 2034 2033 2033 2036 2025 2007 1990 1966 1962 1956 1960 1969 1989 2000 2028 2052 2069 2079 2106 2128 2127 2119 2142 2156 2164 2174 2186 2205 2217 2227 2259 2280 2298 2308 2336 2362 2375 2384 2409 2440 2443 2438 2450 2455 2454 2456 2458 2462 2475 2478 2489 2496 2510 2515 2532 2544 2549 2548 2570 2593 2590 2586 2593 2588 2594 2599 2596 2596 2588 2590 2585 2588 2574 2567 2568 2575 2578 2584 2595 2605 2615 2616 2631 2646 2659 2663 2687 2701 2713 2727 2748 2775 2778 2771 2800 2820 2815 2812 2818 2819 2809 2801 2797 2788 2790 2790 2799 2810 2818 2828 2839 2857 2850 2844 2849 2846 2855 2854 2864 2867 2864 2859 2869 2880 2885 2890 2886 2881 2890 2891 2905 2914 2929 2926 2951 2965 2985 3000 3022 3046 3044 3040 3057 3075 3084 3100 3122 3159 3153 3143 3161 3164 3174 3186 3183 3179 3166 3161 3148 3129 3140 3150 3147 3140 3153 3158 3172 3191 3191 3191 3192 3187 3183 3180 3167 3156 3152 3151 3143 3141 3127 3118 3102 3086 3076 3068 3068 3070 3073 3078 3082 3087 3102 3107 3114 3120 3117 3127 3131 3139 3133 3132 3128 3124 3114 3114 3107 3107 3110 3113 3128 3137 3136 3135 3122 3108 3122 3133 3132 3130 3120 3109 3120 3122 3134 3142 3166 3195 3192 3176 3187 3183 3182 3183 3193 3197 3218 3231 3259 3280 3295 3307 3321 3336 3347 3357 3375 3391 3403 3404 3405 3410 3387 3375 3365 3358 3370 3375 3377 3384 3379 3375 3374 3373 3358 3344 3334 3328 3339 3339 3351 3356 3366 3378 3391 3409 3416 3419 3445 3471 3473 3477 3492 3511 3511 3513 3534 3565 3562 3559 3577 3589 3591 3587 3611 3625 3628 3625 3639 3643 3660 3669 3678 3690 3699 3705 3710 3715 3729 3737 3755 3766 3772 3774 3790 3800 3798 3801 3805 3805 3823 3841 3861 3877 3896 3897 3942 3978 3993 4001 4027 4057 4064 4065 4092 4119 4119 4117 4139 4166 4180 4188 4226 4259 4255 4263 4263 4263 4273 4278 4308 4330 4323 4324 4331 4337 4334 4324 4332 4332 4337 4338 4352 4372 4370 4375 4392 4411 4416 4423 4449 4472 4465 4460 4488 4505 4513 4519 4515 4506 4508 4503 4498 4496 4490 4486 4471 4459 4459 4464 4446 4433 4434 4439 4423 4410 4412 4411 4409 4409 4410 4407 4402 4401 4411 4416 4426 4434 4420 4424 4420 4421 4421 4424 4435 4454 4460 4470 4477 4484 4496 4497 4527 4548 4552 4564 4567 4575 4580 4585 4595 4594 4601 4607 4619 4629 4646 4659 4682 4705 4705 4708 4722 4739 4720 4710 4699 4689 4681 4681 4665 4663 4647 4635 4616 4602 4590 4584
1729 1729 1736 1748 1745 1748 1753 1770 1772 1779 1785 1803 1806 1827 1830 1858 1864 1880 1871 1885 1886 1892 1887 1897 1891 1875 1870 1860 1856 1852 1849 1843 1837 1854 1860 1874 1878 1891 1896 1915 1923 1948 1953 1987 1996 2012 2016 2043 2049 2051 2042 2035 2025 2014 2019 2029 2031 2024 2022 2013 2003 1975 1963 1932 1922 1924 1945 1967 1977 2008 2019 2055 2065 2081 2083 2102 2108 2116 2118 2138 2143 2161 2179 2207 2222 2256 2260 2291 2304 2333 2343 2380 2386 2407 2420 2455 2457 2452 2452 2457 2455 2454 2466 2484 2482 2487 2495 2510 2517 2537 2533 2547 2555 2568 2568 2587 2594 2599 2594 2594 2601 2601 2593 2582 2583 2575 2575 2567 2558 2558 2570 2583 2591 2605 2613 2631 2632 2648 2655 2673 2680 2704 2705 2731 2741 2760 2769 2797 2799 2808 2808 2828 2826 2828 2818 2806 2808 2806 2801 2795 2785 2788 2803 2821 2827 2845 2849 2861 2863 2858 2856 2858 2857 2859 2854 2853 2855 2868 2880 2896 2896 2894 2901 2901 2900 2907 2920 2942 2942 2954 2966 2993 3002 3034 3033 3052 3060 3070 3074 3097 3106 3128 3141 3176 3183 3184 3186 3203 3206 3207 3197 3184 3177 3162 3163 3157 3156 3164 3173 3185 3185 3198 3197 3206 3214 3215 3210 3199 3197 3183 3185 3174 3170 3164 3162 3154 3143 3127 3114 3087 3080 3080 3088 3091 3099 3105 3116 3128 3129 3135 3129 3128 3135 3149 3146 3151 3154 3153 3143 3132 3129 3128 3133 3136 3147 3151 3151 3153 3154 3144 3152 3150 3147 3152 3147 3138 3136 3131 3132 3141 3145 3164 3175 3201 3201 3196 3182 3172 3171 3191 3204 3224 3241 3267 3278 3305 3317 3333 3341 3361 3369 3396 3400 3428 3430 3432 3413 3399 3395 3380 3385 3389 3383 3383 3387 3390 3390 3384 3378 3368 3353 3332 3341 3346 3344 3359 3358 3367 3370 3390 3400 3425 3429 3447 3450 3474 3482 3499 3505 3523 3530 3543 3553 3579 3590 3602 3597 3609 3619 3635 3631 3647 3644 3649 3656 3677 3675 3686 3699 3719 3723 3727 3735 3750 3757 3775 3776 3789 3794 3810 3804 3806 3812 3817 3820 3830 3843 3873 3881 3905 3917 3949 3960 4012 4021 4035 4038 4069 4071 4083 4092 4122 4128 4145 4153 4181 4201 4231 4232 4260 4272 4277 4280 4289 4301 4327 4324 4342 4347 4351 4341 4340 4338 4329 4330 4327 4327 4350 4355 4368 4382 4400 4408 4434 4439 4463 4459 4471 4487 4507 4507 4526 4534 4531 4524 4522 4513 4499 4500 4501 4494 4483 4474 4464 4460 4446 4448 4436 4431 4429 4425 4421 4416 4414 4414 4416 4415 4408 4414 4418 4422 4435 4424 4418 4422 4422 4424 4423 4433 4440 4448 4465 4474 4476 4479 4491 4499 4519 4521 4545 4557 4565 4570 4575 4586 4602 4599 4601 4609 4622 4625 4641 4656 4684 4688 4708 4720 4723 4719 4721 4717 4703 4691 4676 4669 4655 4655 4636 4633 4608 4606 4581 4577
1728 1728 1736 1739 1739 1742 1752 1766 1780 1785 1797 1806 1816 1826 1842 1859 1890 1875 1877 1882 1886 1888 1891 1892 1900 1878 1869 1866 1857 1853 1844 1834 1802 1845 1866 1873 1878 1890 1901 1913 1925 1937 1952 1971 1995 2001 2024 2042 2084 2050 2038 2029 2015 2011 2014 2022 2036 2024 2020 2002 1989 1964 1941 1914 1866 1912 1935 1951 1967 1989 2016 2036 2075 2064 2073 2077 2088 2093 2102 2116 2120 2149 2175 2195 2223 2243 2266 2284 2312 2326 2351 2372 2398 2410 2434 2452 2482 2462 2463 2457 2457 2461 2471 2483 2497 2498 2505 2512 2527 2531 2536 2546 2561 2562 2571 2579 2600 2594 2597 2601 2621 2600 2591 2582 2581 2575 2569 2553 2519 2555 2573 2588 2602 2617 2632 2639 2646 2666 2684 2688 2700 2713 2725 2745 2772 2774 2795 2803 2819 2820 2825 2827 2828 2828 2828 2815 2804 2813 2805 2796 2770 2799 2813 2823 2834 2851 2864 2868 2879 2867 2866 2866 2866 2858 2852 2850 2834 2875 2899 2908 2916 2914 2920 2916 2913 2924 2940 2951 2960 2974 2993 3000 3017 3032 3048 3056 3074 3077 3092 3105 3124 3139 3160 3184 3215 3205 3215 3224 3250 3222 3214 3200 3185 3178 3175 3174 3175 3183 3194 3205 3220 3222 3226 3233 3247 3237 3235 3227 3222 3212 3204 3201 3188 3187 3179 3171 3151 3147 3125 3111 3069 3103 3113 3124 3133 3139 3153 3154 3166 3155 3149 3148 3144 3156 3160 3167 3173 3166 3158 3149 3135 3145 3157 3170 3197 3184 3187 3182 3183 3178 3180 3174 3180 3173 3168 3155 3146 3148 3149 3153 3154 3174 3195 3203 3212 3197 3185 3168 3138 3188 3221 3243 3278 3285 3310 3323 3353 3350 3366 3373 3386 3401 3422 3436 3470 3435 3419 3407 3394 3391 3396 3398 3402 3398 3400 3400 3404 3393 3387 3370 3342 3344 3345 3348 3345 3358 3370 3368 3367 3389 3407 3423 3438 3451 3463 3474 3486 3501 3522 3530 3546 3557 3578 3591 3615 3613 3618 3628 3643 3648 3657 3655 3655 3666 3674 3683 3694 3706 3722 3736 3759 3753 3759 3775 3791 3798 3806 3810 3813 3821 3826 3821 3828 3830 3835 3848 3867 3886 3907 3917 3939 3954 3982 4011 4060 4045 4050 4062 4078 4083 4098 4113 4127 4146 4171 4190 4227 4235 4252 4265 4294 4284 4291 4302 4325 4336 4350 4350 4366 4353 4350 4347 4349 4342 4341 4328 4299 4342 4365 4374 4388 4405 4426 4438 4451 4464 4479 4486 4501 4516 4536 4545 4575 4539 4526 4525 4528 4507 4498 4499 4496 4478 4465 4468 4471 4454 4447 4434 4426 4422 4414 4416 4421 4414 4418 4422 4430 4419 4423 4423 4434 4429 4428 4422 4416 4424 4427 4434 4448 4450 4463 4472 4501 4483 4480 4487 4505 4513 4526 4541 4572 4567 4577 4579 4593 4599 4611 4611 4622 4623 4633 4643 4671 4678 4701 4709 4746 4727 4727 4713 4708 4693 4678 4667 4656 4654 4649 4633 4626 4610 4600 4580 4566
1723 1721 1727 1733 1731 1730 1740 1762 1765 1787 1797 1809 1809 1819 1829 1848 1843 1854 1868 1880 1880 1885 1884 1880 1879 1870 1878 1878 1874 1859 1858 1849 1858 1858 1855 1875 1876 1893 1895 1913 1911 1926 1932 1952 1954 1975 1990 2020 2011 2028 2039 2029 2022 2004 2000 2009 2007 2016 2007 1986 1983 1954 1952 1920 1935 1924 1917 1938 1937 1966 1969 2000 2003 2029 2045 2047 2053 2066 2082 2104 2110 2142 2147 2175 2188 2228 2242 2269 2273 2311 2328 2359 2367 2401 2413 2437 2435 2454 2461 2451 2458 2463 2468 2482 2487 2505 2503 2509 2511 2527 2535 2543 2539 2548 2550 2561 2564 2581 2588 2592 2587 2588 2588 2576 2576 2575 2568 2559 2572 2570 2571 2596 2602 2630 2639 2650 2660 2687 2687 2698 2705 2724 2733 2753 2752 2771 2783 2803 2810 2830 2828 2830 2830 2831 2829 2824 2837 2838 2828 2814 2823 2825 2815 2826 2837 2864 2863 2869 2868 2866 2873 2876 2868 2858 2865 2864 2879 2900 2898 2921 2919 2927 2930 2932 2935 2937 2946 2962 2967 2990 2987 2998 3008 3032 3039 3051 3057 3072 3087 3109 3117 3144 3156 3185 3186 3207 3221 3229 3220 3218 3225 3218 3213 3193 3195 3191 3199 3202 3209 3221 3230 3245 3248 3254 3249 3251 3252 3255 3252 3239 3245 3241 3231 3217 3211 3203 3202 3185 3181 3165 3165 3152 3148 3161 3157 3168 3167 3169 3169 3173 3176 3171 3173 3172 3171 3184 3178 3180 3181 3172 3171 3162 3170 3193 3188 3204 3209 3206 3206 3208 3200 3189 3191 3192 3182 3168 3174 3167 3164 3168 3173 3183 3190 3207 3200 3195 3199 3180 3197 3205 3210 3251 3255 3288 3305 3327 3325 3349 3360 3379 3380 3400 3406 3425 3415 3421 3427 3417 3414 3397 3399 3406 3409 3409 3407 3406 3404 3400 3397 3384 3384 3358 3355 3357 3359 3361 3365 3370 3381 3394 3399 3424 3431 3456 3463 3475 3482 3497 3508 3532 3540 3564 3572 3593 3595 3619 3632 3643 3645 3659 3660 3663 3674 3688 3684 3687 3696 3723 3727 3745 3746 3767 3781 3801 3802 3820 3825 3835 3828 3835 3827 3826 3834 3843 3843 3860 3865 3897 3900 3919 3921 3947 3957 3992 3996 4036 4045 4053 4057 4074 4089 4108 4114 4143 4154 4182 4194 4232 4243 4257 4259 4274 4289 4305 4314 4343 4341 4345 4345 4345 4353 4351 4351 4350 4350 4345 4356 4355 4351 4378 4383 4406 4416 4443 4444 4466 4476 4495 4500 4520 4526 4546 4529 4526 4537 4525 4519 4505 4509 4503 4489 4470 4475 4473 4464 4453 4445 4428 4433 4420 4413 4408 4406 4405 4416 4425 4418 4417 4417 4419 4419 4420 4427 4427 4431 4433 4435 4441 4439 4450 4452 4461 4457 4475 4477 4473 4483 4504 4509 4522 4528 4557 4561 4574 4582 4592 4601 4611 4610 4617 4619 4628 4635 4656 4666 4684 4690 4713 4710 4696 4699 4684 4678 4659 4665 4656 4639 4622 4624 4606 4596 4574 4573
1720 1724 1729 1731 1728 1728 1729 1749 1759 1785 1814 1810 1812 1822 1835 1832 1828 1839 1850 1869 1880 1883 1885 1878 1875 1870 1867 1883 1893 1877 1870 1873 1881 1881 1886 1880 1870 1886 1897 1901 1904 1917 1926 1935 1937 1957 1972 1981 1974 2000 2017 2014 2018 1993 1972 1982 1989 1993 1993 1974 1972 1953 1945 1939 1957 1941 1941 1928 1911 1936 1945 1962 1967 1998 2029 2024 2029 2048 2073 2082 2094 2124 2154 2168 2177 2216 2249 2248 2249 2293 2332 2349 2357 2392 2417 2414 2416 2433 2458 2450 2457 2463 2470 2480 2491 2497 2501 2503 2503 2521 2543 2533 2532 2535 2530 2545 2546 2565 2581 2577 2571 2569 2569 2568 2565 2563 2560 2574 2591 2591 2599 2609 2611 2643 2677 2673 2674 2694 2719 2717 2717 2737 2756 2758 2761 2774 2786 2804 2814 2831 2834 2835 2835 2837 2835 2843 2858 2858 2859 2851 2850 2846 2841 2845 2847 2868 2886 2880 2876 2872 2873 2872 2872 2871 2872 2883 2900 2918 2940 2939 2930 2941 2945 2949 2952 2960 2974 2977 2977 2993 3003 3005 3009 3032 3056 3054 3057 3074 3096 3110 3124 3146 3171 3186 3194 3213 3233 3228 3221 3222 3217 3224 3230 3221 3213 3222 3229 3234 3241 3253 3260 3271 3276 3273 3267 3268 3258 3272 3279 3271 3279 3268 3265 3249 3239 3239 3244 3229 3223 3217 3218 3205 3211 3198 3187 3195 3201 3191 3184 3186 3194 3192 3200 3190 3186 3192 3190 3196 3202 3195 3195 3191 3191 3200 3201 3212 3231 3223 3223 3222 3221 3210 3204 3199 3190 3193 3196 3186 3177 3188 3192 3204 3219 3216 3203 3207 3210 3206 3218 3230 3246 3260 3262 3299 3330 3323 3317 3340 3361 3372 3377 3395 3415 3404 3393 3402 3402 3412 3426 3409 3402 3415 3425 3418 3411 3416 3410 3409 3401 3406 3407 3387 3366 3371 3374 3379 3384 3387 3390 3404 3414 3429 3438 3461 3486 3489 3494 3504 3517 3533 3544 3570 3588 3592 3591 3621 3654 3658 3660 3673 3677 3680 3691 3697 3706 3703 3703 3728 3747 3751 3753 3778 3799 3815 3829 3840 3856 3846 3837 3838 3837 3837 3841 3848 3843 3861 3870 3896 3918 3917 3914 3937 3953 3969 3976 4010 4033 4040 4051 4071 4099 4103 4109 4139 4167 4182 4193 4226 4257 4252 4256 4272 4285 4305 4319 4342 4351 4348 4341 4348 4351 4355 4356 4356 4357 4370 4384 4381 4375 4389 4386 4414 4427 4441 4441 4467 4495 4499 4507 4519 4538 4524 4509 4512 4524 4521 4523 4507 4502 4496 4488 4475 4462 4466 4466 4451 4430 4435 4440 4422 4401 4399 4398 4403 4413 4417 4414 4412 4402 4411 4417 4421 4429 4428 4437 4440 4453 4444 4438 4445 4451 4441 4431 4448 4460 4465 4477 4489 4508 4508 4510 4533 4541 4566 4586 4597 4609 4605 4602 4611 4612 4622 4626 4645 4654 4661 4663 4680 4688 4685 4689 4674 4662 4662 4669 4648 4624 4619 4619 4598 4580 4581 4581
1723 1726 1728 1736 1729 1726 1737 1747 1753 1782 1787 1805 1815 1823 1820 1818 1823 1827 1842 1868 1874 1884 1878 1874 1873 1871 1880 1894 1888 1886 1893 1892 1893 1899 1890 1892 1889 1884 1886 1891 1898 1915 1914 1925 1930 1946 1948 1960 1964 1982 1978 1993 1990 1980 1979 1960 1963 1975 1963 1948 1950 1944 1942 1936 1937 1943 1936 1924 1927 1923 1921 1938 1937 1968 1970 1994 2005 2027 2031 2059 2075 2108 2122 2166 2179 2213 2208 2226 2244 2280 2299 2351 2368 2395 2380 2388 2393 2404 2415 2435 2450 2463 2470 2480 2488 2493 2496 2500 2503 2514 2511 2515 2522 2530 2533 2544 2543 2555 2555 2566 2557 2549 2559 2564 2556 2553 2570 2588 2588 2606 2616 2631 2641 2657 2662 2692 2691 2699 2711 2737 2747 2754 2751 2765 2769 2781 2790 2816 2828 2849 2840 2844 2845 2850 2854 2856 2863 2880 2878 2882 2877 2871 2871 2869 2870 2878 2875 2890 2883 2873 2876 2868 2872 2884 2888 2899 2907 2933 2942 2967 2969 2965 2962 2970 2966 2977 2983 2995 2998 3003 3000 3010 3015 3032 3035 3054 3061 3074 3089 3114 3121 3148 3166 3196 3208 3218 3217 3231 3228 3232 3232 3233 3242 3248 3254 3258 3261 3267 3277 3292 3296 3304 3298 3298 3296 3296 3293 3296 3286 3287 3291 3287 3290 3275 3279 3272 3269 3266 3267 3263 3254 3241 3242 3235 3235 3226 3217 3210 3203 3195 3201 3204 3208 3205 3212 3210 3209 3213 3211 3211 3211 3216 3216 3218 3210 3214 3221 3233 3236 3238 3231 3228 3221 3212 3216 3220 3213 3205 3213 3215 3218 3225 3222 3235 3232 3220 3220 3219 3229 3252 3258 3281 3294 3317 3310 3321 3328 3336 3347 3371 3375 3390 3385 3385 3391 3394 3393 3404 3405 3413 3422 3429 3431 3430 3434 3437 3433 3428 3430 3435 3428 3417 3405 3388 3389 3399 3396 3407 3408 3421 3422 3443 3452 3467 3473 3501 3501 3509 3522 3541 3558 3587 3582 3596 3602 3621 3637 3675 3688 3699 3689 3690 3695 3703 3710 3718 3724 3739 3744 3761 3768 3794 3800 3831 3840 3856 3852 3856 3855 3844 3848 3846 3855 3866 3865 3871 3876 3900 3902 3918 3922 3934 3939 3958 3965 3998 4001 4025 4040 4061 4072 4096 4107 4140 4149 4186 4192 4222 4218 4240 4250 4276 4287 4314 4333 4358 4348 4355 4350 4355 4355 4362 4357 4364 4377 4397 4398 4413 4412 4417 4425 4438 4436 4454 4451 4469 4475 4502 4507 4514 4505 4504 4501 4491 4499 4513 4508 4501 4500 4491 4490 4480 4478 4464 4464 4455 4454 4445 4434 4428 4417 4391 4393 4398 4403 4418 4417 4417 4410 4407 4408 4418 4418 4422 4430 4437 4436 4444 4442 4442 4430 4424 4425 4429 4435 4451 4455 4468 4478 4495 4504 4526 4534 4564 4576 4603 4596 4600 4604 4613 4613 4624 4631 4644 4641 4645 4649 4657 4657 4669 4663 4664 4664 4658 4654 4644 4638 4614 4604 4590 4600 4590 4590
1725 1728 1733 1734 1727 1738 1748 1755 1755 1783 1803 1811 1821 1821 1827 1818 1813 1828 1847 1863 1895 1878 1877 1867 1862 1871 1881 1891 1908 1898 1903 1903 1914 1900 1890 1893 1897 1895 1902 1895 1890 1904 1914 1920 1925 1936 1951 1947 1943 1955 1966 1970 1973 1963 1959 1950 1948 1948 1942 1931 1916 1922 1918 1924 1926 1923 1922 1920 1923 1915 1915 1913 1899 1931 1951 1963 1970 1993 2010 2035 2061 2087 2123 2151 2185 2201 2216 2221 2221 2272 2319 2350 2397 2387 2382 2378 2365 2389 2407 2425 2446 2459 2480 2487 2509 2503 2500 2499 2499 2507 2512 2508 2501 2521 2529 2539 2543 2547 2553 2552 2534 2545 2553 2553 2541 2558 2577 2588 2599 2614 2638 2649 2678 2679 2691 2694 2698 2715 2735 2751 2778 2770 2768 2774 2776 2790 2803 2829 2864 2854 2856 2856 2854 2868 2876 2879 2883 2892 2894 2897 2897 2896 2896 2894 2894 2891 2887 2889 2883 2889 2890 2881 2866 2888 2900 2914 2924 2945 2969 2983 3004 2989 2983 2982 2975 2994 3009 3011 3020 3010 3012 3016 3018 3031 3046 3055 3060 3086 3112 3120 3127 3165 3199 3215 3248 3231 3225 3229 3219 3237 3243 3255 3270 3271 3282 3290 3308 3308 3321 3327 3348 3335 3332 3327 3317 3320 3314 3314 3305 3312 3314 3312 3320 3309 3307 3301 3300 3297 3297 3289 3289 3279 3274 3270 3269 3257 3247 3227 3209 3216 3222 3225 3229 3232 3236 3236 3229 3231 3232 3228 3216 3230 3235 3232 3219 3230 3236 3244 3244 3241 3237 3232 3224 3229 3231 3233 3238 3230 3238 3238 3255 3238 3236 3243 3257 3244 3241 3238 3235 3261 3282 3303 3335 3335 3341 3338 3327 3352 3367 3374 3379 3385 3389 3382 3371 3384 3384 3395 3404 3413 3423 3439 3466 3449 3446 3449 3456 3451 3447 3452 3459 3433 3411 3409 3404 3408 3406 3411 3420 3425 3435 3456 3487 3480 3488 3500 3508 3523 3545 3562 3587 3591 3601 3603 3606 3635 3664 3687 3725 3711 3709 3709 3713 3722 3730 3733 3734 3753 3773 3774 3773 3803 3825 3845 3874 3868 3868 3865 3865 3862 3866 3864 3871 3877 3883 3884 3891 3906 3922 3922 3919 3936 3953 3958 3953 3988 4005 4027 4042 4061 4082 4092 4094 4133 4164 4182 4195 4209 4218 4228 4230 4275 4305 4329 4375 4359 4361 4353 4339 4357 4363 4360 4353 4376 4393 4412 4428 4431 4437 4446 4471 4466 4469 4463 4454 4472 4488 4500 4518 4507 4496 4488 4474 4482 4486 4492 4494 4489 4486 4485 4490 4479 4480 4472 4477 4460 4450 4441 4433 4422 4410 4394 4383 4395 4399 4407 4421 4410 4404 4402 4408 4408 4418 4416 4432 4426 4428 4429 4432 4427 4419 4411 4396 4415 4429 4435 4441 4456 4474 4480 4489 4513 4536 4560 4596 4593 4595 4595 4597 4607 4616 4626 4645 4644 4651 4642 4641 4643 4639 4640 4632 4643 4648 4652 4655 4642 4628 4611 4588 4599 4603 4602 4599
1731 1730 1737 1740 1743 1751 1757 1770 1777 1794 1797 1818 1808 1815 1816 1816 1820 1826 1828 1842 1842 1858 1862 1858 1866 1872 1868 1881 1883 1895 1900 1903 1902 1900 1900 1893 1893 1898 1897 1897 1898 1897 1904 1916 1916 1924 1930 1936 1933 1932 1939 1949 1945 1943 1941 1934 1933 1928 1926 1918 1919 1913 1915 1919 1907 1902 1910 1911 1908 1901 1905 1903 1908 1909 1914 1939 1946 1968 1979 2013 2018 2059 2086 2133 2145 2192 2201 2221 2236 2269 2280 2333 2336 2376 2383 2380 2385 2382 2387 2412 2419 2450 2460 2479 2490 2512 2510 2498 2500 2504 2503 2507 2514 2527 2528 2542 2534 2538 2548 2555 2550 2544 2543 2555 2557 2564 2569 2590 2596 2615 2628 2649 2659 2691 2694 2697 2709 2731 2732 2754 2757 2781 2785 2789 2788 2803 2807 2836 2831 2850 2865 2872 2881 2892 2895 2902 2901 2914 2913 2917 2917 2921 2923 2920 2915 2907 2902 2896 2905 2910 2907 2900 2906 2903 2911 2935 2934 2955 2970 2995 2992 3006 3012 3001 3009 3015 3012 3022 3015 3008 3015 3025 3024 3029 3039 3061 3074 3100 3106 3128 3148 3186 3188 3218 3212 3233 3238 3242 3247 3256 3261 3274 3272 3286 3302 3315 3316 3337 3338 3348 3347 3358 3364 3363 3359 3356 3348 3342 3343 3343 3332 3327 3332 3337 3338 3327 3330 3326 3321 3309 3312 3312 3308 3305 3296 3287 3271 3245 3250 3239 3238 3247 3252 3261 3264 3269 3260 3250 3254 3253 3255 3255 3253 3256 3257 3254 3254 3264 3254 3246 3247 3240 3248 3249 3247 3243 3244 3241 3245 3247 3241 3237 3245 3247 3249 3261 3260 3260 3262 3275 3285 3317 3314 3347 3355 3365 3368 3378 3372 3382 3379 3385 3385 3385 3388 3390 3384 3388 3398 3414 3427 3441 3442 3454 3458 3460 3466 3473 3475 3470 3459 3447 3446 3434 3430 3426 3414 3411 3418 3426 3438 3459 3459 3478 3493 3506 3513 3531 3546 3577 3573 3591 3603 3611 3626 3652 3661 3687 3688 3711 3721 3725 3733 3742 3744 3753 3757 3767 3775 3789 3803 3821 3825 3851 3850 3874 3874 3872 3873 3875 3877 3875 3882 3888 3888 3894 3897 3911 3916 3930 3934 3938 3946 3968 3974 3997 4002 4036 4036 4059 4073 4097 4108 4137 4146 4184 4182 4203 4211 4226 4249 4290 4294 4324 4321 4343 4357 4358 4368 4373 4364 4365 4378 4394 4404 4433 4430 4447 4452 4459 4465 4486 4483 4477 4478 4479 4478 4492 4488 4500 4495 4481 4481 4478 4470 4476 4477 4477 4483 4475 4473 4467 4472 4469 4467 4461 4452 4437 4434 4418 4410 4393 4404 4401 4389 4391 4395 4401 4400 4390 4393 4390 4391 4394 4401 4410 4413 4413 4413 4418 4413 4407 4412 4408 4411 4422 4430 4443 4452 4465 4477 4503 4514 4544 4546 4580 4586 4590 4594 4603 4607 4620 4620 4636 4637 4631 4635 4638 4631 4621 4626 4628 4631 4648 4646 4643 4639 4615 4622 4617 4611 4619 4615
1740 1741 1753 1748 1748 1764 1782 1786 1797 1809 1823 1812 1799 1807 1813 1811 1813 1819 1833 1833 1824 1838 1838 1849 1858 1860 1860 1869 1876 1887 1894 1900 1904 1898 1894 1894 1894 1897 1899 1899 1898 1904 1915 1915 1912 1924 1938 1925 1915 1922 1934 1932 1923 1924 1917 1918 1912 1910 1911 1907 1905 1908 1915 1902 1890 1893 1901 1896 1898 1895 1896 1901 1905 1906 1909 1921 1926 1953 1966 1982 1990 2044 2093 2116 2132 2177 2209 2223 2239 2273 2299 2318 2317 2358 2380 2385 2396 2391 2389 2407 2408 2441 2467 2481 2490 2508 2522 2505 2501 2505 2505 2506 2510 2526 2542 2534 2529 2541 2557 2551 2548 2542 2542 2548 2557 2566 2582 2591 2603 2626 2649 2654 2659 2689 2711 2712 2717 2735 2746 2754 2759 2779 2793 2797 2794 2809 2814 2831 2836 2858 2874 2891 2906 2918 2934 2922 2915 2929 2938 2940 2939 2944 2954 2943 2937 2926 2913 2918 2929 2930 2938 2931 2934 2934 2941 2948 2947 2977 3009 3007 2999 3020 3039 3032 3038 3038 3039 3030 3021 3019 3010 3023 3033 3041 3050 3073 3090 3114 3138 3151 3166 3198 3224 3217 3201 3225 3231 3250 3267 3279 3297 3287 3286 3308 3337 3330 3333 3348 3361 3360 3363 3376 3389 3386 3388 3382 3377 3374 3373 3363 3354 3353 3351 3362 3371 3361 3361 3352 3349 3332 3331 3328 3329 3324 3321 3303 3283 3273 3270 3266 3258 3274 3280 3289 3300 3294 3286 3282 3284 3284 3282 3282 3287 3283 3284 3280 3279 3279 3271 3266 3260 3261 3269 3267 3272 3265 3262 3258 3256 3253 3242 3245 3243 3251 3254 3262 3264 3266 3272 3290 3314 3314 3311 3344 3374 3380 3391 3394 3401 3395 3383 3390 3392 3392 3390 3391 3387 3401 3408 3430 3450 3449 3453 3455 3453 3466 3486 3489 3503 3487 3473 3462 3445 3449 3451 3438 3418 3421 3429 3436 3449 3461 3467 3488 3501 3517 3530 3548 3570 3579 3580 3605 3624 3630 3641 3670 3700 3695 3690 3712 3723 3741 3756 3760 3769 3773 3779 3791 3811 3818 3829 3844 3857 3860 3851 3870 3877 3877 3879 3882 3893 3892 3899 3899 3901 3904 3902 3919 3932 3941 3949 3954 3961 3973 3979 4003 4023 4040 4046 4072 4096 4107 4118 4149 4172 4181 4180 4205 4221 4242 4264 4299 4333 4327 4312 4341 4353 4367 4382 4379 4381 4384 4393 4414 4437 4446 4447 4463 4477 4479 4479 4490 4499 4491 4489 4484 4487 4483 4475 4484 4483 4473 4472 4464 4454 4465 4470 4474 4487 4471 4465 4460 4464 4460 4458 4450 4433 4434 4434 4418 4396 4402 4414 4401 4381 4386 4391 4390 4388 4387 4388 4383 4375 4381 4382 4394 4398 4399 4395 4400 4398 4404 4415 4411 4420 4424 4427 4443 4460 4462 4467 4492 4520 4526 4526 4557 4578 4585 4590 4600 4611 4613 4611 4622 4638 4629 4622 4627 4624 4619 4617 4619 4618 4637 4645 4643 4645 4626 4629 4618 4620 4622 4627
1742 1744 1744 1751 1760 1776 1776 1797 1807 1822 1811 1811 1811 1804 1801 1803 1801 1805 1817 1835 1835 1834 1833 1842 1842 1852 1856 1862 1867 1885 1885 1900 1896 1897 1898 1896 1897 1900 1901 1903 1905 1908 1907 1917 1915 1923 1913 1913 1913 1907 1914 1924 1925 1916 1912 1909 1898 1891 1897 1895 1895 1899 1890 1884 1884 1880 1879 1877 1883 1887 1893 1902 1898 1902 1905 1910 1925 1953 1951 1962 1981 2036 2052 2109 2136 2178 2184 2223 2246 2287 2292 2326 2339 2361 2360 2386 2388 2398 2408 2421 2423 2442 2455 2491 2499 2511 2501 2499 2507 2510 2506 2505 2515 2527 2523 2523 2531 2542 2538 2547 2547 2537 2540 2538 2547 2563 2570 2592 2613 2637 2638 2660 2671 2697 2698 2725 2736 2747 2747 2760 2772 2785 2793 2812 2812 2825 2826 2838 2852 2873 2881 2915 2921 2942 2934 2940 2946 2950 2954 2968 2962 2962 2959 2963 2962 2948 2945 2936 2934 2944 2947 2952 2955 2959 2963 2970 2978 2999 3002 3025 3030 3037 3036 3051 3055 3062 3053 3041 3045 3040 3032 3027 3028 3052 3061 3091 3099 3131 3141 3172 3192 3217 3212 3228 3234 3236 3240 3263 3270 3296 3289 3294 3309 3323 3323 3338 3350 3361 3362 3369 3380 3394 3397 3404 3410 3407 3405 3404 3395 3382 3387 3380 3381 3390 3384 3387 3384 3372 3361 3342 3344 3342 3344 3342 3337 3323 3318 3296 3294 3297 3303 3313 3310 3318 3314 3321 3316 3311 3314 3317 3309 3306 3304 3306 3307 3306 3307 3303 3299 3290 3284 3276 3279 3281 3286 3286 3283 3276 3274 3269 3261 3260 3258 3262 3265 3271 3269 3268 3278 3301 3299 3314 3330 3346 3357 3393 3401 3409 3408 3417 3416 3403 3402 3402 3399 3400 3408 3424 3428 3451 3445 3455 3462 3463 3463 3468 3478 3495 3495 3504 3502 3483 3480 3469 3464 3458 3447 3429 3426 3441 3452 3471 3481 3507 3509 3532 3540 3563 3568 3590 3602 3627 3626 3644 3660 3688 3684 3705 3722 3727 3735 3762 3760 3776 3782 3793 3798 3809 3821 3845 3853 3872 3868 3881 3878 3879 3875 3880 3877 3882 3894 3903 3911 3909 3913 3922 3921 3931 3937 3956 3961 3970 3972 3985 3987 4016 4025 4057 4063 4087 4093 4118 4136 4169 4167 4188 4203 4218 4230 4258 4274 4309 4310 4341 4348 4357 4354 4375 4375 4381 4390 4397 4406 4433 4438 4467 4470 4481 4483 4501 4497 4496 4499 4502 4496 4483 4484 4481 4481 4478 4472 4459 4458 4455 4462 4463 4462 4464 4463 4457 4451 4445 4449 4451 4453 4451 4445 4434 4431 4427 4421 4405 4408 4411 4402 4382 4381 4380 4385 4382 4379 4381 4377 4374 4377 4386 4387 4391 4390 4391 4393 4396 4395 4404 4412 4427 4431 4445 4448 4459 4461 4478 4492 4517 4532 4547 4556 4584 4591 4599 4598 4611 4607 4606 4611 4626 4625 4624 4618 4616 4617 4615 4621 4640 4639 4642 4631 4616 4616 4606 4616 4624 4631
1742 1740 1743 1751 1763 1771 1783 1796 1828 1817 1815 1810 1807 1803 1800 1795 1786 1803 1818 1824 1840 1833 1835 1838 1839 1848 1854 1859 1861 1872 1881 1890 1895 1898 1896 1900 1900 1904 1907 1908 1911 1910 1908 1910 1908 1910 1906 1905 1894 1904 1913 1920 1926 1913 1901 1894 1878 1887 1891 1884 1875 1878 1873 1867 1859 1864 1870 1865 1870 1876 1885 1889 1894 1897 1903 1916 1931 1949 1963 1961 1960 2023 2074 2115 2166 2180 2206 2230 2266 2290 2317 2338 2371 2367 2379 2384 2390 2408 2419 2433 2442 2455 2480 2497 2528 2510 2504 2498 2499 2505 2509 2510 2524 2525 2532 2523 2519 2530 2535 2541 2550 2537 2537 2537 2545 2553 2570 2593 2643 2637 2654 2658 2679 2690 2711 2729 2764 2756 2764 2774 2800 2802 2817 2819 2819 2830 2848 2858 2883 2886 2901 2922 2954 2946 2949 2952 2963 2974 2984 2984 2983 2977 2975 2978 2986 2972 2959 2955 2946 2959 2964 2968 2974 2977 2989 2994 3003 3019 3040 3044 3052 3053 3059 3063 3071 3073 3073 3065 3062 3053 3040 3036 3026 3052 3071 3096 3126 3142 3172 3192 3242 3229 3237 3241 3251 3251 3263 3275 3293 3296 3300 3304 3322 3333 3348 3351 3364 3372 3386 3389 3397 3411 3428 3429 3440 3430 3423 3419 3418 3414 3413 3407 3402 3411 3411 3410 3407 3390 3372 3364 3346 3359 3362 3360 3356 3343 3333 3319 3300 3323 3333 3341 3353 3346 3339 3340 3333 3340 3344 3341 3331 3330 3324 3326 3329 3333 3335 3329 3327 3315 3302 3302 3301 3305 3311 3304 3299 3293 3290 3281 3261 3268 3268 3276 3284 3285 3285 3282 3281 3303 3312 3329 3349 3360 3379 3397 3429 3418 3416 3426 3443 3426 3422 3413 3405 3417 3420 3436 3453 3461 3467 3469 3480 3471 3468 3477 3496 3493 3497 3506 3518 3501 3496 3489 3485 3470 3453 3440 3419 3450 3470 3487 3500 3517 3532 3546 3565 3574 3589 3601 3621 3635 3656 3662 3684 3689 3702 3723 3759 3750 3764 3767 3779 3788 3803 3809 3823 3832 3854 3864 3886 3884 3891 3893 3897 3896 3892 3889 3872 3895 3912 3921 3939 3927 3925 3930 3933 3948 3960 3969 3986 3983 3986 3989 3987 4022 4049 4066 4085 4100 4124 4140 4164 4178 4195 4210 4236 4249 4266 4285 4310 4317 4329 4347 4362 4366 4373 4381 4392 4393 4400 4408 4415 4442 4460 4478 4496 4499 4506 4513 4514 4515 4521 4510 4501 4494 4486 4487 4478 4483 4476 4462 4436 4456 4460 4463 4468 4462 4462 4445 4415 4432 4436 4441 4446 4444 4440 4434 4432 4425 4420 4420 4421 4415 4403 4391 4384 4386 4387 4378 4368 4369 4366 4371 4376 4384 4391 4388 4383 4389 4390 4389 4382 4393 4402 4419 4433 4447 4461 4458 4449 4481 4507 4525 4546 4553 4568 4582 4603 4595 4595 4598 4600 4601 4604 4613 4612 4613 4610 4615 4613 4613 4615 4632 4657 4636 4622 4607 4597 4603 4608 4623 4643
1735 1733 1741 1748 1749 1762 1766 1778 1783 1804 1810 1807 1807 1802 1799 1794 1798 1804 1795 1805 1813 1826 1832 1837 1842 1849 1851 1859 1860 1863 1871 1885 1890 1907 1909 1910 1910 1912 1910 1912 1911 1915 1915 1907 1908 1903 1908 1908 1909 1905 1910 1918 1913 1912 1903 1889 1893 1890 1886 1878 1877 1866 1859 1853 1853 1848 1843 1844 1854 1863 1866 1878 1882 1889 1903 1920 1921 1950 1952 1962 1984 2025 2044 2113 2116 2172 2194 2228 2239 2293 2308 2339 2337 2358 2371 2382 2400 2426 2430 2450 2445 2458 2469 2492 2486 2500 2503 2491 2497 2502 2503 2505 2510 2520 2520 2518 2526 2525 2530 2532 2530 2525 2529 2528 2529 2535 2546 2569 2577 2617 2630 2642 2654 2675 2691 2718 2721 2751 2766 2774 2783 2808 2817 2831 2828 2830 2840 2864 2862 2888 2903 2921 2918 2940 2949 2957 2975 2999 2998 3004 3000 2989 2991 2989 2994 2995 2988 2981 2981 2984 2978 2985 2984 2986 2996 3016 3019 3037 3049 3061 3062 3067 3067 3073 3077 3088 3084 3086 3080 3071 3062 3053 3059 3059 3067 3099 3107 3142 3158 3184 3186 3220 3236 3251 3250 3255 3267 3283 3278 3295 3294 3301 3315 3340 3340 3356 3363 3379 3393 3405 3414 3425 3432 3446 3445 3452 3446 3434 3440 3443 3436 3433 3438 3442 3436 3438 3425 3409 3407 3398 3397 3389 3384 3383 3375 3362 3365 3349 3361 3364 3356 3366 3364 3375 3374 3370 3373 3372 3369 3372 3364 3360 3353 3345 3352 3362 3356 3353 3351 3344 3337 3332 3328 3327 3324 3322 3318 3309 3307 3304 3299 3283 3286 3290 3289 3302 3298 3294 3306 3319 3318 3341 3341 3367 3368 3390 3394 3420 3425 3430 3432 3439 3438 3425 3436 3443 3440 3449 3451 3474 3472 3477 3473 3473 3475 3479 3478 3486 3497 3507 3506 3508 3517 3508 3501 3486 3481 3461 3473 3470 3477 3507 3506 3529 3537 3555 3557 3579 3588 3606 3611 3639 3648 3667 3667 3685 3697 3726 3725 3752 3761 3766 3777 3795 3802 3818 3824 3845 3853 3873 3874 3888 3900 3903 3910 3917 3919 3913 3915 3917 3916 3932 3929 3938 3943 3940 3952 3971 3967 3977 3982 3990 3997 3999 4015 4038 4044 4075 4080 4106 4124 4155 4154 4187 4196 4224 4238 4278 4286 4307 4298 4320 4331 4356 4355 4372 4377 4387 4389 4400 4413 4421 4435 4463 4465 4492 4490 4515 4520 4532 4527 4529 4526 4519 4522 4508 4505 4503 4501 4501 4491 4478 4480 4475 4464 4462 4460 4454 4455 4448 4452 4434 4433 4434 4437 4442 4442 4431 4431 4422 4430 4435 4430 4428 4418 4397 4399 4396 4385 4378 4376 4364 4369 4371 4372 4386 4383 4389 4387 4393 4390 4389 4388 4387 4397 4417 4424 4449 4455 4464 4472 4492 4496 4530 4528 4553 4561 4574 4570 4586 4586 4588 4592 4597 4601 4612 4608 4606 4615 4622 4615 4611 4611 4618 4613 4624 4617 4596 4605 4602 4604 4617 4626
1731 1730 1744 1743 1743 1753 1761 1769 1770 1788 1803 1804 1805 1800 1796 1797 1797 1796 1788 1798 1803 1816 1826 1837 1848 1851 1857 1862 1865 1868 1876 1882 1888 1906 1924 1922 1923 1921 1918 1913 1913 1917 1928 1917 1914 1910 1914 1913 1918 1915 1926 1916 1909 1902 1885 1889 1893 1894 1900 1886 1874 1858 1843 1842 1840 1832 1824 1832 1842 1847 1855 1869 1879 1889 1909 1912 1911 1942 1968 1972 1986 2031 2080 2101 2105 2167 2211 2222 2230 2283 2334 2340 2337 2362 2375 2393 2413 2431 2457 2455 2455 2471 2485 2485 2475 2487 2495 2490 2494 2499 2509 2507 2509 2515 2518 2524 2532 2536 2545 2532 2529 2520 2513 2519 2518 2525 2538 2550 2554 2591 2618 2634 2646 2670 2693 2699 2704 2741 2775 2781 2788 2810 2829 2830 2834 2836 2850 2854 2850 2883 2921 2916 2911 2932 2947 2973 2997 3011 3027 3025 3023 3014 3005 3014 3018 3009 2992 2999 3001 3000 3000 3002 3002 3009 3010 3027 3037 3065 3098 3091 3083 3083 3076 3083 3089 3094 3093 3094 3090 3081 3065 3073 3084 3085 3085 3105 3117 3147 3183 3174 3169 3206 3233 3248 3258 3268 3279 3277 3271 3286 3289 3308 3321 3338 3344 3362 3369 3397 3425 3434 3443 3452 3460 3464 3457 3466 3460 3464 3463 3460 3453 3456 3464 3462 3464 3455 3444 3432 3414 3419 3432 3417 3419 3404 3396 3390 3393 3390 3401 3395 3395 3394 3383 3397 3398 3408 3412 3410 3402 3398 3383 3381 3377 3377 3379 3381 3380 3377 3373 3359 3348 3350 3352 3348 3346 3337 3333 3323 3316 3320 3322 3313 3312 3306 3299 3309 3313 3315 3326 3330 3332 3343 3346 3361 3366 3383 3389 3409 3421 3435 3443 3445 3448 3447 3456 3455 3463 3462 3463 3475 3487 3482 3475 3474 3471 3477 3481 3489 3501 3507 3512 3519 3537 3523 3516 3504 3492 3494 3509 3504 3513 3523 3520 3542 3564 3563 3562 3582 3603 3609 3613 3641 3667 3662 3661 3681 3696 3716 3720 3750 3767 3773 3784 3799 3816 3828 3833 3853 3871 3875 3881 3899 3925 3925 3929 3941 3951 3943 3940 3940 3944 3944 3935 3948 3956 3964 3974 3986 3989 3999 4003 4009 4013 4027 4040 4059 4076 4088 4091 4124 4153 4156 4152 4186 4209 4237 4257 4293 4325 4315 4302 4324 4339 4359 4366 4379 4388 4395 4396 4416 4441 4445 4458 4474 4493 4496 4494 4517 4539 4542 4541 4541 4543 4541 4540 4522 4508 4513 4515 4510 4510 4497 4493 4484 4483 4470 4467 4457 4450 4459 4467 4455 4449 4443 4436 4442 4449 4434 4432 4426 4434 4434 4437 4431 4426 4408 4403 4391 4382 4375 4376 4371 4376 4367 4367 4373 4382 4376 4375 4384 4398 4390 4389 4398 4404 4418 4430 4451 4474 4471 4473 4493 4514 4522 4525 4549 4574 4564 4553 4563 4567 4585 4590 4594 4595 4604 4610 4611 4621 4620 4617 4612 4602 4603 4598 4599 4592 4597 4602 4600 4602 4610 4618
1710 1713 1725 1740 1746 1747 1754 1768 1765 1778 1783 1803 1799 1797 1799 1803 1798 1797 1792 1796 1795 1812 1814 1837 1839 1852 1858 1868 1870 1869 1873 1882 1889 1908 1915 1933 1935 1931 1923 1909 1911 1913 1912 1919 1914 1909 1911 1915 1909 1912 1912 1911 1918 1905 1900 1890 1889 1893 1892 1892 1879 1849 1847 1833 1828 1817 1823 1821 1819 1829 1845 1865 1864 1881 1887 1908 1914 1940 1944 1975 1992 2033 2050 2107 2134 2180 2177 2221 2230 2277 2291 2352 2367 2379 2380 2403 2408 2431 2440 2458 2472 2486 2479 2489 2483 2479 2483 2483 2486 2494 2499 2508 2511 2515 2518 2528 2533 2544 2532 2522 2523 2515 2517 2517 2511 2512 2522 2539 2550 2578 2589 2630 2636 2666 2665 2683 2702 2734 2747 2790 2798 2818 2812 2827 2829 2832 2840 2853 2855 2876 2883 2912 2921 2930 2950 2993 2999 3024 3027 3047 3046 3040 3042 3044 3036 3031 3030 3024 3022 3017 3020 3024 3029 3041 3039 3046 3060 3090 3095 3124 3121 3106 3105 3095 3096 3108 3104 3107 3108 3101 3100 3091 3098 3113 3112 3120 3124 3146 3147 3162 3178 3205 3213 3250 3261 3283 3277 3277 3285 3292 3300 3321 3323 3349 3356 3382 3390 3418 3428 3463 3472 3480 3484 3494 3497 3496 3496 3502 3493 3484 3479 3476 3476 3481 3480 3476 3474 3461 3450 3435 3435 3431 3431 3421 3419 3410 3419 3419 3423 3421 3427 3432 3431 3432 3437 3453 3451 3456 3448 3437 3423 3406 3410 3408 3412 3405 3404 3404 3390 3372 3376 3369 3368 3370 3359 3347 3342 3336 3340 3339 3339 3338 3335 3326 3325 3325 3326 3328 3333 3343 3348 3356 3358 3366 3369 3388 3388 3408 3419 3449 3448 3450 3453 3459 3459 3460 3467 3475 3470 3476 3479 3491 3487 3480 3479 3478 3478 3490 3495 3508 3511 3522 3522 3531 3534 3524 3524 3516 3520 3527 3539 3553 3552 3557 3560 3574 3576 3585 3596 3614 3628 3647 3644 3655 3666 3684 3696 3724 3736 3761 3762 3777 3785 3801 3817 3846 3848 3863 3864 3878 3890 3905 3917 3944 3955 3970 3964 3969 3962 3959 3962 3965 3967 3966 3973 3987 3992 4013 4016 4030 4032 4032 4038 4057 4059 4083 4085 4112 4121 4148 4144 4166 4176 4199 4214 4261 4279 4313 4309 4326 4332 4338 4348 4377 4377 4392 4396 4412 4412 4427 4440 4463 4473 4485 4490 4507 4513 4523 4533 4557 4559 4554 4557 4563 4552 4534 4537 4528 4523 4515 4515 4507 4501 4485 4484 4470 4470 4457 4466 4472 4467 4472 4466 4454 4451 4442 4431 4426 4423 4418 4422 4433 4432 4434 4423 4407 4401 4385 4381 4366 4369 4368 4364 4354 4358 4359 4358 4361 4365 4373 4377 4384 4398 4413 4414 4424 4435 4452 4457 4473 4478 4496 4497 4519 4528 4546 4545 4558 4551 4548 4567 4595 4595 4594 4595 4600 4608 4610 4613 4621 4624 4619 4607 4596 4592 4584 4592 4599 4593 4596 4599 4606 4611
1688 1704 1719 1731 1756 1748 1759 1757 1756 1771 1783 1791 1795 1793 1794 1795 1797 1790 1781 1787 1785 1800 1806 1826 1841 1852 1864 1873 1888 1875 1876 1883 1891 1910 1931 1937 1955 1935 1929 1917 1907 1905 1904 1905 1903 1905 1906 1905 1897 1905 1908 1913 1931 1908 1896 1890 1889 1888 1891 1880 1877 1848 1832 1827 1819 1811 1814 1809 1804 1827 1846 1851 1855 1867 1882 1895 1902 1933 1952 1974 1995 2035 2074 2113 2172 2183 2205 2214 2212 2267 2307 2348 2403 2389 2402 2414 2423 2443 2459 2471 2490 2486 2488 2487 2480 2486 2496 2487 2475 2491 2501 2509 2513 2519 2521 2531 2544 2536 2530 2522 2513 2511 2508 2508 2502 2511 2519 2531 2546 2572 2597 2614 2633 2652 2665 2681 2699 2731 2760 2781 2812 2810 2816 2822 2829 2836 2844 2847 2841 2871 2895 2911 2923 2940 2968 2998 3035 3033 3040 3054 3072 3065 3062 3064 3065 3052 3049 3050 3057 3042 3041 3044 3054 3060 3070 3080 3096 3110 3129 3143 3158 3139 3137 3122 3108 3117 3115 3121 3132 3122 3118 3118 3126 3125 3131 3135 3148 3155 3164 3164 3163 3201 3230 3251 3279 3284 3291 3290 3295 3304 3316 3328 3333 3356 3372 3392 3416 3438 3464 3488 3523 3516 3522 3532 3539 3532 3530 3529 3527 3509 3494 3492 3496 3497 3501 3495 3497 3478 3462 3460 3462 3451 3442 3439 3428 3443 3453 3458 3460 3460 3457 3464 3467 3473 3480 3491 3497 3496 3487 3474 3449 3447 3446 3449 3458 3441 3431 3424 3407 3401 3390 3389 3387 3380 3369 3360 3342 3351 3355 3358 3364 3357 3356 3348 3339 3345 3352 3348 3350 3359 3367 3374 3379 3375 3376 3388 3393 3412 3430 3450 3475 3463 3463 3464 3472 3468 3477 3474 3469 3477 3486 3491 3491 3489 3486 3483 3474 3493 3504 3513 3516 3524 3526 3533 3546 3541 3543 3545 3548 3557 3569 3575 3585 3588 3590 3590 3581 3605 3623 3634 3648 3652 3662 3662 3661 3692 3718 3740 3764 3774 3793 3793 3795 3818 3840 3852 3868 3875 3882 3891 3907 3921 3938 3957 3984 3981 3988 3980 3970 3979 3985 3991 3996 4000 4007 4012 4013 4030 4050 4057 4080 4065 4062 4075 4085 4096 4105 4123 4148 4155 4172 4178 4189 4216 4247 4282 4333 4331 4340 4342 4339 4355 4375 4386 4402 4405 4415 4418 4424 4449 4475 4485 4506 4507 4513 4524 4529 4543 4561 4569 4589 4574 4573 4569 4568 4553 4549 4539 4542 4525 4524 4511 4503 4494 4489 4479 4471 4468 4471 4471 4475 4472 4471 4461 4462 4442 4423 4414 4401 4404 4407 4417 4429 4422 4416 4399 4386 4378 4372 4366 4363 4362 4359 4352 4344 4346 4346 4350 4344 4363 4377 4384 4400 4415 4431 4436 4460 4462 4474 4471 4471 4490 4501 4517 4536 4541 4551 4543 4527 4551 4573 4591 4625 4599 4597 4604 4627 4613 4612 4618 4635 4611 4597 4588 4587 4585 4590 4590 4586 4590 4595 4601 4610
1681 1696 1695 1709 1715 1731 1742 1745 1757 1769 1772 1783 1782 1788 1789 1786 1790 1788 1788 1787 1791 1798 1801 1821 1828 1852 1859 1872 1868 1870 1880 1886 1893 1912 1915 1932 1927 1927 1936 1926 1914 1899 1895 1894 1897 1902 1905 1904 1904 1904 1903 1905 1904 1902 1899 1885 1884 1881 1875 1863 1858 1835 1838 1824 1812 1796 1798 1799 1810 1830 1829 1838 1842 1852 1864 1888 1903 1939 1947 1977 1990 2041 2053 2100 2115 2178 2192 2221 2235 2274 2281 2333 2332 2375 2404 2430 2437 2459 2464 2479 2473 2480 2482 2491 2492 2489 2493 2494 2495 2495 2498 2516 2514 2528 2527 2531 2525 2528 2529 2525 2519 2510 2509 2508 2511 2514 2514 2523 2536 2568 2576 2597 2609 2646 2654 2677 2689 2731 2737 2764 2769 2795 2804 2816 2824 2839 2843 2850 2857 2873 2881 2914 2915 2942 2957 2999 3000 3033 3045 3057 3068 3089 3089 3088 3076 3065 3071 3071 3060 3055 3056 3059 3066 3076 3090 3109 3113 3127 3137 3163 3156 3156 3161 3149 3148 3137 3132 3131 3133 3137 3138 3137 3128 3130 3133 3141 3146 3164 3161 3170 3182 3207 3209 3246 3253 3284 3294 3300 3309 3315 3325 3344 3346 3371 3375 3401 3412 3455 3466 3502 3508 3541 3558 3576 3570 3564 3563 3557 3548 3531 3522 3505 3510 3512 3509 3508 3504 3494 3494 3481 3477 3471 3471 3467 3475 3481 3486 3503 3499 3504 3500 3503 3507 3515 3526 3535 3542 3547 3542 3524 3516 3490 3488 3486 3478 3470 3465 3455 3450 3437 3426 3413 3407 3397 3399 3383 3386 3372 3372 3375 3371 3371 3372 3374 3372 3366 3362 3365 3368 3376 3382 3394 3383 3379 3387 3397 3397 3420 3423 3449 3444 3464 3465 3464 3465 3466 3473 3477 3480 3478 3485 3496 3497 3499 3499 3497 3501 3505 3507 3526 3524 3534 3528 3530 3538 3554 3565 3575 3575 3586 3590 3596 3604 3622 3620 3618 3621 3634 3632 3654 3646 3653 3661 3673 3685 3707 3719 3757 3755 3779 3793 3809 3816 3836 3836 3857 3862 3888 3891 3899 3910 3934 3942 3964 3964 3984 3995 3994 4003 4003 4006 4020 4019 4034 4034 4041 4035 4044 4054 4070 4074 4089 4092 4098 4097 4112 4116 4127 4132 4152 4164 4185 4199 4232 4248 4289 4291 4339 4350 4363 4363 4371 4373 4390 4393 4414 4413 4421 4441 4471 4473 4498 4503 4527 4533 4547 4547 4561 4562 4571 4573 4583 4584 4572 4572 4562 4554 4537 4535 4521 4521 4511 4510 4500 4498 4488 4486 4474 4475 4469 4470 4471 4468 4457 4456 4444 4430 4407 4405 4393 4397 4402 4400 4412 4406 4390 4391 4369 4369 4363 4363 4358 4356 4351 4349 4338 4343 4350 4349 4358 4361 4375 4388 4419 4420 4431 4439 4464 4464 4467 4479 4492 4497 4514 4514 4533 4536 4538 4546 4559 4558 4574 4570 4580 4592 4594 4594 4604 4600 4604 4595 4593 4592 4575 4582 4580 4580 4586 4583 4584 4587 4595 4598
1661 1676 1688 1695 1703 1723 1736 1746 1758 1772 1780 1779 1776 1785 1788 1788 1793 1786 1782 1790 1801 1801 1803 1822 1834 1854 1871 1868 1866 1874 1878 1889 1901 1915 1926 1924 1918 1925 1936 1918 1905 1893 1880 1887 1889 1898 1911 1908 1905 1907 1907 1905 1903 1895 1880 1878 1877 1874 1870 1856 1844 1827 1818 1804 1799 1784 1781 1790 1799 1821 1845 1838 1835 1854 1864 1889 1904 1940 1973 1980 1991 2034 2077 2095 2108 2162 2200 2219 2241 2275 2308 2319 2315 2370 2409 2437 2460 2475 2496 2481 2474 2473 2469 2488 2501 2501 2509 2503 2496 2502 2509 2513 2514 2527 2539 2528 2520 2523 2519 2518 2513 2510 2507 2512 2517 2516 2520 2526 2536 2559 2593 2594 2596 2636 2663 2677 2683 2725 2757 2759 2757 2782 2795 2811 2827 2842 2857 2858 2861 2879 2898 2909 2912 2940 2967 2989 3000 3030 3057 3071 3088 3099 3109 3094 3090 3083 3085 3074 3068 3062 3054 3070 3088 3104 3123 3135 3148 3156 3164 3176 3176 3177 3181 3177 3172 3162 3155 3150 3150 3147 3149 3140 3128 3133 3137 3148 3151 3164 3165 3177 3190 3209 3220 3243 3255 3285 3313 3320 3330 3336 3347 3352 3354 3376 3397 3412 3421 3459 3494 3510 3527 3562 3595 3607 3621 3609 3594 3582 3577 3550 3528 3526 3531 3526 3521 3520 3515 3510 3505 3495 3495 3488 3487 3493 3512 3518 3534 3537 3538 3539 3535 3543 3555 3568 3587 3594 3607 3601 3600 3577 3563 3542 3530 3521 3511 3500 3480 3478 3477 3462 3447 3438 3431 3427 3431 3418 3421 3404 3399 3392 3385 3384 3381 3390 3395 3383 3378 3377 3380 3393 3409 3402 3395 3394 3395 3398 3397 3416 3432 3435 3433 3452 3457 3463 3467 3472 3477 3482 3488 3489 3499 3504 3509 3509 3511 3511 3519 3521 3526 3532 3532 3537 3535 3542 3544 3565 3586 3591 3597 3608 3631 3626 3629 3643 3658 3649 3644 3655 3661 3665 3657 3668 3673 3686 3699 3724 3752 3761 3766 3791 3821 3825 3827 3846 3856 3864 3864 3889 3910 3916 3927 3943 3964 3966 3972 3995 4020 4019 4027 4026 4032 4037 4040 4053 4066 4057 4051 4067 4092 4089 4087 4099 4101 4112 4118 4127 4141 4140 4144 4160 4173 4195 4209 4245 4285 4291 4292 4336 4365 4376 4380 4390 4392 4396 4393 4413 4418 4438 4457 4479 4502 4507 4512 4534 4552 4562 4568 4580 4587 4582 4578 4581 4594 4582 4581 4562 4552 4543 4535 4525 4513 4508 4507 4502 4502 4497 4493 4490 4489 4480 4470 4469 4471 4458 4455 4433 4408 4401 4398 4393 4394 4386 4381 4391 4396 4386 4390 4373 4359 4359 4359 4356 4353 4350 4349 4344 4342 4345 4342 4357 4369 4376 4384 4410 4433 4430 4431 4452 4466 4479 4486 4500 4513 4509 4508 4522 4539 4535 4537 4551 4573 4562 4556 4566 4571 4578 4581 4577 4568 4577 4573 4572 4567 4568 4578 4568 4567 4572 4573 4577 4584 4586 4591
1644 1662 1666 1681 1698 1724 1725 1745 1763 1782 1773 1778 1781 1788 1782 1785 1784 1784 1787 1790 1792 1804 1813 1833 1844 1862 1856 1863 1873 1883 1881 1894 1909 1923 1918 1922 1922 1921 1914 1907 1902 1889 1893 1887 1887 1892 1900 1913 1916 1912 1907 1905 1902 1897 1887 1872 1870 1871 1862 1849 1833 1814 1806 1775 1768 1760 1777 1782 1789 1813 1818 1834 1850 1866 1871 1901 1909 1945 1952 1981 1999 2030 2047 2097 2117 2163 2168 2214 2237 2279 2288 2323 2343 2383 2392 2449 2470 2488 2479 2478 2481 2470 2479 2491 2494 2508 2509 2515 2512 2511 2512 2514 2522 2530 2525 2525 2524 2525 2521 2517 2515 2513 2516 2519 2518 2515 2519 2526 2522 2542 2558 2591 2608 2640 2646 2687 2697 2729 2727 2758 2769 2782 2786 2809 2823 2845 2847 2864 2874 2887 2890 2913 2923 2942 2955 2992 3003 3030 3044 3083 3101 3113 3099 3092 3097 3093 3083 3074 3075 3072 3079 3082 3096 3129 3134 3163 3174 3185 3184 3201 3199 3196 3199 3206 3198 3185 3178 3164 3158 3153 3151 3146 3139 3138 3148 3164 3164 3178 3176 3186 3192 3219 3225 3253 3265 3290 3301 3337 3346 3354 3352 3366 3369 3385 3395 3429 3438 3468 3476 3517 3544 3588 3594 3639 3658 3657 3630 3602 3595 3565 3561 3543 3541 3542 3537 3536 3531 3529 3518 3499 3499 3501 3508 3509 3519 3546 3552 3576 3579 3579 3577 3579 3592 3617 3620 3649 3658 3650 3638 3623 3609 3588 3578 3558 3553 3540 3527 3502 3498 3488 3483 3463 3457 3449 3446 3439 3434 3425 3424 3411 3408 3402 3405 3413 3404 3393 3393 3388 3392 3408 3405 3413 3414 3407 3404 3403 3406 3416 3417 3428 3441 3455 3452 3467 3466 3478 3477 3487 3491 3493 3500 3512 3515 3520 3519 3520 3529 3536 3538 3544 3546 3550 3552 3561 3560 3578 3585 3606 3610 3621 3631 3649 3655 3663 3664 3679 3681 3684 3679 3690 3688 3689 3690 3702 3710 3741 3742 3770 3780 3798 3809 3843 3856 3865 3863 3881 3882 3896 3901 3930 3939 3948 3950 3967 3983 4005 4010 4037 4043 4043 4050 4059 4064 4073 4069 4072 4075 4084 4090 4109 4116 4121 4123 4131 4130 4137 4142 4150 4160 4171 4187 4215 4225 4254 4263 4300 4317 4351 4357 4398 4409 4417 4405 4412 4414 4429 4433 4458 4460 4487 4493 4518 4527 4546 4554 4582 4599 4604 4592 4593 4581 4571 4575 4583 4573 4554 4558 4550 4542 4531 4520 4502 4497 4500 4500 4505 4504 4505 4498 4492 4480 4464 4463 4451 4447 4426 4418 4391 4385 4387 4381 4370 4376 4377 4374 4369 4372 4374 4372 4356 4359 4357 4354 4348 4348 4350 4347 4349 4348 4360 4359 4376 4385 4404 4405 4425 4433 4449 4462 4497 4501 4509 4500 4502 4509 4511 4515 4529 4533 4536 4538 4547 4558 4558 4558 4566 4564 4558 4563 4563 4554 4555 4549 4552 4546 4549 4557 4564 4563 4569 4570 4575 4575
1609 1643 1662 1677 1701 1710 1728 1749 1789 1777 1775 1778 1781 1783 1779 1781 1780 1782 1784 1791 1795 1802 1817 1837 1878 1863 1867 1864 1877 1880 1884 1900 1941 1922 1927 1918 1920 1917 1910 1897 1878 1888 1893 1891 1889 1894 1908 1912 1929 1913 1909 1904 1902 1890 1877 1868 1857 1860 1854 1836 1802 1803 1794 1768 1720 1754 1769 1778 1782 1808 1828 1840 1856 1867 1882 1901 1927 1949 1979 1989 2012 2036 2071 2094 2132 2153 2187 2212 2257 2279 2311 2331 2361 2383 2422 2460 2534 2490 2490 2476 2482 2477 2483 2493 2511 2511 2512 2514 2515 2520 2527 2528 2536 2535 2532 2525 2509 2521 2525 2518 2512 2520 2522 2524 2531 2522 2521 2519 2501 2539 2566 2589 2611 2639 2664 2684 2710 2720 2741 2754 2780 2784 2799 2818 2845 2842 2852 2866 2888 2889 2901 2913 2942 2952 2975 2993 3026 3037 3065 3089 3151 3114 3105 3091 3094 3086 3076 3075 3070 3081 3097 3104 3119 3139 3158 3184 3226 3205 3203 3216 3235 3223 3220 3221 3223 3205 3192 3181 3160 3163 3156 3148 3125 3148 3163 3173 3179 3186 3191 3196 3199 3222 3240 3262 3298 3300 3323 3343 3383 3360 3359 3363 3379 3392 3412 3433 3461 3472 3499 3527 3577 3591 3625 3662 3744 3672 3643 3627 3622 3589 3562 3554 3551 3547 3540 3541 3541 3535 3530 3512 3494 3516 3530 3531 3537 3558 3574 3595 3630 3614 3614 3619 3640 3644 3659 3687 3746 3695 3675 3652 3627 3615 3605 3592 3587 3573 3556 3541 3524 3517 3506 3490 3470 3469 3465 3457 3442 3442 3440 3430 3421 3419 3421 3426 3429 3413 3399 3400 3396 3412 3422 3422 3428 3416 3412 3410 3410 3419 3428 3435 3450 3454 3455 3461 3462 3475 3478 3491 3507 3504 3509 3520 3532 3528 3530 3535 3549 3549 3553 3557 3565 3565 3568 3571 3569 3592 3614 3619 3627 3639 3659 3664 3680 3680 3686 3694 3703 3699 3700 3705 3715 3706 3712 3712 3726 3741 3761 3776 3803 3808 3831 3854 3895 3879 3882 3886 3897 3902 3914 3932 3969 3957 3961 3975 3999 4008 4029 4044 4072 4063 4071 4078 4093 4088 4094 4088 4079 4099 4117 4126 4143 4147 4155 4153 4153 4158 4164 4172 4179 4196 4218 4233 4261 4270 4292 4309 4332 4357 4389 4412 4459 4425 4412 4418 4425 4436 4452 4462 4478 4493 4513 4522 4545 4554 4578 4602 4658 4616 4606 4590 4574 4574 4569 4571 4563 4554 4550 4547 4536 4527 4515 4499 4473 4490 4491 4500 4506 4507 4505 4492 4478 4473 4468 4455 4441 4427 4402 4387 4356 4378 4372 4372 4364 4371 4370 4363 4351 4364 4369 4364 4366 4358 4352 4350 4341 4347 4343 4347 4342 4356 4359 4375 4392 4397 4409 4417 4427 4450 4473 4497 4535 4508 4504 4504 4511 4510 4514 4521 4529 4530 4535 4539 4555 4548 4553 4554 4561 4549 4551 4545 4533 4529 4519 4521 4516 4529 4537 4546 4554 4556 4566 4563 4559
1632 1642 1642 1664 1664 1690 1704 1736 1734 1763 1770 1779 1779 1784 1778 1782 1779 1780 1783 1795 1791 1793 1801 1822 1821 1847 1855 1852 1861 1877 1877 1884 1884 1900 1909 1904 1913 1917 1909 1894 1902 1894 1891 1898 1892 1890 1888 1899 1899 1905 1908 1901 1898 1887 1882 1868 1868 1860 1854 1840 1835 1805 1800 1784 1789 1767 1766 1781 1785 1811 1816 1845 1844 1865 1874 1894 1909 1948 1959 1986 1993 2031 2039 2078 2088 2131 2153 2190 2208 2269 2287 2329 2332 2366 2387 2436 2421 2449 2465 2457 2471 2475 2479 2487 2492 2513 2514 2516 2519 2528 2532 2536 2535 2544 2540 2537 2532 2526 2522 2520 2528 2534 2527 2524 2525 2523 2529 2530 2540 2547 2555 2588 2603 2641 2650 2678 2677 2702 2717 2739 2750 2776 2795 2819 2811 2828 2846 2863 2866 2883 2886 2897 2912 2952 2960 2982 2993 3027 3035 3060 3059 3087 3095 3076 3083 3081 3078 3081 3084 3088 3099 3119 3127 3152 3163 3189 3183 3206 3219 3226 3230 3243 3239 3237 3228 3220 3220 3208 3201 3183 3175 3167 3170 3166 3165 3188 3187 3198 3201 3208 3213 3233 3233 3257 3259 3292 3305 3331 3323 3347 3352 3351 3367 3392 3403 3432 3430 3460 3475 3516 3521 3577 3595 3643 3626 3647 3668 3644 3634 3607 3591 3563 3569 3558 3552 3550 3543 3541 3541 3527 3538 3539 3539 3548 3559 3578 3585 3603 3606 3634 3640 3646 3650 3661 3673 3697 3688 3709 3717 3685 3678 3641 3634 3619 3624 3610 3603 3582 3576 3550 3538 3522 3519 3495 3491 3483 3479 3464 3456 3448 3445 3432 3437 3443 3434 3431 3425 3418 3417 3425 3419 3425 3421 3419 3419 3417 3420 3423 3422 3435 3440 3456 3462 3462 3470 3485 3483 3492 3492 3508 3517 3527 3521 3533 3541 3543 3549 3560 3562 3568 3571 3580 3584 3586 3591 3608 3613 3632 3634 3649 3654 3671 3681 3693 3704 3710 3706 3710 3712 3716 3713 3709 3710 3710 3719 3736 3742 3772 3773 3800 3814 3847 3845 3877 3884 3887 3891 3903 3907 3918 3923 3952 3959 3975 3976 3999 4016 4040 4042 4066 4079 4090 4091 4095 4102 4110 4113 4119 4122 4138 4148 4172 4171 4174 4174 4180 4186 4198 4196 4216 4223 4240 4245 4274 4285 4315 4320 4359 4367 4403 4392 4415 4424 4423 4426 4441 4447 4462 4466 4494 4496 4512 4523 4549 4560 4592 4579 4598 4605 4588 4593 4585 4576 4570 4566 4552 4554 4552 4542 4526 4521 4509 4514 4496 4495 4500 4505 4512 4507 4493 4494 4482 4476 4462 4457 4440 4428 4399 4409 4399 4385 4383 4380 4374 4368 4365 4367 4365 4364 4368 4364 4358 4358 4359 4358 4357 4358 4356 4356 4364 4361 4375 4369 4386 4393 4409 4422 4452 4456 4484 4470 4484 4501 4500 4502 4507 4509 4514 4514 4521 4520 4519 4521 4528 4530 4539 4534 4529 4535 4534 4526 4512 4507 4498 4507 4516 4519 4530 4530 4538 4546 4552 4551
1645 1650 1653 1653 1643 1671 1689 1707 1710 1739 1751 1768 1781 1777 1768 1774 1776 1776 1780 1788 1794 1793 1795 1803 1801 1825 1845 1845 1849 1860 1871 1866 1869 1878 1894 1895 1905 1903 1906 1903 1910 1899 1897 1892 1888 1883 1877 1884 1884 1893 1898 1897 1897 1887 1872 1871 1869 1864 1862 1848 1842 1821 1810 1811 1814 1800 1796 1788 1780 1810 1829 1838 1841 1863 1884 1898 1913 1945 1976 1979 1978 2010 2037 2059 2074 2118 2160 2176 2187 2245 2293 2314 2325 2353 2385 2387 2377 2404 2423 2440 2463 2465 2472 2478 2485 2501 2516 2519 2522 2534 2550 2541 2534 2537 2546 2536 2536 2533 2535 2535 2536 2537 2539 2537 2534 2534 2534 2549 2565 2571 2587 2604 2618 2648 2673 2673 2666 2695 2719 2734 2747 2773 2806 2802 2798 2820 2848 2857 2867 2875 2877 2890 2898 2936 2966 2979 2991 3011 3027 3029 3026 3050 3066 3064 3070 3063 3056 3077 3094 3102 3120 3133 3141 3164 3193 3186 3179 3201 3218 3232 3248 3247 3243 3241 3236 3231 3230 3224 3223 3205 3193 3192 3194 3189 3184 3199 3201 3212 3222 3220 3220 3235 3245 3250 3247 3279 3300 3299 3292 3314 3329 3342 3366 3388 3412 3415 3417 3445 3466 3489 3495 3545 3586 3595 3589 3615 3640 3636 3643 3608 3575 3581 3594 3570 3550 3546 3541 3547 3555 3554 3559 3565 3576 3578 3580 3605 3623 3620 3613 3638 3651 3663 3680 3684 3694 3693 3690 3712 3728 3716 3713 3678 3650 3656 3663 3645 3635 3620 3616 3584 3556 3551 3556 3530 3519 3507 3506 3487 3470 3466 3462 3453 3453 3450 3444 3437 3424 3425 3426 3429 3430 3431 3421 3421 3415 3425 3431 3427 3423 3435 3442 3457 3480 3473 3480 3483 3494 3494 3491 3511 3526 3521 3515 3534 3558 3556 3565 3569 3573 3579 3583 3595 3605 3602 3603 3624 3646 3646 3642 3657 3671 3687 3702 3716 3733 3723 3718 3721 3721 3725 3729 3721 3709 3717 3721 3731 3736 3756 3761 3789 3808 3822 3826 3854 3880 3887 3892 3902 3910 3909 3909 3932 3942 3959 3970 4000 4028 4031 4033 4061 4088 4099 4110 4110 4111 4123 4129 4136 4154 4156 4166 4182 4198 4188 4190 4196 4214 4210 4209 4230 4259 4253 4251 4273 4293 4308 4315 4350 4375 4376 4364 4387 4400 4416 4428 4441 4462 4460 4457 4482 4500 4510 4518 4537 4557 4560 4549 4566 4579 4586 4596 4583 4576 4576 4574 4559 4552 4548 4542 4525 4513 4525 4537 4521 4514 4517 4520 4518 4519 4507 4499 4492 4483 4470 4458 4447 4433 4426 4436 4418 4405 4397 4392 4383 4372 4371 4369 4368 4373 4369 4364 4357 4350 4360 4366 4367 4378 4367 4364 4364 4363 4362 4358 4372 4385 4401 4418 4439 4464 4453 4439 4463 4488 4490 4500 4498 4506 4505 4509 4511 4511 4507 4504 4507 4500 4511 4516 4514 4516 4514 4510 4499 4488 4491 4498 4504 4514 4520 4518 4529 4542 4542 4542
1652 1660 1654 1652 1655 1664 1668 1693 1703 1734 1739 1761 1770 1778 1776 1773 1772 1770 1777 1786 1788 1792 1792 1795 1798 1808 1815 1835 1838 1844 1840 1843 1843 1851 1859 1879 1878 1886 1894 1904 1899 1895 1893 1885 1891 1880 1881 1878 1878 1886 1888 1893 1894 1894 1889 1875 1870 1866 1862 1851 1845 1829 1841 1839 1837 1823 1816 1796 1804 1821 1820 1839 1843 1862 1872 1904 1918 1945 1947 1977 1980 1997 2014 2050 2071 2109 2124 2170 2181 2232 2246 2309 2319 2337 2336 2351 2353 2368 2381 2418 2429 2452 2459 2470 2476 2491 2498 2524 2529 2537 2535 2544 2536 2526 2529 2528 2535 2537 2543 2552 2547 2542 2548 2554 2548 2545 2551 2567 2567 2587 2598 2626 2640 2662 2656 2675 2676 2696 2701 2733 2743 2766 2764 2787 2790 2806 2818 2851 2861 2875 2879 2888 2896 2928 2940 2979 2987 3001 2995 3005 3010 3024 3029 3047 3042 3048 3065 3080 3088 3109 3124 3153 3157 3173 3169 3184 3192 3204 3212 3237 3247 3257 3253 3250 3248 3238 3240 3237 3227 3224 3224 3215 3216 3214 3217 3224 3220 3229 3228 3232 3233 3244 3241 3254 3263 3279 3267 3276 3277 3290 3300 3325 3344 3383 3383 3400 3416 3439 3448 3479 3491 3524 3525 3562 3564 3584 3593 3619 3619 3607 3610 3592 3587 3581 3575 3545 3546 3552 3561 3577 3578 3587 3594 3608 3619 3639 3633 3644 3648 3655 3658 3678 3687 3702 3697 3693 3702 3721 3722 3741 3733 3708 3707 3692 3682 3673 3666 3648 3640 3616 3602 3572 3569 3551 3547 3523 3522 3510 3500 3486 3476 3468 3467 3463 3461 3452 3447 3433 3435 3436 3444 3448 3445 3431 3433 3437 3429 3433 3437 3441 3443 3453 3457 3473 3475 3476 3486 3502 3506 3519 3512 3516 3517 3530 3538 3560 3567 3579 3579 3593 3596 3612 3608 3614 3620 3640 3641 3664 3665 3668 3680 3707 3717 3738 3727 3732 3735 3737 3733 3736 3737 3739 3733 3730 3724 3733 3739 3755 3763 3790 3788 3810 3810 3835 3849 3890 3897 3904 3900 3902 3913 3927 3931 3949 3966 4003 4003 4023 4039 4060 4076 4111 4117 4127 4130 4142 4139 4144 4151 4166 4180 4194 4189 4192 4199 4201 4209 4221 4227 4236 4244 4263 4268 4274 4285 4311 4329 4352 4347 4363 4364 4369 4384 4416 4418 4436 4447 4462 4467 4477 4482 4510 4511 4526 4527 4542 4538 4541 4555 4581 4576 4576 4586 4584 4579 4561 4557 4546 4532 4519 4535 4543 4538 4538 4538 4537 4529 4522 4523 4517 4515 4506 4495 4477 4472 4459 4451 4439 4443 4435 4428 4409 4404 4395 4386 4379 4371 4368 4368 4371 4363 4356 4361 4368 4364 4370 4368 4371 4372 4365 4360 4355 4356 4362 4368 4392 4401 4422 4418 4428 4434 4441 4446 4473 4471 4480 4485 4492 4496 4503 4497 4494 4494 4496 4491 4489 4494 4495 4497 4496 4494 4488 4489 4480 4485 4490 4500 4521 4521 4521 4524 4533 4533
1652 1658 1662 1658 1652 1667 1675 1691 1699 1726 1751 1764 1791 1779 1773 1774 1778 1771 1777 1782 1795 1786 1787 1789 1797 1802 1817 1822 1831 1828 1825 1820 1807 1826 1837 1848 1853 1870 1883 1884 1892 1885 1883 1887 1903 1887 1881 1875 1873 1881 1889 1890 1891 1889 1890 1878 1869 1869 1864 1857 1839 1849 1854 1862 1879 1853 1833 1822 1806 1830 1842 1844 1844 1862 1881 1908 1939 1944 1954 1967 1972 2003 2032 2054 2088 2115 2143 2159 2164 2216 2256 2295 2337 2326 2332 2325 2311 2341 2363 2390 2423 2435 2452 2459 2472 2481 2493 2515 2540 2534 2539 2535 2526 2525 2528 2528 2530 2540 2549 2556 2562 2556 2561 2557 2554 2557 2560 2572 2581 2598 2617 2641 2685 2668 2672 2669 2661 2691 2711 2731 2756 2755 2758 2767 2761 2795 2820 2842 2871 2872 2886 2887 2892 2922 2956 2973 3004 2986 2983 2987 2986 3006 3020 3018 3007 3035 3062 3082 3109 3119 3141 3157 3182 3176 3178 3183 3189 3207 3231 3250 3279 3266 3259 3258 3264 3255 3250 3241 3219 3231 3234 3233 3242 3235 3237 3239 3246 3245 3250 3242 3236 3245 3249 3262 3275 3274 3269 3260 3244 3277 3296 3320 3340 3366 3386 3398 3414 3436 3460 3473 3496 3506 3521 3528 3527 3560 3583 3598 3613 3601 3599 3596 3601 3587 3580 3562 3538 3562 3574 3590 3593 3608 3623 3635 3655 3663 3672 3670 3670 3680 3689 3704 3720 3717 3716 3709 3700 3723 3739 3743 3757 3731 3715 3711 3714 3695 3681 3669 3661 3633 3606 3600 3600 3576 3558 3546 3537 3521 3501 3491 3483 3476 3476 3475 3479 3466 3461 3452 3450 3460 3467 3467 3474 3455 3444 3442 3433 3439 3445 3450 3455 3460 3463 3469 3471 3476 3488 3497 3510 3517 3524 3515 3499 3527 3549 3560 3571 3578 3582 3595 3608 3617 3625 3627 3624 3648 3659 3675 3683 3694 3705 3725 3752 3741 3739 3737 3741 3739 3742 3744 3755 3747 3736 3733 3727 3739 3750 3758 3774 3785 3791 3795 3788 3822 3848 3876 3914 3902 3903 3903 3916 3928 3942 3956 3971 3996 4017 4028 4045 4071 4103 4118 4144 4137 4143 4150 4159 4158 4165 4179 4207 4202 4206 4201 4205 4212 4224 4227 4238 4249 4268 4269 4276 4286 4307 4324 4360 4352 4361 4356 4352 4370 4389 4406 4420 4438 4462 4463 4469 4479 4485 4497 4510 4517 4522 4523 4515 4536 4551 4564 4571 4578 4591 4589 4597 4567 4550 4536 4513 4525 4536 4545 4560 4546 4542 4542 4546 4534 4533 4526 4518 4511 4498 4485 4469 4462 4451 4454 4467 4447 4434 4421 4407 4397 4381 4380 4367 4367 4365 4361 4354 4354 4358 4365 4370 4368 4368 4368 4376 4363 4357 4348 4344 4350 4361 4378 4405 4400 4404 4403 4406 4418 4434 4441 4445 4456 4470 4473 4483 4484 4484 4480 4478 4479 4476 4482 4493 4487 4483 4482 4477 4478 4478 4476 4485 4484 4494 4508 4530 4519 4524 4518 4525
1655 1658 1660 1668 1668 1677 1679 1699 1700 1723 1728 1756 1757 1774 1780 1773 1766 1760 1766 1773 1771 1770 1777 1779 1781 1788 1790 1807 1805 1814 1810 1805 1809 1809 1809 1826 1835 1859 1856 1860 1863 1870 1870 1880 1879 1887 1883 1871 1879 1879 1884 1889 1885 1883 1888 1879 1883 1877 1877 1876 1876 1875 1870 1879 1876 1878 1873 1856 1854 1853 1843 1853 1855 1862 1876 1911 1909 1939 1950 1966 1978 2011 2015 2048 2067 2122 2133 2162 2175 2214 2228 2279 2268 2300 2310 2307 2312 2322 2328 2357 2370 2415 2423 2444 2451 2469 2480 2505 2501 2520 2526 2532 2529 2522 2521 2526 2533 2545 2551 2561 2559 2562 2562 2562 2566 2571 2570 2582 2584 2607 2610 2636 2633 2656 2670 2670 2686 2697 2698 2725 2725 2743 2750 2764 2772 2796 2804 2828 2831 2857 2872 2883 2889 2914 2924 2955 2949 2958 2970 2976 2979 2997 2994 3001 3014 3026 3041 3080 3082 3118 3134 3155 3153 3171 3178 3184 3190 3206 3222 3255 3250 3271 3272 3261 3265 3268 3269 3260 3260 3248 3241 3243 3249 3250 3255 3249 3251 3256 3255 3252 3252 3252 3256 3270 3263 3273 3264 3254 3269 3279 3286 3321 3322 3355 3366 3394 3403 3434 3435 3459 3462 3484 3490 3504 3516 3547 3551 3577 3576 3587 3593 3592 3591 3586 3594 3586 3594 3586 3594 3616 3612 3629 3636 3656 3660 3686 3686 3694 3698 3706 3712 3730 3722 3731 3732 3730 3733 3734 3728 3737 3739 3744 3741 3726 3723 3712 3707 3688 3679 3651 3643 3622 3616 3595 3585 3568 3558 3537 3521 3497 3491 3478 3477 3483 3479 3473 3471 3467 3477 3488 3482 3479 3476 3472 3471 3456 3453 3446 3444 3459 3460 3472 3468 3470 3468 3470 3476 3488 3499 3518 3520 3521 3526 3530 3540 3563 3564 3580 3588 3597 3606 3623 3628 3645 3652 3672 3675 3694 3699 3721 3720 3736 3723 3735 3739 3739 3740 3738 3744 3745 3751 3758 3752 3742 3744 3747 3740 3753 3760 3785 3786 3791 3798 3817 3825 3854 3858 3890 3892 3893 3908 3927 3936 3962 3966 3995 4004 4027 4043 4077 4086 4115 4114 4137 4150 4159 4160 4167 4169 4181 4183 4203 4207 4202 4210 4220 4223 4228 4236 4254 4258 4271 4274 4288 4296 4321 4320 4335 4344 4351 4361 4371 4377 4402 4410 4435 4446 4460 4468 4485 4483 4486 4492 4513 4511 4514 4522 4537 4536 4553 4557 4576 4581 4587 4577 4563 4559 4538 4542 4532 4529 4541 4540 4547 4550 4544 4540 4536 4543 4538 4536 4523 4515 4496 4489 4469 4466 4461 4457 4455 4453 4434 4428 4408 4403 4393 4383 4371 4364 4355 4358 4351 4357 4366 4360 4366 4360 4358 4355 4355 4346 4336 4337 4334 4336 4357 4352 4369 4373 4377 4381 4391 4396 4415 4415 4430 4435 4447 4457 4469 4470 4464 4468 4468 4470 4473 4472 4478 4480 4474 4472 4470 4468 4462 4464 4469 4473 4490 4486 4503 4499 4493 4499
1657 1656 1664 1665 1667 1678 1689 1704 1705 1725 1737 1746 1748 1766 1784 1769 1760 1757 1755 1765 1765 1768 1764 1771 1771 1771 1769 1781 1783 1789 1791 1792 1799 1797 1795 1810 1820 1837 1853 1843 1840 1842 1840 1857 1866 1870 1872 1873 1887 1882 1896 1889 1881 1887 1900 1890 1888 1886 1887 1887 1889 1891 1890 1895 1893 1889 1882 1877 1876 1870 1861 1865 1866 1876 1888 1906 1908 1935 1958 1971 1983 2010 2031 2055 2069 2119 2160 2174 2181 2219 2258 2254 2237 2269 2297 2288 2289 2302 2325 2336 2347 2388 2413 2428 2439 2461 2474 2488 2488 2505 2514 2519 2523 2519 2513 2524 2533 2551 2569 2565 2565 2563 2562 2564 2571 2571 2574 2585 2587 2606 2618 2627 2625 2655 2670 2690 2706 2711 2711 2724 2722 2734 2737 2758 2772 2798 2831 2825 2821 2849 2878 2875 2876 2904 2935 2931 2928 2941 2945 2955 2962 2980 2993 3002 3012 3030 3051 3064 3070 3111 3154 3154 3146 3165 3178 3186 3192 3214 3240 3245 3243 3263 3278 3272 3273 3275 3287 3282 3285 3270 3255 3261 3272 3274 3279 3267 3263 3266 3268 3259 3256 3257 3268 3268 3263 3264 3257 3262 3277 3285 3302 3314 3318 3350 3378 3390 3398 3423 3436 3445 3445 3466 3476 3489 3495 3526 3555 3562 3558 3573 3580 3585 3590 3589 3603 3606 3624 3621 3638 3636 3632 3652 3668 3673 3678 3694 3712 3718 3723 3730 3744 3745 3741 3748 3750 3750 3754 3747 3743 3743 3737 3744 3739 3741 3739 3725 3714 3706 3699 3669 3638 3642 3644 3612 3579 3579 3570 3543 3514 3499 3490 3480 3464 3482 3486 3478 3466 3478 3493 3503 3514 3498 3489 3489 3484 3474 3466 3454 3441 3457 3467 3474 3475 3476 3472 3479 3478 3492 3504 3517 3534 3531 3530 3545 3570 3569 3565 3586 3605 3612 3623 3631 3636 3652 3668 3689 3711 3716 3725 3733 3743 3735 3718 3729 3732 3737 3746 3746 3753 3753 3761 3760 3754 3751 3751 3747 3735 3746 3754 3774 3794 3792 3794 3816 3841 3843 3842 3864 3874 3891 3910 3923 3940 3959 3968 3997 4026 4035 4051 4080 4110 4111 4103 4136 4161 4167 4173 4174 4171 4181 4183 4197 4216 4209 4212 4223 4240 4234 4241 4256 4272 4272 4270 4289 4302 4312 4317 4329 4332 4347 4361 4374 4385 4404 4416 4445 4472 4467 4467 4483 4492 4488 4485 4500 4507 4509 4515 4526 4542 4545 4551 4572 4593 4579 4567 4556 4539 4538 4551 4535 4530 4535 4539 4544 4550 4542 4541 4540 4552 4548 4552 4534 4524 4505 4493 4475 4465 4465 4463 4458 4459 4443 4438 4418 4407 4395 4389 4377 4366 4362 4364 4357 4358 4356 4351 4354 4348 4344 4342 4333 4320 4321 4323 4317 4311 4323 4323 4339 4344 4348 4355 4364 4372 4380 4384 4404 4421 4430 4444 4455 4465 4458 4458 4455 4463 4462 4462 4463 4475 4465 4462 4461 4465 4454 4448 4450 4449 4458 4460 4466 4471 4474 4480
1645 1646 1656 1663 1667 1681 1694 1725 1730 1735 1734 1745 1753 1758 1755 1760 1759 1754 1761 1768 1765 1773 1771 1773 1763 1759 1766 1767 1771 1771 1772 1775 1775 1786 1789 1802 1803 1819 1817 1822 1820 1819 1834 1844 1850 1855 1858 1864 1864 1869 1879 1890 1889 1887 1886 1893 1897 1895 1896 1898 1902 1913 1914 1919 1919 1906 1902 1896 1895 1891 1884 1882 1878 1888 1897 1920 1922 1937 1948 1979 1990 2018 2032 2074 2087 2128 2140 2196 2207 2225 2223 2242 2243 2242 2244 2262 2265 2275 2292 2318 2340 2379 2383 2416 2435 2462 2461 2485 2487 2498 2498 2508 2517 2521 2523 2524 2537 2560 2554 2566 2568 2564 2562 2562 2563 2569 2577 2598 2604 2615 2615 2632 2645 2671 2678 2716 2719 2730 2730 2739 2734 2735 2744 2759 2764 2796 2801 2821 2834 2843 2847 2865 2870 2891 2888 2906 2921 2933 2930 2940 2947 2969 2979 3002 3011 3031 3036 3058 3070 3103 3121 3162 3164 3166 3174 3190 3196 3221 3222 3245 3253 3261 3266 3278 3276 3274 3283 3299 3296 3292 3286 3275 3284 3297 3286 3277 3281 3277 3271 3262 3256 3253 3264 3274 3274 3263 3265 3263 3262 3282 3295 3318 3329 3349 3360 3392 3401 3427 3425 3442 3448 3462 3465 3481 3487 3509 3523 3560 3563 3567 3567 3581 3576 3580 3593 3611 3619 3638 3647 3661 3672 3680 3678 3692 3693 3701 3713 3744 3747 3750 3754 3766 3771 3771 3768 3768 3763 3757 3762 3756 3755 3757 3754 3761 3753 3738 3737 3723 3707 3688 3684 3666 3652 3631 3626 3599 3580 3554 3541 3498 3493 3488 3493 3495 3488 3490 3491 3486 3496 3520 3514 3511 3519 3514 3502 3490 3475 3463 3467 3463 3470 3484 3485 3489 3493 3498 3493 3498 3498 3512 3522 3540 3540 3550 3555 3578 3582 3594 3601 3625 3631 3642 3646 3662 3674 3708 3711 3734 3746 3746 3742 3746 3741 3733 3731 3734 3740 3747 3754 3756 3762 3770 3764 3758 3758 3758 3752 3744 3751 3765 3771 3790 3798 3813 3815 3835 3841 3852 3859 3887 3890 3917 3932 3966 3975 4002 4007 4036 4054 4083 4087 4116 4124 4145 4147 4178 4185 4188 4185 4190 4183 4188 4194 4209 4214 4221 4220 4230 4244 4259 4263 4278 4286 4296 4297 4309 4319 4333 4337 4346 4356 4379 4390 4415 4428 4459 4452 4472 4480 4489 4482 4490 4495 4496 4493 4503 4505 4512 4520 4535 4550 4570 4561 4570 4571 4556 4543 4525 4526 4528 4532 4530 4534 4541 4538 4534 4537 4534 4541 4550 4549 4539 4530 4508 4500 4474 4477 4471 4463 4457 4452 4441 4435 4421 4410 4391 4390 4383 4377 4366 4363 4358 4354 4350 4351 4351 4341 4331 4324 4316 4316 4307 4303 4300 4302 4303 4308 4322 4315 4317 4325 4341 4339 4351 4360 4382 4391 4411 4423 4443 4438 4448 4442 4434 4440 4451 4446 4440 4443 4450 4447 4449 4444 4441 4443 4437 4435 4435 4431 4431 4440 4454 4452
1634 1648 1659 1663 1663 1683 1705 1732 1773 1750 1753 1753 1772 1761 1756 1750 1740 1752 1763 1765 1764 1772 1774 1768 1757 1758 1768 1768 1778 1765 1760 1759 1751 1770 1771 1789 1797 1802 1807 1801 1789 1815 1835 1845 1863 1851 1849 1847 1851 1857 1871 1875 1885 1879 1884 1891 1902 1903 1905 1907 1911 1922 1935 1938 1961 1930 1916 1912 1913 1901 1889 1889 1884 1898 1915 1926 1944 1948 1968 1983 2007 2023 2054 2078 2116 2136 2169 2197 2247 2232 2245 2236 2230 2232 2235 2238 2228 2261 2289 2311 2339 2360 2391 2409 2449 2446 2461 2475 2492 2492 2498 2505 2526 2520 2525 2531 2554 2554 2559 2561 2574 2560 2558 2557 2559 2565 2573 2596 2631 2620 2627 2640 2661 2677 2702 2722 2760 2743 2745 2745 2751 2749 2761 2765 2766 2792 2817 2828 2844 2849 2859 2855 2849 2870 2879 2893 2912 2918 2920 2932 2935 2961 2986 3004 3019 3032 3044 3060 3070 3112 3149 3164 3174 3182 3195 3196 3197 3217 3230 3246 3267 3270 3285 3281 3277 3281 3289 3300 3307 3299 3295 3296 3309 3304 3300 3296 3294 3288 3283 3269 3242 3260 3275 3284 3292 3278 3271 3263 3248 3281 3303 3323 3349 3357 3382 3392 3410 3421 3436 3442 3454 3459 3473 3477 3483 3506 3531 3550 3571 3563 3562 3568 3565 3579 3591 3610 3626 3645 3665 3679 3712 3704 3710 3712 3714 3721 3731 3752 3784 3776 3779 3785 3803 3792 3792 3783 3778 3777 3781 3775 3766 3766 3761 3767 3777 3759 3750 3732 3704 3702 3683 3681 3673 3652 3630 3614 3590 3570 3543 3517 3474 3498 3499 3507 3506 3504 3502 3507 3513 3525 3534 3530 3537 3525 3518 3496 3466 3478 3479 3484 3494 3498 3501 3503 3510 3507 3506 3508 3506 3521 3534 3539 3537 3549 3563 3576 3589 3601 3620 3634 3652 3651 3657 3671 3690 3711 3735 3750 3794 3761 3752 3745 3744 3741 3739 3743 3747 3758 3770 3767 3771 3771 3767 3762 3763 3762 3756 3757 3762 3767 3778 3784 3797 3807 3820 3827 3839 3847 3855 3873 3884 3912 3936 3966 3992 4006 4025 4039 4071 4081 4100 4111 4126 4145 4165 4183 4216 4195 4192 4185 4186 4190 4197 4202 4213 4217 4220 4229 4249 4256 4274 4282 4298 4304 4316 4320 4332 4342 4353 4358 4368 4384 4405 4424 4456 4455 4464 4473 4487 4483 4484 4489 4502 4494 4491 4496 4501 4511 4520 4533 4556 4553 4555 4561 4565 4545 4526 4520 4512 4517 4519 4524 4535 4535 4541 4531 4533 4532 4539 4545 4558 4536 4522 4509 4495 4484 4472 4469 4459 4455 4450 4440 4420 4408 4391 4385 4379 4378 4371 4368 4365 4352 4345 4344 4346 4337 4333 4318 4303 4302 4300 4293 4285 4288 4283 4288 4296 4298 4298 4299 4299 4307 4312 4328 4338 4363 4388 4395 4419 4413 4418 4416 4424 4416 4419 4421 4432 4421 4422 4422 4416 4423 4425 4420 4429 4419 4422 4416 4409 4408 4415 4419 4423
1646 1654 1657 1668 1672 1685 1692 1725 1717 1739 1746 1744 1750 1758 1751 1744 1751 1754 1756 1765 1769 1780 1774 1770 1765 1751 1752 1759 1756 1751 1757 1751 1764 1774 1770 1786 1780 1786 1790 1789 1802 1817 1816 1839 1831 1840 1834 1824 1831 1840 1842 1854 1855 1863 1870 1886 1891 1910 1913 1917 1921 1932 1933 1938 1936 1937 1940 1924 1920 1914 1907 1904 1904 1908 1908 1925 1928 1944 1958 1980 1985 2013 2031 2068 2080 2133 2145 2178 2176 2214 2227 2228 2228 2224 2224 2228 2238 2254 2261 2298 2298 2334 2347 2380 2382 2414 2439 2465 2463 2481 2480 2490 2493 2509 2516 2521 2529 2545 2547 2548 2543 2547 2552 2551 2555 2560 2565 2584 2585 2608 2626 2641 2648 2676 2685 2712 2711 2739 2751 2747 2752 2752 2759 2774 2776 2790 2803 2831 2834 2851 2852 2849 2856 2864 2859 2875 2881 2910 2918 2934 2936 2956 2974 3009 3009 3034 3047 3068 3083 3128 3136 3174 3172 3194 3201 3204 3210 3223 3227 3242 3248 3267 3277 3285 3285 3284 3288 3305 3302 3305 3307 3307 3306 3310 3312 3313 3306 3298 3296 3290 3287 3273 3278 3297 3288 3286 3284 3270 3284 3292 3294 3322 3324 3348 3361 3384 3389 3411 3419 3439 3436 3450 3457 3471 3480 3502 3511 3541 3535 3553 3563 3566 3572 3583 3590 3613 3622 3652 3661 3681 3688 3715 3726 3734 3731 3739 3736 3749 3760 3793 3796 3793 3795 3802 3802 3796 3797 3794 3795 3797 3790 3780 3776 3770 3770 3771 3769 3751 3751 3733 3721 3703 3693 3674 3666 3637 3627 3594 3583 3553 3557 3531 3521 3528 3525 3521 3526 3527 3526 3533 3532 3541 3539 3533 3535 3513 3520 3507 3497 3500 3501 3515 3511 3513 3512 3516 3520 3525 3523 3533 3536 3546 3545 3546 3554 3576 3584 3603 3617 3641 3636 3654 3664 3675 3680 3711 3714 3740 3736 3754 3754 3740 3751 3751 3752 3755 3759 3768 3767 3772 3772 3778 3773 3763 3768 3771 3766 3766 3759 3763 3764 3772 3783 3801 3804 3815 3825 3842 3849 3866 3878 3914 3931 3970 3969 4005 4008 4027 4038 4073 4085 4104 4118 4144 4151 4176 4166 4185 4185 4173 4182 4189 4185 4192 4197 4214 4213 4218 4225 4242 4255 4281 4284 4306 4308 4324 4334 4353 4358 4365 4372 4385 4396 4421 4420 4443 4452 4470 4467 4472 4481 4481 4484 4490 4491 4491 4496 4512 4511 4522 4519 4531 4544 4554 4544 4535 4533 4518 4518 4512 4509 4514 4515 4524 4524 4518 4522 4523 4525 4533 4530 4528 4527 4514 4515 4498 4491 4476 4470 4455 4456 4449 4434 4402 4397 4380 4385 4379 4376 4370 4356 4341 4339 4337 4329 4319 4320 4308 4304 4289 4284 4281 4285 4285 4277 4270 4273 4278 4277 4283 4277 4276 4289 4313 4318 4344 4347 4363 4363 4375 4376 4376 4384 4389 4388 4382 4386 4392 4397 4402 4401 4403 4393 4388 4390 4389 4398 4400 4392 4380 4382 4385 4393
1651 1661 1675 1673 1677 1686 1697 1703 1699 1718 1731 1738 1748 1745 1730 1745 1751 1758 1765 1771 1771 1782 1785 1774 1765 1753 1742 1748 1748 1745 1748 1756 1774 1771 1772 1779 1778 1787 1791 1791 1797 1811 1821 1821 1811 1819 1810 1812 1814 1821 1826 1834 1834 1842 1849 1869 1884 1901 1923 1925 1930 1938 1952 1939 1935 1933 1939 1927 1929 1917 1900 1911 1918 1915 1916 1923 1928 1947 1964 1973 1982 2008 2037 2055 2066 2112 2153 2152 2146 2186 2219 2216 2218 2216 2214 2226 2235 2251 2264 2273 2272 2308 2337 2347 2345 2390 2431 2445 2448 2462 2460 2473 2478 2495 2508 2514 2526 2530 2541 2528 2521 2530 2537 2538 2551 2550 2558 2566 2576 2600 2627 2636 2651 2671 2692 2696 2694 2726 2759 2757 2764 2764 2762 2775 2780 2801 2827 2837 2837 2855 2866 2858 2853 2854 2848 2861 2862 2894 2919 2928 2936 2962 2997 3007 3008 3040 3067 3081 3094 3134 3173 3177 3174 3206 3234 3223 3221 3234 3246 3255 3256 3276 3291 3288 3287 3289 3286 3301 3310 3311 3311 3311 3313 3313 3318 3318 3314 3308 3303 3303 3305 3299 3301 3304 3294 3298 3288 3297 3304 3308 3315 3327 3324 3349 3365 3376 3379 3403 3419 3424 3421 3440 3454 3464 3476 3493 3518 3522 3518 3545 3562 3568 3577 3587 3600 3623 3635 3664 3685 3691 3692 3719 3746 3741 3741 3744 3744 3759 3768 3795 3815 3810 3806 3810 3809 3809 3808 3807 3812 3808 3804 3794 3791 3786 3780 3778 3778 3771 3772 3752 3745 3724 3714 3692 3680 3658 3649 3616 3595 3594 3601 3574 3552 3555 3555 3550 3551 3546 3543 3545 3544 3552 3549 3553 3557 3544 3542 3527 3516 3515 3513 3520 3525 3525 3518 3527 3530 3532 3531 3546 3561 3553 3554 3554 3558 3580 3595 3613 3636 3634 3631 3651 3678 3678 3677 3702 3717 3718 3715 3732 3730 3748 3763 3761 3761 3768 3774 3774 3781 3775 3768 3773 3781 3772 3772 3768 3767 3760 3751 3757 3761 3774 3781 3797 3806 3819 3825 3839 3851 3864 3877 3917 3959 3965 3967 3994 4011 4023 4030 4063 4094 4110 4127 4143 4158 4153 4139 4161 4168 4170 4174 4177 4173 4182 4187 4203 4209 4218 4223 4242 4251 4269 4275 4298 4307 4327 4344 4362 4383 4379 4385 4397 4412 4418 4414 4434 4441 4454 4462 4471 4484 4481 4484 4486 4483 4488 4492 4503 4509 4509 4505 4523 4537 4535 4533 4522 4516 4516 4518 4508 4499 4502 4503 4510 4519 4513 4508 4514 4514 4521 4521 4518 4511 4520 4529 4511 4497 4485 4478 4467 4464 4449 4436 4412 4389 4386 4391 4379 4377 4360 4342 4331 4314 4319 4316 4309 4310 4293 4288 4274 4265 4270 4276 4273 4268 4263 4264 4258 4254 4256 4254 4262 4270 4292 4304 4326 4346 4336 4329 4339 4336 4346 4356 4354 4357 4352 4351 4360 4365 4372 4379 4373 4365 4362 4361 4369 4374 4375 4368 4362 4357 4365 4373
1654 1666 1663 1673 1678 1687 1688 1692 1700 1705 1712 1731 1734 1746 1749 1755 1753 1763 1767 1783 1790 1792 1782 1777 1771 1754 1750 1744 1734 1734 1746 1754 1760 1767 1774 1781 1786 1795 1786 1788 1792 1809 1807 1816 1820 1818 1807 1802 1801 1807 1812 1825 1821 1823 1835 1860 1863 1889 1899 1930 1933 1938 1931 1931 1929 1924 1922 1918 1925 1925 1926 1922 1921 1921 1924 1925 1935 1952 1953 1967 1979 2003 2018 2052 2064 2099 2101 2133 2144 2166 2172 2201 2205 2209 2217 2230 2232 2251 2248 2260 2268 2292 2298 2328 2334 2372 2384 2436 2445 2459 2455 2466 2466 2485 2484 2502 2505 2510 2510 2504 2510 2516 2513 2516 2523 2534 2539 2548 2565 2592 2599 2626 2643 2666 2668 2687 2696 2714 2726 2760 2769 2779 2778 2784 2791 2808 2822 2856 2860 2868 2862 2864 2859 2851 2854 2862 2863 2885 2893 2925 2929 2959 2974 3014 3032 3054 3059 3096 3105 3143 3153 3189 3208 3222 3222 3236 3244 3247 3258 3277 3283 3293 3286 3290 3296 3299 3302 3306 3313 3320 3316 3315 3314 3313 3322 3330 3330 3320 3322 3317 3322 3317 3322 3327 3325 3325 3322 3328 3322 3323 3331 3347 3348 3359 3359 3377 3382 3403 3400 3417 3425 3436 3438 3455 3460 3479 3491 3511 3529 3550 3547 3567 3573 3589 3611 3646 3655 3686 3683 3706 3707 3725 3727 3743 3751 3755 3761 3778 3782 3805 3808 3826 3828 3825 3823 3824 3822 3816 3819 3821 3811 3804 3806 3806 3798 3785 3787 3785 3778 3760 3757 3736 3728 3703 3694 3667 3655 3627 3636 3627 3626 3613 3608 3588 3582 3573 3574 3566 3562 3563 3568 3574 3575 3573 3566 3566 3556 3543 3543 3533 3531 3528 3535 3544 3542 3547 3543 3544 3546 3559 3551 3554 3560 3560 3573 3591 3598 3620 3617 3629 3632 3641 3653 3683 3688 3703 3695 3700 3710 3729 3738 3760 3757 3770 3776 3784 3776 3774 3779 3782 3773 3766 3771 3775 3772 3762 3764 3757 3755 3755 3763 3783 3785 3801 3808 3831 3831 3840 3848 3863 3880 3919 3927 3965 3976 3994 4000 4026 4029 4058 4072 4116 4128 4145 4138 4142 4146 4154 4152 4165 4168 4172 4174 4179 4184 4204 4206 4223 4233 4255 4255 4272 4280 4306 4309 4333 4342 4369 4372 4386 4397 4406 4414 4426 4436 4440 4435 4446 4449 4469 4468 4478 4483 4488 4483 4488 4487 4500 4498 4503 4509 4521 4513 4519 4514 4505 4514 4515 4507 4505 4500 4493 4493 4496 4503 4507 4508 4513 4511 4517 4517 4512 4519 4527 4520 4520 4512 4492 4486 4471 4464 4448 4442 4423 4412 4384 4381 4370 4367 4351 4346 4330 4323 4311 4305 4293 4287 4268 4266 4255 4260 4261 4265 4265 4260 4251 4245 4238 4237 4236 4241 4250 4259 4281 4283 4310 4302 4308 4317 4316 4316 4319 4314 4315 4320 4321 4325 4334 4333 4344 4345 4348 4346 4335 4343 4353 4351 4360 4355 4346 4345 4348 4354
1645 1657 1665 1670 1677 1688 1697 1700 1706 1708 1715 1725 1730 1744 1749 1756 1765 1769 1774 1791 1822 1803 1790 1784 1770 1756 1740 1736 1719 1737 1751 1755 1773 1771 1777 1783 1798 1789 1785 1782 1781 1798 1809 1811 1826 1812 1799 1795 1786 1796 1802 1811 1813 1817 1825 1839 1854 1874 1896 1917 1943 1931 1927 1919 1910 1918 1914 1916 1918 1926 1928 1932 1944 1938 1935 1942 1949 1957 1967 1973 1985 2010 2038 2050 2068 2089 2109 2121 2125 2154 2177 2185 2193 2200 2212 2223 2233 2240 2246 2257 2259 2286 2302 2310 2302 2353 2383 2419 2454 2446 2448 2451 2453 2466 2474 2485 2502 2497 2502 2489 2481 2494 2500 2504 2507 2515 2523 2538 2563 2580 2602 2621 2655 2658 2668 2681 2694 2716 2739 2756 2778 2778 2786 2797 2811 2826 2844 2865 2890 2881 2882 2871 2855 2854 2851 2859 2860 2881 2901 2912 2916 2950 2987 3016 3064 3064 3080 3100 3117 3152 3188 3209 3250 3248 3258 3260 3260 3272 3289 3300 3318 3308 3308 3303 3305 3308 3318 3321 3340 3327 3320 3317 3317 3323 3334 3336 3354 3337 3339 3337 3352 3340 3339 3342 3347 3346 3343 3344 3350 3346 3351 3357 3371 3370 3378 3381 3386 3398 3402 3415 3429 3433 3440 3445 3453 3475 3499 3515 3539 3547 3555 3568 3575 3603 3632 3657 3690 3694 3707 3713 3714 3732 3751 3756 3762 3767 3773 3789 3801 3818 3836 3841 3847 3841 3840 3839 3839 3833 3833 3828 3809 3812 3813 3816 3813 3805 3799 3793 3791 3769 3760 3742 3728 3711 3693 3676 3648 3644 3644 3648 3670 3642 3631 3618 3615 3606 3602 3588 3571 3584 3595 3598 3611 3588 3578 3571 3560 3558 3557 3552 3547 3551 3556 3556 3552 3562 3563 3560 3553 3559 3563 3561 3566 3572 3590 3601 3624 3622 3627 3626 3624 3639 3659 3674 3691 3697 3700 3702 3696 3729 3749 3760 3770 3777 3788 3789 3785 3787 3787 3783 3766 3774 3777 3776 3771 3771 3767 3756 3744 3756 3764 3781 3798 3804 3820 3831 3848 3853 3864 3875 3890 3919 3950 3964 3987 3997 4013 4025 4023 4057 4087 4117 4157 4141 4140 4138 4133 4142 4151 4158 4167 4167 4174 4175 4182 4198 4213 4226 4248 4257 4271 4280 4294 4306 4322 4337 4361 4376 4391 4397 4415 4422 4440 4447 4466 4448 4442 4443 4440 4458 4464 4472 4482 4480 4475 4477 4477 4488 4497 4500 4504 4509 4510 4507 4496 4502 4506 4504 4493 4494 4485 4486 4485 4496 4508 4503 4495 4508 4508 4520 4527 4521 4519 4522 4522 4518 4507 4497 4486 4476 4459 4448 4435 4424 4405 4392 4381 4370 4359 4344 4327 4321 4311 4306 4305 4285 4271 4252 4233 4239 4237 4248 4269 4256 4249 4238 4224 4219 4212 4219 4226 4234 4251 4261 4274 4283 4288 4291 4299 4300 4301 4295 4286 4289 4291 4290 4288 4298 4306 4314 4326 4325 4324 4322 4319 4327 4333 4334 4340 4327 4321 4328 4341
1645 1653 1657 1667 1671 1693 1697 1707 1706 1707 1715 1726 1733 1754 1753 1755 1759 1775 1775 1788 1789 1809 1810 1799 1786 1760 1758 1743 1746 1747 1736 1743 1750 1770 1771 1776 1774 1779 1781 1777 1782 1794 1788 1796 1801 1806 1808 1795 1794 1791 1791 1804 1801 1809 1813 1820 1830 1858 1870 1901 1896 1918 1919 1911 1924 1926 1917 1915 1925 1934 1935 1937 1942 1954 1954 1959 1955 1963 1963 1973 1988 2014 2020 2044 2057 2083 2097 2118 2123 2148 2146 2169 2173 2186 2201 2217 2219 2231 2246 2264 2266 2291 2293 2311 2324 2355 2359 2404 2397 2426 2436 2438 2440 2453 2451 2464 2465 2477 2477 2471 2481 2482 2483 2496 2492 2499 2504 2519 2533 2564 2573 2603 2609 2643 2658 2677 2687 2718 2721 2747 2750 2769 2787 2807 2818 2842 2850 2871 2868 2884 2887 2886 2879 2859 2862 2865 2869 2881 2890 2909 2914 2939 2957 3002 3015 3058 3083 3108 3121 3163 3176 3212 3222 3263 3279 3288 3289 3293 3301 3319 3307 3313 3315 3312 3312 3313 3313 3323 3323 3331 3326 3319 3323 3331 3323 3327 3332 3336 3345 3342 3347 3352 3354 3356 3361 3372 3366 3358 3360 3362 3360 3361 3367 3373 3380 3385 3388 3402 3401 3412 3414 3427 3429 3434 3447 3471 3481 3512 3520 3547 3558 3576 3588 3619 3630 3663 3664 3694 3712 3725 3728 3740 3752 3771 3772 3778 3790 3806 3811 3832 3843 3858 3854 3855 3855 3853 3852 3846 3851 3849 3840 3823 3826 3833 3826 3823 3813 3799 3789 3766 3763 3746 3743 3720 3715 3697 3688 3658 3655 3652 3652 3654 3655 3640 3641 3636 3627 3615 3618 3610 3605 3614 3599 3593 3592 3581 3583 3574 3571 3574 3573 3573 3573 3573 3581 3586 3585 3583 3576 3564 3563 3563 3569 3573 3581 3601 3603 3619 3623 3626 3628 3632 3642 3666 3672 3696 3707 3714 3723 3745 3744 3763 3764 3782 3790 3801 3803 3803 3801 3799 3793 3790 3782 3783 3784 3786 3776 3759 3764 3764 3760 3779 3777 3797 3806 3827 3837 3862 3873 3886 3891 3918 3925 3957 3965 3997 4013 4039 4043 4061 4073 4108 4101 4124 4133 4137 4136 4132 4138 4150 4151 4158 4167 4168 4177 4195 4203 4221 4231 4255 4263 4284 4284 4305 4315 4333 4346 4383 4387 4399 4407 4427 4441 4457 4449 4446 4452 4447 4450 4459 4461 4466 4468 4477 4479 4471 4475 4480 4482 4499 4498 4503 4504 4505 4506 4501 4505 4505 4501 4493 4483 4481 4488 4498 4499 4505 4510 4517 4516 4528 4522 4529 4523 4520 4521 4525 4519 4506 4503 4490 4476 4451 4451 4435 4421 4399 4393 4372 4361 4341 4336 4316 4310 4298 4290 4273 4263 4238 4245 4231 4226 4228 4233 4244 4244 4229 4223 4205 4202 4205 4202 4210 4221 4240 4245 4262 4267 4272 4278 4287 4285 4274 4274 4266 4261 4260 4261 4267 4270 4282 4286 4304 4307 4311 4306 4303 4300 4306 4305 4304 4306 4305 4310
1638 1646 1665 1661 1661 1685 1711 1712 1716 1716 1721 1731 1738 1756 1774 1766 1760 1769 1773 1782 1786 1800 1811 1802 1798 1773 1760 1753 1754 1745 1737 1737 1739 1756 1765 1765 1765 1767 1770 1771 1775 1782 1783 1787 1794 1797 1805 1793 1791 1785 1786 1790 1789 1803 1812 1815 1818 1846 1867 1875 1871 1897 1905 1917 1932 1929 1920 1927 1939 1945 1953 1952 1952 1958 1959 1966 1966 1970 1970 1987 1999 2019 2037 2051 2063 2092 2120 2123 2120 2142 2145 2158 2162 2186 2208 2211 2216 2231 2259 2259 2264 2287 2312 2317 2331 2353 2376 2384 2375 2409 2428 2426 2424 2433 2435 2444 2445 2454 2459 2461 2471 2469 2476 2473 2473 2484 2493 2508 2527 2548 2564 2582 2591 2631 2660 2673 2688 2710 2725 2738 2746 2775 2794 2821 2837 2859 2878 2877 2873 2885 2891 2890 2889 2878 2870 2874 2881 2894 2911 2910 2909 2938 2972 3000 3015 3061 3103 3120 3135 3177 3213 3221 3228 3272 3316 3317 3318 3324 3333 3322 3308 3313 3320 3318 3315 3316 3314 3319 3323 3325 3314 3321 3325 3324 3320 3331 3331 3342 3348 3352 3358 3358 3359 3367 3380 3383 3390 3380 3379 3372 3368 3375 3383 3383 3391 3390 3388 3402 3404 3413 3415 3424 3426 3433 3445 3468 3489 3510 3524 3554 3572 3591 3605 3636 3664 3667 3667 3704 3740 3739 3742 3758 3783 3784 3789 3797 3816 3825 3836 3856 3884 3875 3868 3872 3867 3870 3869 3869 3873 3865 3856 3847 3842 3842 3836 3828 3817 3804 3792 3770 3751 3745 3746 3726 3716 3708 3704 3681 3665 3661 3658 3658 3659 3653 3658 3649 3643 3639 3646 3630 3628 3614 3597 3594 3586 3593 3600 3589 3579 3586 3588 3592 3602 3603 3610 3612 3620 3604 3597 3584 3572 3576 3579 3583 3587 3599 3603 3619 3625 3626 3628 3634 3646 3661 3669 3700 3727 3730 3736 3752 3772 3767 3764 3784 3808 3813 3823 3819 3819 3805 3799 3793 3792 3791 3793 3789 3788 3773 3767 3759 3756 3768 3771 3790 3802 3824 3840 3868 3897 3892 3896 3916 3937 3949 3957 3993 4032 4047 4060 4082 4103 4098 4088 4108 4114 4130 4136 4133 4137 4141 4146 4156 4175 4169 4171 4192 4216 4225 4236 4253 4266 4276 4278 4304 4329 4335 4348 4374 4405 4408 4414 4436 4468 4460 4454 4451 4452 4452 4454 4462 4479 4471 4467 4473 4486 4478 4476 4477 4472 4488 4495 4503 4504 4507 4511 4512 4521 4507 4502 4484 4465 4478 4491 4495 4508 4510 4511 4521 4526 4524 4524 4522 4518 4519 4522 4521 4524 4515 4509 4491 4480 4466 4459 4437 4415 4406 4397 4375 4352 4340 4329 4314 4299 4289 4279 4261 4237 4239 4242 4226 4212 4218 4224 4234 4237 4222 4209 4193 4175 4182 4182 4198 4209 4222 4227 4246 4261 4262 4268 4275 4283 4264 4255 4242 4233 4231 4229 4236 4246 4252 4253 4273 4288 4284 4287 4279 4273 4278 4280 4282 4275 4280 4285
