3470 3482 3492 3498 3503 3504 3508 3512 3518 3523 3531 3534 3542 3547 3555 3560 3571 3574 3578 3577 3576 3577 3577 3580 3583 3586 3590 3590 3593 3599 3605 3612 3623 3621 3626 3632 3643 3645 3648 3653 3660 3665 3671 3680 3691 3695 3706 3713 3726 3732 3743 3751 3762 3766 3776 3783 3797 3804 3813 3821 3835 3839 3851 3862 3886 3868 3863 3852 3844 3837 3830 3826 3825 3823 3825 3824 3824 3818 3814 3817 3821 3820 3820 3822 3826 3829 3833 3839 3846 3846 3850 3855 3864 3870 3880 3895 3916 3906 3905 3906 3912 3913 3918 3921 3931 3923 3920 3917 3918 3921 3924 3926 3934 3938 3946 3956 3969 3974 3985 3996 4018 4026 4044 4062 4091 4110 4139 4166 4210 
3482 3486 3490 3499 3498 3503 3505 3510 3512 3521 3523 3530 3532 3544 3546 3555 3558 3573 3575 3578 3579 3579 3579 3581 3581 3585 3585 3587 3592 3600 3600 3608 3607 3615 3621 3628 3633 3644 3647 3652 3654 3666 3669 3680 3678 3688 3695 3708 3712 3729 3736 3748 3749 3760 3767 3777 3783 3802 3806 3816 3819 3831 3837 3850 3847 3857 3860 3850 3848 3838 3832 3823 3825 3821 3822 3823 3820 3818 3817 3818 3817 3820 3821 3822 3823 3830 3830 3838 3837 3842 3847 3851 3855 3866 3872 3889 3886 3899 3903 3902 3905 3909 3911 3914 3914 3918 3919 3914 3918 3923 3920 3922 3925 3934 3939 3953 3954 3968 3973 3986 3993 4018 4028 4052 4062 4102 4115 4150 4165 
3491 3496 3505 3501 3498 3502 3504 3508 3510 3517 3525 3525 3524 3536 3544 3548 3552 3565 3580 3580 3581 3582 3583 3582 3584 3585 3586 3588 3592 3597 3601 3602 3603 3611 3621 3625 3634 3641 3651 3649 3651 3660 3673 3672 3674 3684 3694 3701 3707 3724 3741 3743 3746 3759 3771 3773 3777 3794 3809 3813 3819 3826 3834 3833 3831 3841 3850 3844 3844 3833 3823 3825 3829 3823 3819 3817 3815 3813 3808 3814 3817 3819 3824 3821 3821 3826 3828 3833 3836 3843 3851 3852 3853 3861 3870 3876 3878 3888 3898 3900 3906 3906 3912 3910 3908 3910 3913 3913 3918 3918 3920 3921 3923 3929 3936 3945 3950 3960 3970 3977 3986 4006 4025 4040 4051 4084 4117 4126 4137 
3497 3502 3499 3504 3506 3503 3505 3508 3508 3515 3516 3522 3525 3534 3534 3541 3546 3557 3564 3582 3584 3585 3583 3583 3584 3588 3587 3589 3593 3596 3594 3596 3597 3605 3609 3620 3627 3637 3637 3643 3645 3650 3654 3664 3671 3680 3684 3698 3701 3720 3724 3740 3747 3760 3760 3770 3775 3790 3793 3811 3816 3821 3816 3819 3821 3826 3827 3835 3836 3830 3830 3826 3826 3826 3820 3812 3813 3812 3811 3813 3812 3816 3816 3820 3820 3826 3826 3830 3835 3844 3846 3853 3854 3857 3860 3869 3871 3880 3883 3897 3898 3900 3902 3906 3904 3902 3905 3910 3910 3911 3915 3921 3921 3924 3929 3941 3944 3954 3958 3968 3976 3997 4006 4033 4043 4068 4072 4102 4108 
3498 3499 3502 3506 3513 3510 3512 3509 3508 3514 3518 3521 3521 3531 3538 3541 3545 3555 3566 3578 3592 3586 3584 3583 3582 3586 3589 3592 3601 3594 3592 3591 3588 3599 3610 3617 3630 3631 3634 3634 3637 3643 3654 3660 3669 3676 3686 3691 3693 3712 3729 3737 3747 3756 3765 3767 3769 3783 3795 3806 3824 3813 3807 3806 3806 3812 3817 3821 3830 3823 3823 3823 3831 3821 3816 3812 3810 3807 3804 3809 3813 3812 3812 3813 3813 3821 3830 3832 3839 3843 3851 3853 3857 3857 3863 3864 3868 3871 3877 3887 3898 3894 3896 3898 3896 3899 3903 3905 3908 3907 3911 3915 3920 3923 3931 3937 3948 3950 3960 3963 3969 3989 4009 4025 4047 4054 4069 4078 4086 
3496 3497 3499 3506 3506 3513 3511 3509 3513 3515 3516 3523 3524 3532 3531 3540 3543 3553 3558 3574 3572 3583 3588 3586 3585 3586 3586 3591 3589 3590 3593 3588 3591 3595 3598 3609 3609 3623 3624 3625 3628 3634 3641 3656 3658 3671 3677 3690 3694 3709 3715 3735 3736 3753 3756 3766 3770 3781 3784 3794 3791 3800 3799 3794 3797 3801 3799 3805 3805 3810 3815 3814 3814 3814 3816 3813 3810 3805 3806 3809 3807 3808 3807 3808 3811 3817 3822 3832 3833 3839 3844 3851 3848 3851 3852 3856 3856 3862 3866 3876 3877 3885 3891 3894 3896 3898 3898 3901 3899 3900 3903 3908 3909 3918 3922 3930 3930 3939 3947 3958 3965 3983 3990 4013 4011 4033 4041 4055 4059 
3495 3495 3495 3500 3503 3508 3512 3514 3518 3519 3518 3523 3524 3530 3533 3539 3544 3553 3560 3567 3568 3581 3591 3588 3587 3587 3587 3588 3587 3588 3593 3589 3592 3593 3602 3600 3597 3611 3621 3620 3622 3630 3637 3648 3654 3667 3678 3687 3692 3708 3725 3730 3729 3746 3761 3764 3769 3780 3792 3786 3778 3783 3779 3783 3787 3785 3784 3789 3790 3799 3809 3806 3805 3805 3806 3806 3808 3802 3800 3804 3807 3804 3800 3804 3809 3816 3828 3829 3832 3839 3847 3843 3840 3842 3847 3848 3846 3854 3858 3866 3871 3880 3890 3893 3896 3896 3898 3896 3895 3896 3899 3901 3902 3911 3921 3921 3920 3932 3943 3952 3961 3977 3995 3994 3990 4013 4029 4033 4038 
3491 3493 3495 3498 3498 3504 3510 3519 3522 3527 3526 3530 3529 3531 3534 3542 3545 3557 3557 3566 3571 3582 3580 3590 3590 3588 3587 3587 3586 3585 3585 3585 3584 3585 3589 3594 3597 3603 3605 3615 3619 3628 3634 3648 3654 3666 3671 3689 3693 3708 3712 3731 3734 3742 3745 3761 3770 3779 3777 3783 3781 3776 3772 3773 3767 3768 3774 3778 3781 3787 3787 3797 3798 3798 3799 3800 3799 3797 3798 3800 3801 3801 3800 3802 3801 3810 3813 3824 3830 3838 3834 3836 3835 3833 3836 3843 3844 3851 3853 3862 3865 3874 3880 3894 3894 3895 3892 3892 3892 3892 3892 3898 3899 3905 3905 3913 3917 3927 3929 3947 3951 3969 3968 3979 3989 4000 3997 4011 4016 
3485 3492 3497 3497 3497 3507 3517 3520 3531 3527 3530 3533 3539 3536 3540 3544 3551 3556 3561 3567 3578 3577 3581 3584 3591 3586 3587 3585 3588 3583 3584 3579 3574 3580 3587 3588 3592 3598 3605 3610 3615 3624 3638 3648 3666 3667 3678 3686 3699 3707 3718 3727 3740 3741 3750 3760 3779 3774 3777 3773 3774 3767 3763 3760 3751 3757 3763 3767 3775 3773 3776 3781 3788 3788 3793 3791 3795 3788 3788 3794 3806 3796 3792 3793 3795 3801 3809 3817 3830 3828 3832 3828 3827 3827 3830 3832 3837 3845 3853 3858 3868 3871 3881 3886 3899 3890 3887 3888 3889 3887 3886 3890 3894 3898 3903 3906 3910 3917 3925 3935 3948 3953 3963 3969 3982 3983 3988 3993 4001 
3491 3494 3494 3498 3501 3510 3510 3516 3517 3523 3530 3533 3532 3534 3538 3543 3545 3555 3557 3566 3562 3567 3571 3576 3576 3580 3580 3579 3578 3578 3577 3575 3577 3576 3575 3582 3584 3592 3595 3605 3606 3618 3624 3640 3643 3659 3669 3681 3684 3703 3707 3719 3721 3734 3740 3752 3749 3761 3763 3761 3762 3757 3759 3756 3753 3748 3749 3755 3753 3756 3760 3766 3767 3773 3777 3778 3778 3775 3779 3783 3782 3785 3788 3783 3785 3790 3793 3807 3806 3814 3818 3818 3820 3820 3819 3821 3828 3840 3841 3851 3852 3862 3865 3873 3872 3879 3884 3885 3882 3882 3882 3884 3885 3891 3893 3900 3899 3906 3909 3922 3921 3935 3940 3953 3951 3963 3965 3975 3978 
3495 3496 3499 3499 3499 3507 3517 3514 3513 3521 3533 3531 3533 3533 3539 3541 3542 3548 3557 3558 3557 3561 3565 3568 3569 3571 3573 3571 3571 3571 3570 3571 3573 3571 3571 3576 3578 3585 3593 3597 3596 3610 3623 3632 3636 3655 3671 3674 3676 3694 3708 3712 3713 3725 3734 3736 3736 3745 3754 3751 3754 3750 3751 3748 3748 3744 3745 3743 3740 3745 3746 3752 3755 3762 3771 3768 3766 3765 3765 3770 3774 3774 3781 3775 3776 3777 3783 3790 3794 3802 3813 3809 3812 3811 3811 3815 3821 3828 3838 3842 3845 3851 3857 3856 3856 3864 3876 3876 3877 3875 3876 3878 3882 3883 3887 3888 3889 3894 3901 3904 3904 3916 3927 3929 3928 3938 3942 3952 3958 
3495 3496 3496 3500 3500 3504 3505 3513 3513 3518 3519 3526 3526 3528 3533 3540 3538 3541 3545 3553 3555 3555 3558 3563 3563 3565 3563 3563 3564 3567 3566 3567 3567 3567 3571 3574 3575 3580 3584 3594 3594 3603 3612 3631 3639 3655 3656 3668 3675 3691 3693 3710 3716 3722 3718 3723 3723 3732 3731 3737 3741 3741 3739 3737 3737 3737 3735 3734 3737 3739 3737 3742 3742 3752 3752 3760 3759 3756 3756 3759 3756 3757 3759 3761 3762 3762 3768 3777 3781 3788 3790 3795 3798 3801 3804 3809 3808 3815 3821 3834 3837 3840 3838 3838 3841 3847 3853 3866 3866 3867 3868 3871 3872 3874 3873 3876 3877 3880 3884 3891 3893 3900 3903 3910 3913 3920 3923 3934 3938 
3494 3495 3496 3497 3497 3501 3506 3508 3507 3515 3520 3520 3520 3526 3533 3534 3534 3539 3544 3550 3556 3555 3557 3558 3561 3560 3558 3557 3553 3561 3562 3565 3566 3568 3572 3574 3576 3581 3586 3589 3589 3603 3618 3631 3648 3656 3668 3669 3671 3685 3697 3707 3725 3718 3717 3712 3706 3715 3720 3723 3733 3728 3727 3725 3724 3722 3721 3723 3732 3729 3729 3729 3728 3735 3742 3746 3752 3744 3744 3743 3743 3741 3744 3745 3746 3751 3757 3765 3776 3777 3784 3785 3785 3790 3796 3798 3798 3806 3815 3824 3839 3833 3831 3828 3823 3834 3845 3850 3857 3856 3859 3861 3867 3865 3863 3864 3865 3871 3879 3880 3881 3890 3900 3900 3898 3906 3913 3919 3924 
3494 3495 3495 3497 3498 3499 3502 3507 3509 3515 3512 3516 3518 3524 3526 3531 3532 3537 3540 3549 3547 3554 3552 3552 3555 3558 3557 3554 3559 3565 3564 3567 3566 3567 3571 3575 3577 3585 3584 3587 3593 3604 3611 3628 3633 3653 3661 3671 3674 3682 3684 3698 3698 3711 3711 3705 3705 3705 3700 3705 3707 3713 3715 3715 3711 3709 3706 3708 3710 3716 3719 3718 3718 3721 3721 3730 3726 3727 3728 3728 3725 3722 3725 3729 3732 3739 3743 3753 3754 3763 3769 3777 3777 3779 3783 3789 3791 3798 3800 3810 3812 3822 3825 3822 3823 3824 3823 3833 3834 3842 3846 3849 3849 3856 3856 3855 3857 3862 3864 3871 3874 3879 3884 3894 3892 3893 3896 3905 3907 
3494 3494 3496 3497 3500 3502 3506 3509 3510 3514 3511 3515 3515 3524 3530 3530 3530 3536 3542 3544 3543 3549 3548 3552 3556 3558 3558 3559 3562 3567 3573 3570 3568 3571 3576 3576 3578 3582 3588 3591 3598 3607 3624 3628 3635 3653 3673 3672 3675 3681 3685 3687 3686 3697 3704 3697 3696 3692 3687 3692 3693 3697 3702 3698 3695 3690 3684 3689 3695 3701 3710 3707 3707 3707 3708 3708 3706 3706 3707 3707 3707 3707 3707 3713 3719 3728 3736 3740 3744 3753 3762 3767 3768 3774 3781 3781 3782 3790 3797 3800 3803 3811 3818 3816 3817 3816 3813 3818 3818 3829 3837 3836 3835 3841 3847 3847 3848 3853 3858 3863 3868 3874 3882 3883 3884 3886 3891 3892 3893 
3493 3494 3495 3496 3500 3505 3507 3513 3517 3521 3518 3518 3520 3528 3525 3530 3532 3537 3537 3545 3546 3551 3549 3552 3556 3561 3559 3564 3564 3568 3568 3573 3572 3574 3572 3576 3575 3580 3583 3593 3594 3603 3609 3627 3636 3654 3654 3672 3681 3682 3678 3682 3685 3689 3683 3685 3685 3683 3684 3685 3682 3681 3680 3681 3677 3674 3674 3671 3676 3686 3688 3696 3694 3693 3692 3691 3689 3687 3689 3688 3687 3692 3695 3699 3706 3718 3720 3729 3735 3743 3748 3763 3765 3770 3769 3773 3778 3784 3785 3792 3795 3804 3802 3807 3808 3810 3809 3810 3813 3820 3819 3824 3825 3829 3831 3838 3840 3845 3848 3856 3859 3869 3867 3874 3875 3876 3878 3879 3881 
3492 3494 3497 3499 3504 3507 3510 3516 3528 3523 3523 3523 3525 3527 3530 3529 3531 3533 3536 3541 3549 3549 3553 3553 3563 3557 3557 3561 3569 3568 3569 3568 3570 3569 3570 3570 3571 3576 3583 3587 3594 3598 3609 3622 3642 3646 3657 3668 3697 3676 3673 3674 3684 3676 3672 3671 3668 3670 3672 3674 3677 3670 3666 3663 3652 3656 3656 3660 3664 3670 3675 3677 3680 3678 3679 3676 3672 3675 3677 3672 3662 3676 3683 3692 3702 3709 3717 3723 3734 3736 3744 3755 3766 3765 3767 3770 3777 3779 3782 3784 3789 3793 3795 3796 3798 3799 3800 3804 3811 3811 3814 3813 3813 3818 3824 3828 3833 3837 3844 3848 3856 3858 3860 3864 3871 3870 3873 3870 3873 
3495 3496 3497 3502 3505 3510 3511 3516 3515 3523 3526 3526 3525 3526 3524 3526 3527 3529 3530 3536 3538 3545 3545 3546 3547 3550 3555 3557 3560 3566 3565 3562 3562 3562 3562 3563 3565 3570 3572 3580 3582 3589 3596 3611 3613 3632 3638 3648 3645 3654 3662 3660 3660 3661 3662 3662 3662 3660 3662 3663 3659 3656 3658 3653 3652 3645 3646 3651 3649 3655 3653 3659 3658 3660 3661 3662 3665 3667 3665 3664 3668 3670 3673 3684 3685 3700 3702 3712 3713 3724 3733 3748 3748 3760 3762 3766 3765 3773 3773 3776 3777 3784 3783 3786 3787 3791 3791 3795 3793 3800 3799 3801 3804 3806 3810 3819 3821 3827 3832 3839 3840 3848 3847 3851 3852 3860 3858 3858 3858 
3498 3497 3498 3505 3511 3513 3517 3514 3512 3520 3530 3527 3528 3524 3522 3522 3524 3524 3525 3532 3536 3539 3542 3541 3541 3545 3552 3556 3562 3562 3566 3558 3556 3554 3553 3554 3559 3562 3567 3571 3577 3583 3591 3599 3602 3617 3630 3626 3622 3631 3639 3641 3647 3645 3644 3650 3655 3654 3657 3652 3648 3646 3647 3646 3647 3640 3637 3638 3635 3638 3634 3638 3638 3642 3645 3649 3653 3654 3657 3657 3661 3665 3676 3674 3675 3687 3696 3699 3702 3714 3729 3737 3741 3749 3757 3755 3754 3759 3768 3767 3768 3772 3775 3776 3776 3778 3781 3781 3779 3784 3784 3791 3795 3799 3804 3812 3817 3823 3829 3830 3830 3833 3834 3838 3839 3845 3846 3845 3843 
3498 3499 3503 3510 3512 3515 3512 3512 3514 3517 3517 3526 3524 3521 3520 3518 3517 3519 3523 3531 3531 3535 3533 3536 3534 3538 3543 3555 3555 3557 3553 3550 3549 3545 3545 3543 3546 3555 3556 3563 3569 3576 3582 3595 3597 3607 3601 3605 3605 3610 3613 3621 3625 3630 3634 3639 3641 3646 3644 3640 3641 3636 3637 3637 3635 3631 3633 3629 3628 3628 3624 3621 3623 3628 3629 3636 3635 3640 3643 3648 3650 3655 3658 3664 3671 3678 3678 3686 3691 3701 3709 3730 3733 3739 3740 3744 3743 3744 3748 3757 3757 3763 3763 3767 3767 3767 3769 3772 3773 3773 3778 3787 3786 3794 3798 3810 3814 3819 3820 3823 3822 3823 3824 3830 3830 3835 3832 3833 3832 
3497 3500 3506 3512 3525 3514 3510 3510 3512 3513 3515 3517 3521 3517 3514 3513 3512 3513 3518 3524 3534 3529 3528 3527 3522 3531 3539 3546 3556 3547 3545 3541 3536 3537 3537 3536 3535 3544 3550 3559 3570 3573 3581 3587 3595 3593 3592 3588 3577 3591 3602 3605 3611 3616 3621 3627 3637 3635 3635 3632 3634 3629 3628 3626 3627 3624 3625 3620 3619 3617 3613 3614 3612 3616 3617 3621 3619 3629 3634 3638 3641 3646 3654 3657 3666 3669 3676 3677 3682 3693 3704 3718 3735 3732 3738 3734 3728 3735 3740 3743 3742 3751 3757 3759 3760 3761 3763 3764 3767 3769 3776 3778 3782 3788 3796 3806 3824 3820 3821 3818 3815 3815 3815 3819 3821 3822 3823 3821 3820 
3499 3499 3502 3508 3505 3508 3509 3506 3507 3508 3506 3507 3510 3514 3512 3510 3507 3505 3508 3514 3514 3522 3523 3523 3523 3526 3527 3534 3530 3531 3535 3533 3535 3532 3531 3532 3534 3537 3542 3554 3554 3568 3571 3579 3575 3579 3579 3578 3578 3578 3578 3589 3592 3603 3605 3614 3612 3622 3622 3619 3619 3618 3617 3614 3615 3613 3613 3610 3612 3609 3609 3610 3609 3610 3610 3612 3615 3623 3623 3630 3631 3636 3639 3646 3649 3657 3662 3667 3673 3686 3689 3706 3704 3718 3725 3727 3729 3728 3728 3734 3737 3743 3745 3755 3754 3754 3756 3757 3759 3761 3763 3767 3771 3781 3786 3797 3801 3817 3818 3816 3814 3808 3809 3810 3809 3812 3811 3809 3809 
3501 3501 3506 3503 3498 3500 3500 3502 3505 3503 3500 3502 3505 3506 3504 3502 3501 3500 3502 3503 3503 3510 3514 3515 3516 3520 3528 3523 3516 3519 3522 3526 3530 3528 3527 3528 3532 3535 3543 3544 3544 3557 3568 3566 3563 3565 3566 3565 3565 3568 3569 3574 3576 3585 3593 3594 3593 3604 3612 3606 3607 3606 3605 3605 3608 3606 3605 3603 3605 3603 3600 3602 3605 3605 3607 3607 3608 3616 3622 3625 3625 3630 3636 3637 3640 3650 3660 3660 3663 3673 3685 3691 3691 3708 3720 3720 3723 3722 3723 3730 3734 3738 3741 3749 3751 3753 3756 3754 3755 3755 3759 3760 3763 3773 3786 3790 3795 3807 3816 3811 3812 3806 3805 3801 3801 3803 3805 3801 3800 
3500 3499 3500 3501 3501 3496 3497 3500 3499 3500 3500 3499 3502 3504 3499 3494 3492 3492 3494 3495 3499 3503 3503 3508 3509 3513 3513 3517 3515 3510 3513 3519 3520 3525 3523 3524 3525 3530 3531 3536 3543 3551 3550 3557 3557 3555 3556 3554 3556 3560 3559 3562 3564 3569 3571 3577 3582 3590 3586 3588 3592 3594 3594 3595 3596 3599 3595 3592 3595 3598 3596 3593 3597 3601 3601 3601 3606 3611 3613 3623 3623 3624 3626 3629 3634 3645 3644 3652 3654 3661 3668 3683 3690 3703 3700 3710 3712 3716 3722 3730 3731 3737 3740 3752 3753 3754 3750 3750 3750 3748 3750 3752 3753 3763 3768 3782 3788 3800 3797 3803 3806 3800 3798 3791 3793 3795 3792 3793 3789 
3501 3500 3502 3502 3501 3499 3497 3498 3498 3498 3498 3498 3505 3499 3493 3488 3479 3486 3489 3493 3498 3497 3499 3501 3503 3504 3507 3506 3507 3505 3509 3511 3516 3515 3515 3516 3522 3524 3526 3532 3545 3544 3548 3550 3550 3551 3554 3550 3545 3551 3550 3553 3556 3560 3564 3567 3570 3573 3573 3573 3574 3579 3581 3584 3588 3585 3584 3585 3588 3588 3588 3588 3594 3595 3598 3599 3605 3606 3612 3615 3624 3621 3626 3625 3626 3635 3642 3644 3644 3653 3665 3675 3691 3694 3698 3700 3702 3710 3719 3726 3735 3734 3740 3748 3766 3751 3745 3744 3746 3743 3745 3743 3741 3753 3764 3772 3785 3787 3792 3796 3805 3793 3791 3786 3782 3783 3782 3780 3776 
3498 3500 3502 3504 3502 3503 3501 3497 3495 3497 3494 3492 3493 3495 3493 3486 3488 3487 3486 3490 3488 3491 3494 3494 3492 3493 3492 3494 3494 3495 3496 3502 3502 3507 3506 3506 3510 3518 3518 3523 3523 3534 3538 3545 3544 3546 3546 3547 3549 3549 3545 3545 3548 3554 3554 3557 3557 3562 3560 3560 3565 3570 3571 3572 3571 3572 3577 3578 3578 3580 3579 3577 3580 3587 3586 3592 3592 3599 3601 3604 3606 3613 3616 3621 3622 3627 3630 3639 3639 3645 3652 3664 3668 3685 3687 3692 3695 3704 3708 3721 3720 3726 3732 3737 3735 3740 3741 3736 3736 3736 3739 3737 3742 3747 3748 3757 3760 3772 3776 3784 3778 3777 3781 3780 3779 3775 3773 3771 3770 
3495 3497 3503 3499 3500 3500 3503 3496 3491 3491 3490 3489 3487 3488 3486 3488 3489 3488 3491 3487 3485 3489 3494 3487 3483 3482 3479 3482 3483 3482 3482 3487 3490 3494 3498 3499 3504 3507 3509 3512 3512 3522 3531 3536 3540 3540 3543 3545 3546 3545 3543 3542 3544 3548 3552 3548 3545 3550 3551 3554 3557 3562 3570 3565 3561 3564 3570 3570 3573 3570 3571 3569 3570 3574 3574 3578 3581 3588 3599 3595 3596 3602 3608 3611 3614 3621 3629 3630 3631 3640 3655 3658 3659 3672 3681 3683 3688 3697 3707 3712 3714 3721 3730 3727 3725 3726 3725 3725 3728 3730 3737 3735 3739 3742 3747 3747 3747 3757 3765 3765 3762 3763 3762 3769 3773 3769 3765 3763 3764 
3489 3493 3490 3492 3496 3497 3496 3495 3492 3487 3487 3487 3486 3484 3488 3491 3487 3487 3485 3484 3485 3487 3482 3479 3480 3474 3475 3472 3472 3471 3473 3474 3475 3484 3485 3490 3495 3500 3501 3504 3506 3512 3517 3529 3531 3534 3538 3546 3545 3544 3542 3538 3540 3544 3539 3538 3542 3545 3544 3549 3548 3553 3553 3557 3556 3555 3556 3561 3560 3559 3560 3560 3561 3566 3565 3568 3569 3576 3576 3583 3587 3594 3595 3604 3606 3615 3615 3621 3623 3630 3637 3654 3657 3663 3665 3674 3679 3690 3695 3708 3712 3715 3714 3716 3715 3714 3714 3714 3714 3719 3722 3729 3732 3736 3737 3740 3742 3746 3745 3750 3751 3752 3756 3764 3763 3764 3761 3755 3756 
3481 3482 3483 3486 3494 3492 3493 3490 3484 3485 3486 3486 3486 3486 3490 3488 3487 3484 3483 3480 3479 3479 3478 3476 3474 3472 3472 3468 3468 3465 3466 3464 3461 3471 3478 3483 3493 3493 3496 3498 3500 3509 3517 3523 3530 3531 3535 3541 3548 3544 3542 3538 3536 3536 3533 3533 3535 3536 3538 3538 3540 3542 3546 3544 3542 3545 3550 3550 3553 3550 3551 3550 3550 3554 3558 3558 3560 3563 3566 3570 3574 3582 3587 3591 3597 3604 3610 3611 3614 3624 3634 3644 3659 3659 3667 3668 3674 3684 3694 3703 3719 3711 3711 3707 3701 3705 3706 3703 3699 3708 3714 3720 3728 3728 3733 3733 3736 3736 3739 3738 3737 3742 3748 3754 3763 3756 3755 3752 3751 
3472 3473 3474 3477 3481 3486 3490 3488 3487 3485 3485 3485 3484 3484 3487 3487 3484 3481 3479 3474 3475 3473 3473 3474 3472 3470 3465 3463 3462 3458 3459 3455 3458 3462 3464 3474 3476 3485 3489 3493 3497 3507 3507 3516 3517 3526 3531 3538 3538 3543 3543 3539 3536 3531 3529 3529 3526 3526 3525 3525 3528 3531 3530 3532 3533 3534 3534 3538 3538 3540 3540 3540 3541 3544 3544 3548 3550 3553 3554 3558 3561 3573 3574 3578 3583 3595 3595 3599 3606 3619 3621 3631 3633 3647 3651 3657 3665 3679 3680 3692 3691 3701 3704 3700 3701 3700 3696 3696 3698 3702 3704 3712 3711 3718 3720 3726 3724 3726 3727 3729 3730 3734 3736 3743 3741 3744 3749 3747 3745 
3463 3466 3468 3472 3478 3483 3492 3488 3485 3485 3487 3483 3483 3485 3491 3486 3481 3478 3476 3470 3471 3469 3467 3468 3468 3463 3455 3455 3457 3455 3456 3451 3450 3454 3461 3464 3467 3476 3485 3489 3492 3501 3507 3509 3510 3521 3532 3536 3538 3540 3544 3535 3534 3527 3522 3520 3517 3518 3516 3518 3519 3521 3520 3522 3522 3524 3524 3526 3526 3529 3530 3530 3532 3534 3536 3538 3541 3543 3545 3546 3549 3560 3571 3570 3572 3582 3589 3592 3596 3610 3621 3622 3622 3633 3643 3650 3658 3669 3678 3678 3678 3688 3696 3692 3694 3691 3689 3689 3691 3696 3705 3702 3701 3706 3711 3713 3712 3717 3720 3720 3721 3726 3732 3730 3730 3735 3743 3739 3739 
3458 3461 3463 3467 3471 3477 3480 3487 3486 3483 3481 3480 3481 3485 3483 3485 3484 3476 3470 3462 3464 3465 3464 3463 3462 3459 3456 3448 3449 3451 3447 3443 3439 3443 3448 3456 3462 3469 3474 3487 3491 3498 3497 3504 3508 3518 3520 3536 3538 3538 3531 3525 3525 3521 3519 3513 3514 3515 3513 3512 3512 3515 3513 3516 3514 3517 3515 3516 3517 3521 3519 3521 3522 3525 3527 3530 3530 3533 3532 3532 3536 3547 3550 3559 3565 3573 3575 3584 3591 3604 3603 3616 3617 3622 3628 3645 3651 3663 3659 3665 3671 3677 3676 3680 3682 3681 3681 3680 3682 3689 3687 3690 3695 3697 3698 3706 3707 3712 3709 3710 3713 3717 3715 3716 3720 3726 3724 3727 3727 
3450 3458 3463 3467 3473 3474 3479 3480 3482 3479 3478 3476 3472 3478 3482 3481 3486 3471 3462 3458 3454 3456 3458 3458 3461 3455 3452 3446 3443 3442 3439 3433 3416 3435 3446 3453 3462 3466 3475 3482 3497 3494 3497 3499 3504 3509 3516 3527 3546 3532 3525 3518 3511 3511 3508 3509 3508 3508 3509 3506 3506 3506 3504 3506 3506 3506 3507 3507 3508 3510 3511 3510 3512 3516 3521 3521 3524 3523 3525 3523 3522 3537 3548 3551 3557 3564 3574 3577 3589 3592 3599 3605 3612 3617 3626 3636 3653 3651 3653 3657 3666 3667 3670 3669 3674 3671 3670 3669 3670 3674 3679 3681 3690 3687 3688 3694 3702 3701 3703 3703 3708 3706 3708 3708 3708 3710 3713 3713 3715 
3454 3460 3459 3467 3464 3467 3467 3473 3472 3476 3476 3474 3472 3475 3472 3474 3469 3463 3462 3456 3454 3450 3448 3450 3449 3448 3447 3444 3444 3438 3439 3435 3439 3438 3437 3449 3448 3459 3462 3470 3472 3484 3488 3491 3493 3500 3503 3513 3511 3520 3520 3514 3513 3507 3507 3508 3505 3503 3501 3499 3501 3500 3500 3500 3498 3497 3499 3500 3500 3501 3500 3499 3502 3507 3508 3511 3510 3511 3511 3514 3520 3531 3531 3542 3543 3553 3556 3564 3566 3576 3584 3596 3598 3611 3612 3620 3623 3638 3641 3645 3647 3657 3655 3654 3657 3661 3660 3659 3659 3659 3662 3668 3669 3674 3677 3680 3681 3689 3692 3693 3691 3694 3696 3700 3698 3696 3697 3697 3699 
3453 3456 3462 3461 3459 3459 3457 3461 3463 3467 3472 3468 3464 3466 3470 3465 3460 3453 3446 3448 3450 3444 3440 3443 3443 3440 3437 3439 3444 3439 3441 3440 3446 3443 3447 3444 3441 3450 3459 3459 3461 3470 3481 3481 3485 3490 3497 3497 3496 3501 3502 3504 3508 3502 3504 3502 3501 3498 3497 3496 3496 3496 3497 3496 3494 3493 3493 3493 3492 3493 3495 3491 3492 3495 3503 3499 3497 3499 3498 3504 3512 3521 3532 3532 3532 3541 3552 3553 3553 3565 3575 3582 3586 3596 3608 3607 3608 3618 3628 3632 3636 3641 3644 3642 3643 3646 3648 3647 3648 3648 3651 3652 3655 3658 3664 3666 3669 3675 3684 3679 3677 3680 3684 3686 3688 3685 3687 3684 3685 
3450 3450 3452 3456 3457 3456 3455 3453 3455 3460 3459 3462 3459 3455 3457 3456 3456 3445 3445 3442 3438 3436 3439 3441 3439 3434 3434 3434 3433 3435 3436 3439 3440 3442 3441 3442 3444 3443 3443 3448 3448 3456 3459 3468 3470 3478 3477 3484 3485 3489 3488 3492 3488 3491 3495 3498 3497 3494 3494 3494 3494 3493 3492 3493 3490 3490 3487 3487 3484 3484 3482 3478 3479 3481 3482 3486 3489 3492 3491 3493 3499 3512 3514 3524 3527 3530 3533 3543 3548 3558 3558 3571 3571 3581 3582 3592 3592 3598 3605 3620 3624 3629 3628 3630 3630 3632 3632 3634 3634 3635 3635 3635 3637 3641 3645 3651 3654 3661 3661 3662 3665 3666 3667 3672 3671 3669 3670 3669 3669 
3447 3448 3450 3452 3456 3453 3453 3452 3453 3454 3454 3453 3447 3450 3454 3452 3454 3442 3435 3433 3428 3430 3429 3434 3442 3432 3428 3427 3428 3428 3429 3433 3441 3437 3435 3438 3445 3440 3441 3436 3432 3443 3452 3454 3456 3461 3462 3468 3472 3476 3477 3476 3469 3478 3484 3488 3492 3490 3489 3490 3494 3489 3486 3485 3483 3482 3478 3477 3475 3475 3475 3469 3462 3467 3469 3472 3478 3479 3483 3486 3494 3501 3510 3513 3522 3524 3529 3534 3541 3546 3551 3556 3560 3564 3571 3572 3572 3582 3597 3606 3621 3616 3618 3618 3617 3619 3622 3622 3620 3623 3624 3623 3624 3630 3634 3637 3640 3646 3652 3650 3650 3652 3656 3658 3661 3656 3654 3653 3653 
3446 3445 3446 3446 3446 3447 3450 3450 3450 3450 3449 3450 3447 3444 3442 3444 3441 3436 3435 3427 3427 3427 3425 3425 3422 3425 3423 3420 3422 3423 3423 3425 3424 3430 3430 3431 3431 3434 3430 3426 3432 3435 3437 3441 3443 3449 3449 3457 3458 3468 3468 3468 3469 3471 3472 3479 3480 3487 3487 3486 3483 3484 3481 3478 3480 3480 3476 3469 3469 3468 3465 3461 3461 3457 3456 3458 3461 3466 3470 3474 3478 3489 3491 3498 3504 3517 3519 3524 3528 3536 3537 3542 3541 3547 3548 3555 3558 3564 3570 3588 3587 3596 3603 3608 3607 3606 3609 3612 3613 3615 3611 3611 3615 3621 3619 3623 3624 3631 3633 3638 3638 3637 3640 3644 3642 3640 3642 3639 3641 
3447 3446 3448 3445 3444 3446 3447 3447 3449 3446 3445 3443 3442 3437 3436 3434 3432 3428 3425 3420 3421 3418 3420 3415 3412 3412 3408 3413 3419 3418 3418 3416 3415 3419 3420 3423 3425 3423 3416 3422 3428 3432 3440 3435 3430 3435 3437 3443 3447 3457 3465 3462 3462 3466 3471 3472 3471 3479 3485 3479 3476 3474 3470 3472 3476 3474 3473 3466 3464 3459 3458 3453 3451 3448 3447 3449 3451 3456 3464 3466 3469 3476 3483 3486 3492 3505 3516 3520 3523 3527 3530 3530 3527 3533 3533 3541 3545 3550 3556 3565 3569 3580 3590 3593 3597 3598 3603 3604 3605 3603 3601 3604 3607 3609 3609 3611 3610 3617 3624 3625 3626 3627 3630 3630 3630 3629 3630 3629 3631 
3446 3445 3444 3444 3446 3447 3443 3442 3441 3440 3438 3435 3433 3429 3431 3427 3426 3420 3418 3410 3409 3407 3409 3406 3405 3405 3405 3408 3409 3413 3412 3409 3408 3412 3412 3416 3416 3418 3417 3418 3418 3428 3427 3432 3431 3427 3429 3433 3438 3450 3448 3453 3458 3463 3462 3468 3471 3474 3471 3472 3471 3469 3467 3465 3467 3468 3465 3460 3456 3448 3448 3443 3441 3439 3440 3440 3441 3446 3448 3459 3460 3466 3467 3474 3482 3497 3500 3518 3520 3522 3520 3524 3523 3525 3524 3531 3530 3535 3540 3548 3554 3566 3568 3580 3583 3588 3589 3596 3595 3593 3594 3597 3596 3601 3600 3604 3603 3604 3607 3615 3616 3615 3616 3619 3618 3616 3618 3617 3619 
3446 3442 3441 3443 3446 3441 3439 3436 3436 3434 3431 3427 3423 3425 3429 3424 3423 3417 3412 3404 3397 3402 3403 3399 3392 3396 3396 3402 3409 3408 3408 3402 3396 3403 3406 3409 3413 3410 3407 3409 3411 3417 3423 3424 3425 3425 3429 3430 3433 3441 3445 3448 3452 3455 3457 3463 3473 3468 3467 3465 3460 3462 3459 3462 3467 3461 3458 3451 3445 3441 3439 3434 3427 3430 3432 3432 3433 3436 3439 3445 3453 3456 3461 3466 3475 3484 3496 3507 3527 3514 3511 3512 3516 3514 3514 3517 3521 3525 3533 3538 3547 3551 3559 3566 3577 3575 3578 3582 3588 3582 3581 3584 3587 3588 3590 3593 3597 3596 3599 3603 3611 3605 3607 3607 3610 3608 3609 3608 3611 
3437 3436 3440 3442 3437 3433 3433 3429 3432 3432 3427 3421 3423 3421 3421 3419 3418 3413 3410 3400 3403 3401 3397 3398 3396 3392 3392 3397 3398 3405 3402 3396 3400 3401 3398 3401 3400 3403 3402 3401 3403 3406 3409 3417 3416 3420 3420 3426 3428 3436 3438 3442 3443 3448 3450 3455 3454 3460 3462 3462 3461 3460 3457 3458 3453 3454 3450 3444 3442 3433 3433 3429 3429 3423 3424 3425 3424 3426 3426 3429 3432 3444 3446 3457 3459 3471 3475 3489 3486 3496 3501 3500 3500 3501 3502 3504 3506 3514 3517 3524 3525 3534 3538 3549 3549 3560 3562 3566 3566 3567 3571 3572 3572 3576 3578 3583 3581 3584 3586 3588 3586 3590 3593 3594 3595 3599 3597 3597 3598 
3431 3434 3439 3436 3433 3429 3427 3427 3428 3426 3422 3421 3422 3420 3423 3415 3413 3408 3404 3400 3400 3396 3393 3393 3392 3392 3390 3393 3394 3398 3398 3395 3395 3394 3395 3394 3390 3393 3391 3395 3398 3402 3405 3407 3406 3410 3411 3419 3422 3433 3444 3441 3439 3442 3446 3446 3447 3451 3453 3455 3458 3454 3453 3448 3442 3441 3438 3435 3435 3429 3426 3425 3425 3421 3422 3418 3416 3418 3419 3419 3419 3429 3433 3442 3447 3457 3468 3467 3465 3476 3484 3485 3489 3488 3487 3489 3494 3499 3510 3509 3509 3516 3523 3526 3528 3539 3546 3550 3554 3555 3560 3559 3562 3564 3567 3568 3567 3571 3576 3572 3567 3572 3577 3579 3582 3584 3585 3585 3586 
3427 3431 3429 3430 3429 3426 3427 3427 3424 3423 3420 3419 3416 3414 3411 3407 3409 3405 3401 3397 3393 3391 3392 3390 3394 3396 3393 3393 3393 3395 3392 3391 3389 3388 3389 3392 3392 3391 3389 3392 3392 3400 3400 3402 3403 3406 3410 3419 3420 3431 3432 3441 3439 3436 3437 3438 3441 3446 3444 3447 3448 3448 3446 3441 3439 3432 3430 3426 3424 3422 3424 3422 3421 3417 3416 3409 3410 3412 3410 3409 3414 3423 3424 3434 3436 3444 3444 3448 3453 3461 3461 3470 3472 3476 3474 3473 3473 3478 3484 3495 3497 3501 3501 3507 3513 3525 3526 3537 3539 3540 3541 3542 3546 3552 3551 3555 3557 3558 3555 3557 3555 3555 3558 3565 3568 3573 3571 3573 3570 
3419 3424 3426 3425 3422 3422 3424 3422 3419 3416 3413 3412 3410 3406 3402 3400 3402 3396 3392 3388 3383 3387 3388 3390 3400 3394 3393 3394 3397 3394 3391 3387 3381 3383 3384 3386 3390 3387 3384 3386 3386 3394 3400 3400 3400 3405 3409 3416 3422 3429 3436 3436 3435 3434 3436 3436 3437 3438 3436 3438 3444 3439 3438 3434 3431 3425 3420 3418 3412 3416 3417 3418 3420 3415 3413 3405 3398 3404 3406 3405 3406 3414 3423 3428 3436 3435 3438 3438 3436 3445 3450 3455 3458 3459 3458 3457 3454 3462 3469 3475 3483 3485 3490 3493 3499 3506 3515 3522 3533 3527 3528 3529 3533 3533 3535 3541 3551 3542 3541 3537 3533 3540 3546 3550 3557 3555 3557 3555 3553 
3421 3423 3422 3422 3420 3419 3419 3419 3417 3409 3410 3409 3405 3400 3397 3390 3390 3386 3387 3381 3386 3386 3382 3384 3383 3388 3392 3394 3392 3394 3391 3385 3384 3382 3381 3381 3381 3383 3384 3384 3386 3392 3393 3398 3401 3408 3409 3414 3418 3427 3428 3435 3432 3431 3432 3435 3434 3435 3431 3428 3428 3429 3428 3426 3423 3418 3419 3417 3416 3413 3412 3413 3411 3410 3408 3401 3404 3402 3397 3399 3400 3404 3409 3421 3418 3423 3429 3431 3432 3436 3434 3442 3440 3446 3445 3445 3443 3447 3447 3455 3456 3466 3470 3477 3479 3487 3493 3505 3502 3510 3510 3513 3512 3513 3518 3525 3520 3521 3523 3519 3524 3526 3527 3535 3531 3533 3538 3540 3536 
3421 3422 3427 3421 3416 3417 3417 3417 3416 3409 3403 3402 3401 3395 3388 3385 3383 3381 3379 3380 3385 3380 3376 3376 3373 3380 3387 3386 3389 3387 3388 3382 3381 3381 3383 3379 3379 3382 3382 3383 3385 3390 3397 3398 3398 3407 3415 3420 3422 3427 3431 3430 3428 3429 3427 3432 3431 3430 3424 3422 3422 3419 3415 3413 3411 3409 3411 3411 3414 3411 3410 3409 3407 3405 3402 3401 3403 3398 3392 3393 3393 3398 3407 3408 3406 3415 3426 3425 3424 3426 3424 3427 3424 3431 3434 3428 3424 3427 3432 3437 3436 3447 3455 3459 3464 3472 3482 3482 3481 3486 3487 3492 3495 3496 3501 3504 3502 3504 3504 3506 3511 3513 3517 3513 3510 3515 3522 3519 3516 
3419 3418 3419 3419 3420 3419 3417 3418 3414 3411 3407 3398 3398 3394 3391 3380 3378 3376 3378 3378 3376 3376 3376 3373 3371 3374 3375 3377 3377 3377 3379 3375 3377 3379 3377 3376 3381 3384 3381 3383 3384 3387 3391 3399 3402 3408 3415 3429 3429 3430 3428 3428 3431 3433 3431 3435 3433 3432 3425 3417 3416 3410 3408 3400 3396 3398 3402 3403 3406 3409 3409 3407 3406 3404 3403 3401 3400 3398 3394 3390 3387 3389 3393 3401 3403 3407 3411 3421 3423 3422 3420 3420 3419 3420 3415 3410 3406 3408 3415 3425 3426 3431 3435 3443 3447 3456 3456 3463 3464 3466 3468 3473 3474 3477 3481 3488 3491 3491 3489 3491 3492 3498 3494 3490 3493 3498 3496 3498 3495 
3418 3419 3419 3420 3416 3420 3418 3417 3412 3409 3404 3402 3397 3396 3392 3383 3369 3375 3376 3377 3374 3375 3372 3369 3361 3371 3377 3374 3369 3373 3375 3373 3369 3374 3374 3376 3382 3380 3381 3381 3384 3388 3395 3399 3406 3413 3425 3431 3445 3436 3434 3432 3434 3432 3431 3434 3439 3430 3423 3418 3414 3409 3402 3393 3374 3389 3398 3399 3404 3406 3408 3406 3406 3402 3401 3399 3399 3393 3386 3383 3378 3385 3392 3394 3399 3404 3411 3416 3424 3418 3417 3415 3415 3414 3408 3398 3375 3396 3404 3410 3416 3423 3431 3432 3437 3439 3442 3446 3447 3448 3452 3455 3460 3463 3467 3474 3484 3478 3475 3473 3475 3476 3478 3473 3469 3477 3481 3477 3473 
3425 3424 3424 3427 3426 3427 3423 3421 3418 3411 3413 3411 3407 3401 3398 3393 3390 3381 3378 3380 3377 3378 3376 3373 3374 3372 3372 3374 3373 3372 3372 3375 3374 3375 3373 3375 3374 3375 3378 3378 3383 3389 3391 3397 3403 3415 3418 3428 3427 3435 3435 3432 3432 3431 3434 3434 3430 3427 3428 3418 3417 3410 3407 3399 3398 3389 3387 3394 3398 3405 3403 3403 3401 3400 3399 3396 3394 3391 3387 3381 3383 3384 3383 3387 3391 3401 3405 3411 3409 3412 3412 3409 3413 3414 3409 3401 3402 3397 3391 3398 3401 3414 3413 3418 3417 3423 3426 3432 3429 3429 3432 3438 3441 3450 3451 3457 3456 3462 3459 3454 3456 3455 3456 3457 3460 3463 3460 3459 3459 
3433 3431 3429 3430 3432 3430 3430 3426 3424 3420 3419 3415 3414 3407 3402 3399 3397 3388 3384 3379 3376 3378 3379 3379 3382 3379 3381 3375 3372 3373 3374 3372 3372 3374 3374 3373 3373 3374 3377 3379 3384 3388 3395 3399 3405 3413 3425 3421 3420 3425 3429 3430 3432 3433 3439 3434 3430 3428 3430 3421 3418 3410 3406 3402 3403 3397 3394 3395 3395 3401 3403 3398 3396 3395 3397 3391 3389 3383 3378 3380 3383 3383 3386 3385 3386 3397 3409 3404 3402 3405 3406 3407 3413 3409 3408 3403 3404 3397 3394 3393 3390 3400 3407 3403 3399 3407 3415 3416 3415 3415 3417 3422 3426 3433 3437 3440 3440 3442 3438 3439 3441 3440 3439 3439 3442 3445 3449 3446 3445 
3438 3438 3434 3433 3433 3432 3433 3431 3432 3426 3425 3419 3418 3414 3413 3406 3401 3391 3388 3377 3378 3380 3380 3384 3382 3382 3379 3374 3376 3374 3373 3370 3372 3375 3373 3373 3372 3371 3374 3377 3380 3385 3390 3399 3402 3409 3409 3413 3416 3419 3421 3427 3429 3432 3432 3435 3433 3428 3424 3420 3414 3406 3407 3403 3402 3402 3401 3400 3398 3401 3395 3391 3391 3389 3388 3384 3384 3377 3381 3380 3380 3381 3382 3382 3386 3393 3392 3397 3400 3400 3400 3402 3403 3402 3403 3402 3401 3394 3394 3392 3390 3392 3386 3388 3389 3392 3394 3402 3400 3401 3403 3409 3412 3419 3421 3429 3430 3428 3426 3426 3423 3425 3423 3420 3424 3429 3429 3431 3429 
3443 3439 3435 3437 3439 3439 3439 3439 3444 3435 3432 3427 3423 3421 3418 3412 3408 3397 3387 3380 3374 3379 3381 3383 3385 3383 3381 3377 3375 3374 3376 3373 3372 3372 3372 3371 3373 3374 3376 3378 3383 3386 3392 3397 3407 3407 3411 3410 3409 3414 3420 3424 3429 3427 3429 3429 3431 3426 3421 3413 3400 3403 3403 3400 3400 3399 3399 3397 3400 3396 3396 3389 3381 3384 3384 3380 3378 3378 3378 3381 3383 3384 3384 3383 3384 3389 3393 3393 3396 3397 3399 3399 3404 3399 3397 3398 3402 3391 3389 3384 3384 3381 3377 3374 3370 3378 3385 3385 3382 3386 3390 3395 3403 3406 3413 3418 3427 3416 3410 3409 3404 3406 3406 3406 3408 3413 3417 3416 3413 
3444 3442 3441 3441 3442 3446 3446 3444 3442 3441 3441 3435 3434 3430 3425 3418 3414 3402 3398 3385 3387 3384 3382 3384 3383 3386 3383 3380 3379 3373 3374 3376 3374 3372 3370 3368 3371 3376 3374 3376 3378 3387 3387 3393 3394 3402 3405 3407 3407 3408 3413 3422 3419 3419 3422 3422 3424 3424 3423 3412 3413 3403 3398 3397 3397 3398 3395 3391 3392 3390 3392 3388 3387 3383 3378 3377 3379 3380 3379 3384 3384 3388 3385 3384 3384 3386 3385 3386 3389 3395 3394 3394 3395 3395 3395 3394 3386 3379 3379 3374 3374 3371 3366 3361 3365 3366 3367 3371 3371 3372 3373 3378 3382 3390 3395 3404 3399 3400 3402 3398 3395 3391 3390 3392 3395 3401 3403 3405 3403 
3449 3445 3441 3444 3449 3451 3458 3452 3447 3445 3444 3440 3441 3433 3429 3423 3418 3407 3397 3392 3394 3389 3388 3386 3383 3383 3384 3382 3382 3377 3373 3375 3374 3372 3370 3369 3370 3372 3373 3373 3375 3379 3386 3388 3389 3396 3404 3404 3404 3407 3413 3415 3415 3417 3418 3420 3422 3423 3425 3417 3417 3405 3394 3395 3392 3394 3392 3389 3388 3388 3391 3386 3384 3378 3371 3374 3378 3376 3375 3383 3388 3388 3385 3385 3384 3383 3384 3383 3383 3388 3393 3391 3392 3389 3389 3384 3376 3370 3364 3363 3362 3357 3350 3354 3359 3360 3364 3361 3356 3360 3361 3367 3373 3379 3386 3386 3381 3384 3385 3382 3383 3378 3373 3380 3383 3389 3398 3394 3392 
3450 3448 3448 3448 3448 3452 3455 3459 3457 3450 3447 3442 3439 3435 3434 3427 3423 3412 3408 3395 3395 3393 3394 3392 3387 3381 3382 3384 3384 3381 3380 3377 3376 3374 3372 3369 3369 3372 3369 3368 3367 3371 3376 3384 3386 3392 3394 3402 3401 3404 3406 3413 3416 3418 3418 3419 3419 3424 3421 3417 3417 3409 3408 3400 3396 3396 3391 3386 3387 3386 3384 3382 3380 3374 3374 3370 3372 3374 3380 3387 3389 3392 3390 3387 3384 3381 3382 3380 3382 3382 3383 3386 3384 3382 3380 3377 3373 3364 3361 3353 3352 3347 3350 3348 3347 3352 3353 3353 3353 3354 3353 3358 3360 3368 3369 3375 3373 3370 3367 3364 3365 3367 3370 3374 3374 3377 3377 3381 3383 
3454 3451 3450 3450 3454 3456 3460 3458 3462 3453 3449 3442 3437 3436 3435 3430 3426 3416 3408 3400 3395 3397 3397 3392 3389 3385 3383 3385 3388 3383 3381 3378 3381 3375 3372 3369 3367 3369 3367 3365 3359 3370 3377 3381 3384 3389 3394 3396 3394 3399 3405 3410 3420 3419 3422 3419 3416 3420 3422 3419 3418 3413 3408 3404 3397 3395 3392 3388 3384 3384 3381 3380 3375 3372 3369 3372 3375 3379 3383 3390 3402 3395 3393 3388 3386 3384 3384 3382 3383 3380 3383 3379 3378 3374 3371 3366 3362 3358 3354 3348 3345 3343 3344 3343 3339 3345 3348 3346 3344 3345 3346 3350 3354 3357 3362 3361 3362 3355 3353 3351 3347 3352 3356 3363 3372 3369 3370 3371 3376 
3453 3452 3451 3449 3453 3459 3456 3454 3454 3451 3449 3442 3442 3440 3437 3434 3429 3419 3416 3404 3407 3405 3399 3393 3392 3387 3386 3387 3384 3384 3379 3374 3376 3375 3374 3369 3369 3371 3369 3368 3370 3373 3373 3381 3382 3389 3390 3394 3393 3393 3396 3404 3406 3417 3420 3421 3420 3419 3419 3421 3422 3419 3418 3411 3407 3397 3395 3390 3389 3385 3384 3383 3378 3372 3372 3376 3377 3385 3385 3390 3388 3394 3393 3389 3389 3386 3385 3384 3378 3373 3373 3372 3370 3366 3364 3357 3358 3353 3351 3342 3342 3336 3338 3341 3341 3343 3339 3340 3339 3337 3340 3344 3340 3344 3344 3347 3340 3335 3339 3340 3341 3341 3343 3353 3352 3360 3359 3358 3362 
3455 3453 3451 3453 3455 3457 3457 3453 3452 3448 3444 3439 3439 3437 3437 3432 3428 3420 3415 3411 3413 3408 3405 3398 3394 3388 3383 3384 3385 3379 3371 3372 3377 3373 3373 3369 3367 3368 3371 3372 3375 3378 3381 3383 3384 3390 3395 3393 3393 3392 3393 3400 3401 3413 3425 3422 3421 3421 3420 3424 3427 3423 3424 3418 3415 3405 3398 3392 3389 3387 3387 3382 3379 3372 3368 3374 3380 3386 3393 3388 3385 3387 3387 3387 3390 3385 3386 3379 3372 3368 3366 3361 3361 3357 3357 3351 3352 3348 3347 3340 3337 3333 3333 3336 3339 3337 3335 3335 3334 3334 3337 3333 3329 3330 3334 3327 3319 3319 3319 3325 3330 3331 3334 3339 3340 3346 3347 3348 3352 
3457 3456 3457 3459 3460 3457 3454 3451 3449 3447 3443 3434 3435 3435 3433 3432 3428 3420 3418 3412 3410 3409 3405 3401 3400 3390 3389 3383 3382 3378 3375 3368 3368 3370 3369 3368 3365 3366 3370 3377 3381 3384 3383 3386 3390 3394 3392 3393 3392 3392 3396 3402 3402 3409 3412 3424 3423 3424 3425 3430 3428 3425 3425 3422 3419 3410 3406 3392 3391 3389 3385 3381 3379 3371 3374 3373 3378 3389 3386 3386 3388 3385 3383 3383 3381 3380 3379 3376 3372 3361 3355 3346 3346 3344 3343 3341 3341 3340 3337 3334 3331 3327 3329 3331 3332 3332 3332 3333 3331 3330 3324 3323 3319 3315 3313 3311 3308 3304 3307 3313 3315 3321 3324 3330 3333 3337 3336 3337 3340 
3460 3459 3460 3464 3473 3461 3456 3450 3441 3441 3439 3433 3427 3428 3427 3427 3424 3419 3414 3409 3406 3405 3400 3402 3407 3396 3391 3386 3385 3378 3371 3369 3366 3367 3364 3361 3356 3364 3370 3378 3393 3389 3390 3394 3402 3398 3398 3394 3388 3393 3397 3401 3407 3410 3417 3418 3421 3423 3425 3429 3437 3429 3426 3423 3423 3413 3407 3396 3388 3387 3382 3379 3377 3374 3374 3376 3384 3387 3390 3387 3388 3383 3381 3378 3375 3373 3372 3369 3365 3353 3342 3337 3329 3329 3329 3328 3326 3325 3323 3321 3319 3319 3322 3325 3332 3326 3325 3325 3327 3318 3312 3309 3302 3303 3298 3294 3284 3291 3295 3299 3308 3309 3315 3320 3334 3328 3330 3327 3333 
3464 3462 3464 3466 3461 3458 3459 3452 3449 3440 3437 3435 3433 3426 3424 3425 3422 3420 3416 3407 3408 3405 3401 3402 3398 3396 3395 3388 3386 3379 3377 3371 3371 3369 3363 3358 3362 3365 3367 3375 3378 3389 3394 3399 3397 3401 3402 3399 3399 3397 3395 3398 3401 3409 3408 3413 3416 3423 3423 3426 3425 3429 3430 3424 3423 3414 3411 3398 3399 3390 3386 3378 3377 3374 3373 3373 3378 3387 3385 3386 3384 3379 3379 3373 3374 3368 3368 3365 3358 3347 3341 3331 3327 3317 3317 3318 3315 3312 3311 3308 3310 3309 3312 3316 3315 3317 3318 3315 3311 3306 3307 3300 3300 3297 3292 3283 3285 3282 3279 3282 3285 3294 3298 3303 3305 3312 3313 3311 3314 
3470 3469 3470 3464 3462 3456 3453 3449 3448 3439 3433 3433 3432 3426 3421 3421 3418 3416 3414 3409 3408 3402 3394 3397 3397 3393 3389 3388 3387 3381 3375 3374 3373 3367 3361 3362 3363 3367 3372 3375 3378 3389 3397 3397 3398 3402 3407 3404 3404 3400 3400 3400 3400 3404 3403 3408 3411 3418 3423 3422 3421 3427 3433 3430 3429 3418 3409 3402 3402 3393 3389 3379 3377 3372 3368 3373 3378 3382 3384 3385 3384 3380 3376 3373 3374 3367 3364 3357 3348 3335 3323 3321 3318 3309 3305 3304 3302 3299 3300 3301 3303 3303 3307 3306 3305 3307 3309 3305 3301 3297 3297 3293 3292 3287 3287 3278 3278 3274 3271 3271 3269 3279 3287 3288 3290 3295 3296 3299 3300 
3476 3476 3469 3461 3459 3454 3452 3443 3441 3437 3438 3433 3431 3427 3425 3421 3417 3414 3413 3409 3406 3401 3401 3397 3395 3392 3393 3390 3388 3384 3383 3378 3373 3368 3368 3367 3365 3369 3371 3378 3385 3393 3390 3394 3398 3405 3404 3409 3406 3400 3402 3403 3404 3404 3404 3408 3410 3416 3415 3418 3422 3426 3427 3435 3432 3422 3416 3402 3398 3393 3387 3375 3374 3369 3372 3374 3376 3381 3381 3388 3387 3382 3378 3371 3370 3362 3360 3352 3343 3325 3324 3313 3305 3296 3297 3292 3289 3285 3289 3293 3291 3294 3294 3296 3297 3298 3295 3295 3292 3287 3286 3283 3281 3274 3273 3267 3269 3267 3265 3263 3262 3266 3267 3274 3279 3283 3284 3291 3291 
3482 3476 3472 3463 3453 3454 3450 3444 3434 3437 3435 3434 3433 3429 3422 3420 3413 3415 3412 3408 3402 3403 3401 3401 3399 3396 3395 3394 3392 3387 3383 3379 3371 3370 3367 3367 3366 3371 3377 3384 3399 3396 3398 3396 3397 3403 3407 3408 3408 3403 3403 3406 3409 3406 3407 3409 3413 3415 3418 3418 3422 3423 3428 3430 3439 3422 3411 3400 3389 3386 3381 3373 3366 3367 3368 3373 3384 3377 3378 3385 3395 3381 3376 3371 3371 3361 3352 3343 3333 3321 3310 3303 3291 3289 3285 3283 3276 3277 3277 3281 3280 3283 3286 3286 3287 3285 3282 3280 3279 3275 3273 3271 3271 3264 3260 3257 3255 3255 3253 3253 3249 3256 3261 3264 3272 3272 3275 3279 3282 
3478 3475 3473 3466 3466 3461 3456 3451 3450 3442 3438 3437 3436 3435 3432 3427 3427 3423 3417 3412 3411 3409 3407 3407 3404 3401 3400 3401 3397 3390 3390 3385 3383 3375 3371 3369 3371 3375 3374 3382 3384 3395 3395 3396 3400 3405 3404 3409 3406 3403 3407 3410 3406 3406 3406 3409 3410 3414 3414 3416 3415 3417 3419 3421 3419 3417 3415 3398 3397 3384 3379 3373 3374 3366 3366 3369 3366 3368 3373 3379 3374 3372 3374 3368 3367 3360 3352 3336 3334 3319 3311 3299 3295 3284 3281 3279 3278 3273 3272 3275 3272 3272 3274 3275 3273 3273 3273 3267 3266 3262 3261 3258 3256 3253 3253 3248 3247 3245 3246 3248 3248 3250 3246 3249 3252 3259 3262 3268 3268 
3477 3474 3471 3467 3468 3463 3462 3457 3458 3449 3442 3440 3439 3437 3436 3435 3438 3429 3420 3417 3414 3412 3410 3409 3409 3406 3401 3403 3405 3399 3394 3392 3392 3381 3372 3372 3373 3374 3373 3379 3382 3389 3390 3396 3402 3404 3405 3406 3406 3406 3410 3408 3407 3405 3403 3409 3413 3413 3415 3412 3411 3413 3419 3413 3410 3408 3408 3399 3398 3383 3370 3374 3377 3370 3366 3364 3360 3361 3364 3369 3370 3365 3362 3363 3364 3352 3342 3335 3331 3312 3293 3291 3290 3279 3270 3274 3275 3270 3267 3265 3266 3266 3270 3263 3260 3260 3265 3257 3254 3249 3245 3244 3243 3241 3241 3236 3236 3235 3238 3239 3241 3240 3238 3239 3240 3246 3250 3254 3256 
3476 3473 3470 3466 3464 3463 3463 3459 3461 3457 3452 3442 3439 3438 3440 3439 3440 3436 3433 3424 3418 3415 3415 3413 3416 3415 3410 3405 3406 3407 3403 3397 3395 3388 3386 3377 3375 3377 3379 3382 3383 3392 3392 3398 3402 3407 3405 3405 3404 3406 3406 3408 3408 3406 3408 3412 3410 3411 3410 3406 3406 3407 3406 3405 3403 3399 3396 3392 3390 3382 3382 3378 3376 3373 3370 3362 3360 3355 3357 3364 3360 3357 3359 3359 3353 3345 3341 3332 3325 3307 3301 3283 3278 3273 3277 3275 3270 3265 3263 3255 3254 3256 3252 3248 3250 3245 3244 3242 3241 3237 3234 3231 3228 3228 3225 3222 3223 3224 3226 3229 3229 3231 3229 3232 3233 3238 3237 3242 3244 
3480 3473 3467 3465 3459 3463 3463 3463 3466 3458 3452 3446 3435 3441 3444 3446 3452 3443 3435 3428 3416 3419 3420 3420 3426 3418 3413 3411 3414 3409 3403 3401 3401 3393 3388 3383 3377 3383 3387 3387 3387 3393 3398 3404 3415 3410 3409 3405 3402 3405 3407 3408 3410 3408 3407 3411 3416 3412 3412 3405 3399 3399 3401 3397 3392 3389 3386 3383 3378 3375 3372 3375 3384 3372 3368 3361 3357 3353 3352 3356 3358 3351 3351 3348 3348 3335 3326 3322 3319 3301 3286 3276 3265 3268 3270 3270 3273 3264 3260 3249 3240 3241 3239 3238 3238 3233 3231 3226 3221 3220 3216 3214 3209 3209 3208 3207 3206 3211 3216 3217 3221 3218 3215 3219 3225 3225 3228 3229 3236 
3478 3475 3473 3468 3470 3469 3465 3464 3462 3459 3462 3456 3456 3448 3447 3451 3450 3452 3449 3438 3437 3428 3423 3421 3421 3421 3421 3414 3415 3413 3409 3404 3403 3397 3395 3392 3392 3391 3390 3393 3393 3398 3401 3408 3406 3412 3412 3405 3406 3405 3405 3410 3409 3412 3412 3412 3411 3412 3409 3403 3400 3391 3391 3392 3388 3381 3378 3376 3373 3370 3368 3367 3365 3365 3365 3358 3357 3351 3350 3351 3346 3341 3340 3335 3330 3321 3319 3311 3305 3294 3288 3273 3275 3267 3263 3262 3262 3259 3255 3242 3241 3230 3227 3227 3224 3220 3218 3213 3212 3206 3201 3200 3198 3192 3193 3194 3196 3198 3198 3204 3201 3205 3205 3205 3205 3211 3209 3210 3215 
3481 3477 3472 3473 3476 3472 3468 3466 3462 3464 3468 3467 3470 3460 3455 3458 3455 3458 3455 3448 3447 3436 3429 3426 3423 3423 3423 3421 3420 3414 3405 3408 3409 3401 3391 3396 3400 3398 3401 3397 3397 3404 3413 3410 3408 3411 3416 3410 3408 3406 3406 3407 3407 3409 3414 3413 3414 3409 3406 3402 3397 3389 3382 3384 3381 3374 3366 3366 3363 3361 3357 3357 3357 3355 3354 3352 3354 3347 3344 3343 3341 3334 3326 3322 3316 3306 3296 3294 3292 3280 3269 3268 3274 3263 3260 3257 3257 3251 3248 3236 3233 3220 3211 3211 3211 3205 3201 3198 3199 3189 3179 3183 3187 3181 3178 3179 3184 3183 3187 3185 3182 3185 3191 3190 3191 3191 3190 3196 3200 
3485 3482 3481 3479 3477 3475 3474 3470 3468 3468 3470 3474 3472 3467 3470 3471 3471 3470 3462 3455 3451 3443 3442 3431 3428 3428 3428 3429 3425 3421 3418 3415 3411 3409 3407 3402 3400 3400 3401 3400 3401 3408 3407 3412 3413 3411 3411 3411 3407 3405 3405 3408 3406 3405 3407 3412 3411 3407 3405 3402 3397 3386 3386 3381 3378 3370 3369 3359 3358 3356 3352 3349 3344 3344 3345 3342 3343 3342 3342 3337 3337 3330 3325 3314 3307 3292 3290 3279 3271 3266 3265 3257 3253 3252 3254 3252 3249 3243 3236 3223 3220 3209 3207 3195 3194 3191 3189 3182 3180 3173 3175 3168 3168 3169 3168 3163 3164 3164 3166 3169 3167 3165 3169 3174 3175 3175 3180 3184 3186 
3492 3488 3485 3484 3484 3478 3475 3472 3466 3472 3476 3479 3482 3476 3475 3479 3490 3477 3468 3461 3452 3452 3447 3437 3425 3432 3432 3433 3429 3426 3419 3419 3415 3413 3410 3407 3407 3405 3406 3403 3398 3408 3413 3415 3417 3415 3415 3407 3396 3401 3401 3405 3406 3406 3407 3410 3414 3404 3397 3397 3396 3387 3382 3380 3380 3372 3367 3359 3352 3350 3343 3340 3328 3335 3338 3337 3336 3337 3336 3335 3339 3325 3317 3307 3297 3285 3273 3264 3244 3251 3248 3244 3237 3239 3239 3238 3243 3231 3224 3213 3200 3197 3193 3186 3180 3178 3173 3170 3167 3164 3161 3158 3158 3157 3153 3152 3151 3149 3148 3150 3147 3151 3155 3158 3162 3165 3170 3170 3176 
3493 3494 3492 3491 3486 3480 3481 3479 3482 3481 3480 3484 3483 3483 3483 3481 3480 3480 3479 3472 3472 3466 3459 3448 3450 3443 3440 3443 3440 3437 3433 3427 3425 3421 3415 3412 3411 3409 3411 3411 3413 3414 3414 3419 3418 3420 3416 3408 3410 3405 3403 3405 3404 3406 3407 3407 3402 3398 3397 3393 3390 3386 3382 3377 3376 3371 3371 3361 3360 3349 3344 3340 3338 3332 3332 3334 3334 3334 3330 3328 3323 3316 3316 3303 3297 3279 3273 3260 3259 3247 3239 3236 3232 3228 3222 3220 3220 3216 3217 3207 3204 3187 3183 3179 3179 3171 3167 3160 3160 3156 3153 3148 3150 3148 3146 3142 3139 3136 3136 3139 3139 3139 3140 3142 3145 3154 3152 3153 3156 
3493 3492 3494 3493 3491 3487 3484 3487 3494 3491 3491 3490 3489 3489 3487 3487 3487 3483 3477 3480 3482 3474 3471 3464 3463 3456 3452 3450 3448 3444 3441 3438 3435 3427 3415 3415 3416 3416 3419 3419 3421 3421 3427 3422 3420 3420 3419 3417 3415 3412 3409 3407 3405 3407 3409 3404 3399 3392 3385 3384 3384 3378 3370 3373 3377 3372 3372 3365 3365 3351 3338 3340 3340 3335 3334 3332 3330 3327 3325 3319 3315 3309 3306 3295 3292 3271 3257 3255 3257 3241 3230 3224 3219 3214 3206 3207 3207 3205 3205 3199 3200 3183 3169 3172 3175 3165 3158 3154 3154 3147 3143 3142 3143 3139 3138 3132 3127 3124 3119 3126 3131 3132 3135 3132 3131 3136 3141 3140 3139 
3492 3490 3492 3496 3495 3496 3495 3493 3495 3501 3498 3496 3500 3500 3495 3493 3493 3491 3491 3490 3484 3479 3480 3475 3473 3467 3465 3459 3457 3452 3451 3450 3446 3438 3431 3418 3418 3422 3422 3427 3425 3424 3424 3425 3424 3423 3425 3426 3423 3420 3415 3409 3408 3408 3404 3402 3399 3388 3387 3377 3376 3372 3373 3371 3371 3370 3368 3364 3362 3354 3351 3343 3338 3334 3332 3330 3326 3319 3318 3309 3307 3299 3293 3280 3275 3259 3260 3247 3245 3233 3229 3212 3210 3203 3202 3197 3194 3193 3191 3186 3185 3179 3177 3167 3163 3156 3154 3144 3140 3137 3138 3137 3133 3129 3127 3124 3121 3114 3115 3118 3116 3123 3120 3122 3119 3119 3123 3129 3126 
3493 3491 3492 3494 3496 3499 3501 3500 3505 3503 3504 3505 3513 3504 3499 3501 3502 3500 3499 3495 3491 3488 3486 3482 3480 3475 3473 3468 3465 3461 3456 3456 3457 3446 3436 3427 3417 3423 3424 3430 3433 3430 3429 3426 3424 3427 3431 3430 3428 3424 3418 3413 3406 3405 3401 3401 3399 3390 3384 3377 3370 3369 3365 3368 3373 3364 3361 3359 3359 3350 3344 3341 3339 3332 3326 3323 3321 3317 3314 3306 3295 3289 3280 3271 3257 3251 3242 3240 3244 3226 3215 3206 3197 3197 3192 3188 3183 3183 3180 3176 3173 3168 3164 3160 3161 3148 3142 3133 3124 3127 3127 3126 3125 3118 3112 3111 3108 3105 3103 3105 3107 3106 3107 3104 3103 3106 3113 3112 3111 
3493 3491 3494 3495 3497 3504 3503 3504 3502 3504 3506 3507 3505 3506 3509 3510 3509 3509 3507 3501 3502 3497 3494 3488 3488 3483 3480 3476 3476 3473 3468 3461 3460 3455 3452 3439 3438 3432 3431 3436 3432 3435 3432 3428 3431 3430 3433 3437 3436 3431 3427 3419 3417 3408 3404 3403 3398 3391 3387 3377 3375 3370 3366 3364 3356 3352 3355 3353 3352 3346 3346 3338 3335 3329 3324 3316 3319 3317 3315 3307 3302 3285 3278 3267 3263 3248 3239 3230 3225 3215 3215 3203 3203 3196 3190 3183 3182 3177 3172 3168 3163 3157 3155 3149 3144 3134 3133 3124 3126 3122 3117 3117 3112 3107 3106 3103 3100 3095 3094 3095 3091 3088 3088 3086 3090 3092 3094 3095 3096 
3497 3494 3497 3497 3498 3504 3510 3506 3502 3506 3508 3506 3504 3506 3509 3513 3519 3518 3517 3512 3511 3504 3502 3498 3497 3489 3484 3483 3485 3479 3474 3471 3470 3463 3457 3449 3447 3441 3441 3438 3434 3435 3435 3435 3438 3438 3442 3445 3448 3440 3430 3425 3424 3412 3402 3402 3398 3392 3384 3376 3372 3366 3362 3354 3346 3344 3342 3346 3351 3345 3342 3335 3330 3322 3312 3315 3318 3315 3317 3309 3303 3284 3265 3261 3257 3240 3224 3219 3213 3205 3201 3197 3199 3188 3184 3177 3176 3166 3160 3154 3148 3145 3143 3135 3131 3120 3114 3114 3118 3112 3107 3102 3100 3094 3091 3090 3090 3084 3079 3081 3079 3076 3071 3074 3078 3080 3086 3084 3084 
3494 3493 3497 3500 3502 3505 3504 3509 3509 3510 3507 3507 3506 3505 3510 3517 3523 3527 3522 3521 3517 3509 3510 3506 3503 3494 3494 3489 3487 3484 3484 3481 3481 3473 3466 3455 3451 3447 3444 3442 3441 3439 3439 3440 3440 3443 3447 3454 3458 3452 3443 3428 3425 3415 3416 3405 3404 3398 3388 3371 3367 3360 3357 3346 3342 3337 3339 3338 3340 3343 3338 3330 3327 3318 3318 3314 3310 3309 3311 3309 3305 3285 3277 3258 3247 3231 3227 3211 3203 3194 3192 3186 3182 3175 3175 3166 3164 3154 3152 3142 3139 3134 3128 3120 3115 3104 3107 3103 3102 3102 3096 3085 3084 3080 3080 3077 3077 3075 3075 3071 3069 3066 3065 3063 3062 3064 3067 3072 3070 
3493 3495 3498 3501 3507 3505 3506 3508 3509 3509 3509 3507 3507 3508 3515 3522 3539 3527 3521 3521 3524 3517 3514 3510 3513 3502 3497 3492 3491 3488 3486 3487 3497 3479 3469 3457 3448 3445 3440 3442 3443 3444 3445 3443 3442 3445 3453 3461 3486 3459 3444 3435 3427 3424 3421 3415 3412 3399 3387 3373 3356 3355 3352 3341 3325 3333 3335 3334 3337 3334 3330 3324 3321 3314 3311 3308 3306 3305 3308 3306 3310 3283 3265 3250 3235 3222 3210 3199 3185 3183 3178 3173 3168 3164 3163 3157 3154 3147 3139 3131 3121 3118 3112 3106 3094 3095 3091 3092 3091 3088 3081 3075 3067 3067 3064 3064 3065 3065 3066 3061 3060 3056 3055 3052 3051 3051 3054 3055 3055 
3496 3496 3496 3500 3499 3502 3507 3508 3507 3509 3509 3508 3507 3507 3509 3519 3516 3524 3525 3521 3520 3521 3518 3510 3510 3505 3503 3494 3496 3493 3491 3487 3483 3477 3473 3457 3458 3445 3444 3443 3445 3449 3446 3445 3445 3443 3445 3452 3449 3454 3457 3442 3443 3435 3429 3422 3414 3402 3394 3378 3373 3355 3352 3344 3345 3336 3331 3329 3328 3327 3325 3318 3317 3306 3306 3304 3302 3299 3297 3298 3288 3272 3266 3242 3238 3215 3207 3192 3191 3177 3171 3163 3160 3151 3150 3145 3147 3141 3138 3125 3123 3108 3105 3101 3100 3092 3086 3083 3081 3079 3077 3070 3068 3060 3056 3052 3055 3057 3055 3050 3049 3043 3043 3040 3039 3036 3038 3041 3041 
3499 3498 3497 3499 3498 3503 3511 3507 3507 3508 3513 3508 3504 3504 3505 3508 3507 3515 3519 3518 3520 3518 3517 3513 3511 3505 3502 3499 3500 3496 3496 3488 3483 3474 3462 3461 3462 3450 3442 3445 3448 3449 3448 3447 3447 3444 3444 3443 3440 3444 3446 3446 3451 3438 3432 3421 3411 3399 3386 3377 3373 3359 3353 3351 3349 3342 3336 3328 3322 3321 3321 3314 3314 3301 3293 3293 3294 3288 3288 3282 3274 3258 3240 3232 3231 3207 3187 3186 3186 3172 3160 3153 3149 3140 3137 3137 3140 3135 3134 3124 3120 3105 3093 3095 3095 3085 3077 3075 3074 3071 3071 3067 3064 3054 3045 3047 3049 3047 3048 3042 3040 3033 3029 3026 3026 3025 3027 3027 3028 
3503 3502 3502 3504 3502 3501 3501 3504 3504 3505 3506 3509 3507 3503 3502 3502 3503 3510 3509 3515 3517 3516 3518 3515 3512 3505 3506 3502 3497 3496 3492 3487 3485 3474 3472 3463 3459 3453 3454 3449 3450 3453 3450 3450 3445 3442 3441 3438 3437 3438 3440 3447 3442 3436 3432 3422 3415 3397 3390 3373 3367 3358 3363 3360 3357 3350 3341 3326 3324 3315 3313 3306 3303 3291 3290 3281 3277 3272 3273 3270 3264 3248 3239 3216 3210 3196 3196 3181 3178 3168 3159 3143 3135 3126 3130 3129 3128 3125 3124 3117 3113 3100 3099 3091 3085 3079 3077 3068 3065 3060 3063 3063 3058 3049 3048 3042 3040 3037 3035 3030 3030 3023 3020 3012 3011 3014 3014 3015 3015 
3509 3506 3503 3505 3506 3503 3503 3501 3498 3500 3504 3504 3503 3501 3500 3500 3498 3504 3506 3513 3518 3518 3521 3517 3514 3511 3506 3500 3491 3492 3487 3485 3483 3475 3470 3464 3459 3454 3452 3451 3456 3453 3451 3446 3442 3439 3437 3434 3431 3432 3437 3437 3442 3430 3422 3416 3411 3396 3382 3371 3354 3361 3364 3363 3365 3350 3340 3328 3320 3314 3309 3302 3295 3286 3277 3270 3262 3260 3258 3254 3250 3234 3218 3204 3189 3185 3178 3174 3176 3155 3140 3129 3114 3116 3116 3120 3124 3119 3116 3109 3101 3093 3087 3083 3080 3072 3066 3060 3055 3054 3055 3052 3050 3043 3038 3036 3037 3029 3026 3021 3019 3012 3006 3000 2989 2999 3004 3004 3003 
3512 3511 3507 3507 3504 3503 3504 3500 3500 3496 3497 3503 3502 3500 3500 3501 3500 3502 3504 3513 3512 3518 3520 3521 3521 3519 3514 3503 3502 3494 3490 3484 3483 3476 3472 3465 3464 3454 3453 3449 3451 3454 3450 3444 3442 3437 3435 3431 3430 3425 3424 3424 3423 3420 3418 3409 3406 3395 3389 3375 3378 3369 3366 3366 3359 3348 3345 3328 3327 3314 3308 3299 3295 3281 3275 3263 3261 3251 3246 3240 3234 3220 3214 3195 3196 3180 3174 3164 3155 3139 3137 3121 3122 3110 3110 3112 3111 3113 3109 3103 3098 3087 3084 3074 3072 3063 3062 3054 3052 3046 3044 3042 3041 3035 3033 3027 3023 3016 3015 3009 3007 3001 3000 2993 2994 2989 2989 2994 2993 
3517 3512 3503 3506 3506 3506 3509 3504 3503 3499 3493 3498 3501 3499 3497 3499 3500 3500 3504 3509 3512 3516 3523 3524 3526 3523 3520 3511 3508 3498 3493 3488 3485 3477 3466 3466 3467 3456 3452 3449 3450 3447 3448 3441 3438 3434 3431 3428 3428 3423 3418 3415 3413 3409 3404 3400 3400 3388 3378 3379 3386 3376 3375 3367 3360 3349 3339 3330 3328 3313 3302 3296 3292 3275 3261 3257 3254 3241 3233 3226 3220 3207 3194 3188 3191 3173 3163 3151 3142 3126 3113 3113 3118 3107 3104 3104 3106 3101 3096 3092 3088 3079 3075 3067 3066 3055 3052 3045 3044 3037 3033 3033 3033 3028 3021 3016 3014 3005 3000 2996 2993 2989 2988 2987 2991 2984 2985 2983 2984 
3521 3518 3513 3509 3505 3506 3506 3505 3505 3504 3502 3498 3499 3501 3501 3499 3497 3497 3501 3507 3509 3514 3518 3526 3530 3528 3522 3513 3509 3500 3498 3491 3490 3483 3478 3466 3459 3452 3453 3445 3440 3436 3438 3437 3436 3431 3430 3424 3425 3424 3418 3408 3406 3400 3396 3388 3387 3379 3382 3377 3374 3374 3374 3369 3367 3349 3342 3327 3320 3308 3306 3293 3287 3269 3266 3251 3241 3228 3226 3211 3207 3194 3188 3172 3168 3160 3154 3135 3128 3112 3111 3100 3097 3096 3098 3097 3097 3090 3087 3082 3076 3067 3064 3055 3052 3042 3041 3030 3030 3026 3027 3026 3027 3023 3016 3005 3000 2990 2991 2985 2980 2977 2979 2977 2974 2972 2975 2972 2973 
3530 3518 3511 3507 3505 3506 3507 3506 3504 3506 3506 3504 3504 3503 3504 3500 3498 3498 3500 3505 3514 3514 3522 3527 3546 3529 3521 3513 3505 3500 3495 3493 3493 3485 3478 3468 3455 3454 3449 3443 3429 3433 3432 3432 3430 3428 3428 3424 3424 3420 3415 3406 3400 3394 3386 3382 3377 3376 3374 3373 3370 3370 3368 3369 3375 3350 3334 3321 3308 3304 3296 3290 3285 3267 3253 3242 3227 3220 3212 3203 3193 3183 3169 3159 3147 3142 3130 3119 3105 3100 3091 3086 3081 3080 3081 3085 3099 3081 3073 3066 3060 3054 3046 3041 3036 3030 3026 3019 3013 3015 3015 3018 3026 3012 3003 2994 2985 2982 2976 2970 2960 2967 2970 2968 2961 2964 2966 2965 2965 
3522 3514 3513 3505 3509 3509 3509 3509 3510 3512 3509 3508 3508 3506 3504 3501 3500 3498 3498 3501 3500 3506 3510 3516 3515 3521 3524 3516 3512 3500 3500 3494 3494 3489 3486 3475 3473 3461 3456 3449 3444 3435 3431 3429 3427 3424 3422 3420 3420 3418 3413 3404 3401 3390 3386 3379 3382 3375 3374 3371 3370 3368 3366 3364 3356 3344 3341 3318 3318 3305 3298 3289 3281 3263 3256 3237 3233 3215 3208 3197 3194 3177 3169 3150 3148 3131 3123 3108 3109 3092 3084 3074 3072 3065 3063 3066 3063 3063 3063 3052 3052 3045 3040 3030 3030 3019 3016 3009 3008 3006 3004 3007 3001 2996 2997 2986 2985 2977 2971 2961 2964 2962 2961 2964 2961 2958 2958 2960 2960 
3523 3514 3506 3508 3513 3511 3513 3512 3514 3512 3512 3510 3512 3507 3507 3501 3498 3496 3496 3495 3496 3501 3507 3505 3504 3509 3515 3512 3513 3504 3501 3498 3499 3491 3488 3481 3479 3467 3461 3452 3446 3437 3433 3425 3423 3418 3416 3414 3415 3412 3406 3401 3397 3387 3378 3382 3388 3379 3374 3372 3369 3367 3365 3358 3351 3339 3328 3317 3317 3300 3290 3283 3276 3258 3240 3233 3228 3210 3196 3193 3190 3174 3156 3148 3142 3123 3106 3105 3106 3085 3066 3062 3058 3049 3043 3044 3043 3042 3038 3037 3039 3032 3026 3023 3026 3012 3003 2998 2994 2992 2990 2990 2986 2983 2981 2977 2977 2967 2961 2958 2960 2958 2959 2956 2954 2953 2954 2954 2955 
3520 3513 3514 3509 3507 3510 3511 3513 3513 3512 3513 3510 3510 3505 3504 3498 3496 3494 3491 3490 3492 3498 3495 3496 3496 3499 3501 3506 3506 3503 3504 3501 3499 3490 3489 3484 3479 3469 3466 3454 3449 3435 3430 3417 3415 3409 3411 3408 3410 3409 3404 3398 3392 3383 3385 3383 3383 3382 3380 3376 3372 3366 3361 3353 3348 3335 3325 3308 3300 3289 3289 3279 3272 3255 3248 3227 3218 3202 3203 3190 3188 3173 3165 3144 3131 3113 3115 3102 3095 3078 3073 3052 3042 3033 3032 3027 3026 3024 3023 3021 3021 3020 3017 3010 3010 3003 2999 2988 2983 2981 2979 2978 2975 2971 2969 2964 2960 2956 2958 2953 2953 2952 2950 2949 2950 2948 2948 2950 2951 
3524 3518 3513 3509 3504 3509 3511 3513 3517 3514 3517 3513 3514 3505 3501 3496 3488 3488 3484 3485 3485 3489 3493 3489 3483 3490 3495 3497 3502 3498 3499 3499 3505 3491 3483 3479 3476 3468 3462 3453 3449 3435 3424 3415 3403 3407 3407 3408 3408 3403 3396 3392 3382 3381 3377 3381 3390 3381 3376 3373 3374 3363 3356 3348 3342 3325 3309 3297 3278 3279 3274 3271 3267 3250 3237 3222 3205 3199 3192 3188 3195 3170 3153 3136 3113 3108 3103 3098 3096 3073 3056 3041 3019 3018 3012 3011 3012 3007 3005 3004 3005 3003 2999 3000 3004 2993 2981 2975 2962 2967 2966 2966 2961 2959 2957 2951 2941 2946 2946 2946 2948 2943 2942 2942 2944 2941 2943 2943 2948 
3527 3523 3519 3511 3514 3512 3510 3513 3512 3512 3514 3514 3510 3502 3502 3497 3494 3486 3484 3483 3483 3483 3485 3487 3485 3483 3483 3488 3488 3491 3493 3492 3491 3488 3486 3476 3474 3467 3460 3448 3446 3432 3427 3416 3415 3409 3406 3410 3407 3401 3401 3393 3391 3384 3378 3376 3373 3377 3375 3366 3364 3356 3354 3343 3336 3317 3313 3294 3292 3276 3270 3265 3256 3241 3239 3221 3218 3197 3188 3178 3174 3162 3157 3136 3131 3105 3098 3091 3081 3063 3060 3039 3033 3011 3003 2996 2992 2989 2988 2987 2988 2988 2988 2987 2985 2984 2981 2970 2970 2961 2958 2959 2955 2949 2950 2944 2947 2942 2939 2939 2936 2931 2933 2934 2931 2931 2931 2933 2936 
3534 3528 3521 3519 3520 3515 3513 3513 3513 3513 3516 3511 3510 3502 3496 3494 3494 3487 3481 3481 3483 3482 3485 3481 3477 3478 3480 3481 3478 3484 3488 3488 3488 3482 3478 3472 3470 3459 3450 3445 3444 3427 3413 3412 3413 3408 3404 3408 3410 3403 3402 3394 3393 3380 3373 3367 3364 3366 3368 3360 3361 3349 3346 3337 3331 3313 3300 3293 3292 3273 3261 3252 3247 3234 3227 3219 3217 3194 3174 3169 3164 3152 3137 3132 3131 3103 3085 3077 3069 3054 3043 3032 3027 3005 2987 2980 2973 2970 2967 2970 2974 2974 2975 2973 2972 2970 2969 2966 2968 2957 2951 2949 2947 2944 2946 2943 2945 2938 2936 2931 2929 2924 2920 2922 2920 2919 2917 2922 2927 
3542 3536 3532 3527 3522 3517 3516 3515 3512 3512 3510 3506 3505 3500 3499 3490 3489 3487 3484 3480 3479 3477 3478 3477 3477 3475 3476 3479 3478 3480 3480 3484 3482 3475 3473 3465 3460 3449 3449 3439 3433 3419 3419 3408 3407 3408 3408 3409 3408 3402 3398 3391 3385 3372 3370 3357 3358 3357 3351 3346 3344 3336 3337 3329 3324 3306 3303 3287 3279 3265 3260 3238 3233 3223 3222 3213 3204 3188 3185 3163 3156 3146 3141 3126 3113 3094 3091 3063 3056 3042 3038 3022 3014 2998 2990 2966 2957 2953 2955 2953 2955 2959 2959 2960 2957 2956 2958 2958 2956 2949 2950 2942 2940 2935 2937 2939 2935 2931 2929 2923 2921 2918 2917 2916 2913 2909 2911 2911 2915 
3558 3542 3533 3529 3524 3518 3514 3512 3510 3510 3511 3504 3499 3499 3497 3490 3486 3483 3478 3478 3478 3476 3475 3473 3473 3471 3473 3473 3476 3475 3479 3479 3484 3472 3465 3457 3450 3444 3439 3433 3426 3416 3408 3404 3400 3403 3404 3408 3419 3403 3392 3385 3377 3369 3360 3351 3346 3344 3340 3334 3328 3326 3324 3319 3316 3301 3291 3280 3265 3256 3245 3231 3211 3214 3207 3203 3190 3183 3173 3160 3143 3141 3130 3117 3097 3089 3076 3059 3037 3032 3022 3013 2996 2987 2970 2955 2922 2941 2941 2943 2943 2947 2945 2945 2939 2945 2947 2948 2949 2943 2941 2936 2932 2931 2930 2929 2926 2922 2920 2914 2908 2908 2905 2906 2907 2906 2906 2906 2908 
3549 3544 3543 3532 3528 3519 3516 3512 3512 3508 3507 3502 3503 3501 3496 3490 3490 3484 3482 3478 3476 3476 3472 3470 3470 3466 3467 3467 3465 3466 3467 3471 3468 3466 3462 3451 3449 3440 3437 3430 3427 3413 3411 3403 3403 3403 3400 3402 3398 3399 3395 3381 3378 3367 3358 3344 3344 3335 3330 3322 3323 3318 3315 3308 3306 3294 3293 3278 3272 3250 3244 3231 3232 3217 3210 3202 3197 3181 3177 3164 3162 3145 3134 3118 3113 3090 3080 3061 3056 3030 3023 3012 3006 2987 2980 2964 2965 2949 2938 2937 2938 2942 2940 2939 2940 2939 2937 2940 2938 2935 2936 2929 2930 2929 2926 2924 2919 2913 2911 2906 2907 2903 2898 2897 2898 2902 2900 2902 2900 
3545 3542 3541 3532 3530 3519 3510 3512 3515 3511 3510 3503 3501 3498 3497 3493 3492 3485 3481 3477 3475 3471 3466 3466 3469 3465 3463 3460 3456 3455 3456 3457 3456 3452 3448 3442 3441 3434 3430 3427 3426 3414 3405 3402 3401 3397 3396 3392 3389 3386 3384 3375 3374 3358 3345 3338 3337 3328 3320 3315 3312 3308 3308 3301 3299 3288 3284 3274 3272 3251 3233 3234 3237 3222 3213 3203 3200 3185 3175 3169 3166 3148 3132 3120 3114 3091 3074 3066 3060 3036 3015 3011 3006 2989 2976 2976 2977 2960 2944 2939 2933 2935 2936 2937 2938 2935 2933 2933 2933 2932 2932 2927 2924 2921 2919 2913 2909 2904 2899 2899 2900 2893 2887 2890 2891 2893 2892 2892 2891 
3539 3538 3535 3528 3527 3517 3519 3512 3513 3513 3510 3502 3501 3495 3496 3494 3492 3486 3483 3475 3473 3470 3465 3459 3461 3462 3458 3454 3448 3443 3446 3446 3443 3439 3436 3428 3426 3425 3425 3422 3420 3412 3409 3399 3395 3388 3388 3383 3380 3375 3372 3364 3361 3348 3344 3329 3328 3320 3316 3306 3302 3294 3294 3291 3288 3277 3275 3265 3263 3249 3248 3236 3233 3224 3217 3199 3196 3185 3183 3171 3166 3152 3142 3119 3109 3088 3088 3070 3063 3042 3035 3011 3003 2990 2995 2988 2985 2972 2963 2943 2937 2930 2933 2937 2933 2931 2930 2929 2929 2928 2926 2924 2920 2915 2910 2903 2901 2897 2894 2892 2888 2885 2887 2886 2885 2888 2885 2883 2882 
3536 3533 3532 3527 3524 3520 3519 3518 3519 3515 3510 3504 3500 3497 3496 3494 3494 3486 3479 3473 3468 3464 3459 3456 3457 3455 3450 3445 3435 3437 3440 3436 3432 3429 3421 3416 3404 3412 3413 3415 3419 3408 3401 3394 3389 3383 3380 3375 3367 3364 3361 3354 3350 3337 3326 3321 3320 3311 3304 3297 3288 3285 3282 3280 3276 3268 3262 3258 3256 3243 3236 3234 3239 3222 3209 3198 3189 3183 3176 3171 3167 3150 3133 3117 3097 3090 3080 3073 3066 3046 3029 3014 2997 2997 2996 2997 3004 2981 2963 2950 2933 2933 2933 2932 2930 2928 2925 2926 2928 2922 2919 2915 2909 2904 2898 2894 2888 2886 2881 2880 2877 2877 2877 2879 2880 2879 2878 2876 2873 
3528 3526 3526 3526 3525 3522 3524 3524 3520 3518 3513 3505 3503 3498 3496 3494 3492 3488 3482 3473 3471 3461 3456 3450 3453 3453 3449 3441 3439 3430 3429 3429 3429 3425 3420 3411 3412 3407 3404 3406 3403 3401 3400 3389 3388 3377 3376 3370 3365 3356 3349 3341 3337 3325 3321 3310 3308 3302 3297 3290 3288 3279 3277 3272 3269 3259 3257 3249 3244 3233 3233 3227 3223 3218 3213 3197 3195 3183 3178 3170 3165 3150 3143 3121 3117 3097 3089 3078 3069 3048 3040 3019 3022 3008 3006 3002 2996 2985 2981 2962 2958 2939 2933 2930 2929 2929 2926 2923 2919 2914 2915 2910 2904 2894 2891 2887 2884 2879 2875 2871 2871 2870 2871 2873 2870 2871 2872 2872 2868 
3523 3519 3516 3519 3521 3521 3526 3522 3520 3515 3511 3504 3502 3495 3494 3494 3492 3485 3476 3472 3471 3458 3448 3449 3450 3446 3445 3437 3435 3428 3425 3424 3422 3418 3413 3410 3409 3405 3402 3396 3393 3392 3393 3386 3386 3373 3368 3360 3354 3343 3332 3327 3324 3312 3301 3296 3294 3285 3279 3277 3279 3271 3269 3265 3264 3254 3246 3240 3235 3225 3219 3215 3214 3205 3198 3192 3194 3180 3173 3170 3167 3150 3136 3123 3118 3099 3084 3077 3071 3049 3028 3028 3034 3021 3019 3008 3001 2988 2974 2970 2969 2948 2933 2929 2926 2923 2924 2917 2916 2909 2908 2900 2895 2884 2876 2875 2874 2867 2862 2862 2864 2863 2864 2863 2862 2864 2867 2863 2860 
3515 3513 3514 3515 3513 3516 3516 3519 3518 3511 3506 3498 3495 3488 3493 3496 3493 3485 3480 3471 3467 3455 3456 3449 3443 3439 3436 3430 3428 3422 3423 3423 3420 3414 3412 3407 3406 3403 3396 3386 3386 3383 3381 3379 3372 3363 3360 3348 3343 3330 3326 3313 3310 3299 3294 3279 3273 3266 3270 3263 3262 3259 3261 3256 3256 3248 3243 3231 3226 3216 3213 3201 3195 3191 3188 3179 3178 3170 3173 3170 3165 3147 3140 3117 3113 3100 3095 3076 3069 3052 3050 3033 3027 3025 3023 3012 3010 2994 2989 2977 2967 2953 2949 2929 2923 2915 2913 2906 2905 2900 2898 2890 2884 2872 2873 2865 2861 2855 2856 2851 2853 2855 2855 2854 2855 2859 2856 2854 2854 
3510 3507 3506 3507 3508 3509 3511 3512 3519 3505 3496 3492 3485 3485 3486 3491 3500 3483 3473 3468 3466 3455 3449 3443 3439 3432 3425 3422 3415 3416 3415 3416 3418 3409 3405 3402 3401 3396 3389 3382 3375 3375 3371 3366 3354 3352 3346 3338 3327 3321 3310 3304 3298 3288 3275 3266 3249 3257 3257 3254 3250 3251 3250 3250 3253 3241 3231 3221 3212 3207 3201 3190 3172 3175 3170 3169 3168 3163 3160 3164 3171 3147 3129 3115 3100 3097 3087 3076 3064 3058 3047 3038 3023 3026 3024 3018 3016 3000 2986 2978 2967 2956 2945 2932 2915 2912 2907 2898 2890 2891 2888 2879 2869 2864 2860 2854 2850 2848 2847 2846 2845 2847 2848 2846 2843 2850 2852 2849 2849 
3500 3499 3500 3502 3500 3501 3500 3499 3498 3494 3496 3489 3487 3483 3482 3484 3479 3477 3476 3464 3460 3450 3446 3438 3436 3425 3424 3420 3418 3412 3410 3409 3406 3402 3401 3396 3395 3392 3387 3378 3380 3372 3368 3362 3356 3345 3342 3334 3331 3318 3309 3295 3294 3282 3277 3262 3267 3258 3252 3249 3247 3245 3245 3244 3239 3232 3227 3212 3212 3201 3197 3187 3186 3168 3164 3162 3161 3156 3155 3155 3149 3143 3138 3117 3116 3102 3092 3079 3081 3069 3061 3049 3045 3034 3026 3020 3016 3007 3002 2984 2978 2960 2955 2941 2934 2914 2905 2892 2893 2887 2880 2872 2868 2855 2849 2841 2844 2841 2842 2843 2842 2842 2842 2839 2842 2846 2843 2843 2841 
3492 3493 3490 3492 3493 3494 3492 3491 3489 3487 3484 3483 3482 3479 3479 3475 3472 3467 3463 3456 3454 3443 3432 3432 3434 3422 3414 3415 3415 3409 3405 3402 3398 3395 3390 3390 3389 3384 3379 3378 3381 3370 3364 3354 3347 3339 3336 3330 3328 3312 3296 3292 3289 3279 3266 3267 3273 3260 3253 3244 3239 3239 3241 3235 3232 3222 3214 3205 3205 3193 3189 3186 3188 3171 3157 3157 3156 3149 3142 3142 3138 3131 3122 3117 3119 3103 3090 3087 3089 3074 3064 3054 3052 3037 3027 3021 3016 3007 3001 2990 2985 2965 2955 2944 2938 2916 2899 2892 2887 2881 2873 2865 2858 2846 2833 2831 2834 2832 2834 2833 2836 2837 2842 2836 2837 2838 2840 2835 2833 
3489 3491 3488 3484 3486 3490 3488 3487 3487 3483 3481 3477 3472 3472 3470 3468 3464 3457 3454 3445 3441 3436 3435 3426 3425 3418 3418 3411 3408 3405 3403 3396 3394 3392 3389 3386 3381 3378 3378 3375 3371 3364 3358 3345 3341 3331 3329 3324 3320 3307 3302 3288 3285 3279 3276 3268 3264 3258 3252 3237 3237 3234 3230 3226 3222 3212 3206 3191 3188 3180 3184 3182 3181 3171 3167 3153 3148 3143 3141 3133 3130 3124 3122 3113 3110 3101 3101 3093 3087 3076 3068 3051 3048 3037 3035 3024 3018 3007 3002 2991 2981 2962 2959 2943 2936 2916 2911 2892 2885 2877 2871 2858 2855 2838 2834 2819 2818 2820 2822 2822 2826 2830 2829 2828 2831 2830 2828 2826 2823 
3485 3486 3486 3482 3481 3484 3482 3484 3487 3481 3475 3470 3458 3461 3458 3456 3452 3449 3444 3435 3422 3427 3426 3424 3425 3417 3411 3407 3404 3400 3396 3390 3385 3384 3383 3379 3371 3371 3373 3370 3369 3356 3344 3334 3325 3320 3316 3313 3316 3300 3288 3282 3280 3274 3270 3266 3264 3252 3243 3234 3225 3225 3222 3217 3212 3202 3191 3180 3167 3171 3172 3175 3182 3167 3158 3149 3142 3137 3132 3126 3123 3119 3116 3110 3107 3098 3091 3089 3092 3073 3059 3050 3042 3035 3028 3023 3016 3005 2995 2985 2971 2960 2949 2941 2932 2915 2898 2887 2873 2869 2863 2855 2851 2835 2822 2813 2800 2810 2813 2815 2820 2820 2822 2821 2824 2820 2820 2816 2811 
3481 3483 3481 3480 3482 3483 3481 3480 3479 3480 3477 3470 3467 3459 3452 3448 3446 3443 3438 3429 3433 3426 3423 3421 3418 3415 3411 3405 3403 3395 3394 3385 3384 3378 3379 3377 3372 3365 3365 3363 3357 3347 3339 3322 3322 3311 3305 3298 3296 3289 3288 3275 3276 3270 3267 3262 3255 3245 3242 3231 3230 3221 3216 3210 3205 3193 3188 3174 3177 3166 3165 3166 3161 3157 3155 3143 3141 3132 3125 3116 3118 3113 3111 3107 3103 3095 3090 3082 3077 3067 3065 3050 3048 3036 3032 3025 3018 3002 2999 2986 2979 2961 2955 2940 2933 2915 2908 2888 2883 2865 2857 2848 2844 2831 2828 2813 2814 2809 2803 2805 2805 2811 2810 2810 2808 2808 2808 2807 2803 
3475 3476 3477 3477 3479 3479 3480 3477 3474 3474 3472 3467 3464 3455 3444 3441 3438 3435 3429 3431 3434 3428 3425 3417 3411 3406 3402 3402 3403 3395 3392 3384 3380 3375 3376 3370 3366 3362 3364 3354 3346 3335 3320 3316 3314 3301 3289 3286 3283 3277 3272 3270 3273 3263 3259 3250 3245 3236 3230 3226 3228 3215 3210 3202 3198 3186 3174 3173 3177 3166 3163 3155 3150 3145 3141 3136 3133 3121 3111 3111 3112 3106 3101 3099 3095 3085 3078 3073 3068 3059 3052 3047 3048 3035 3027 3022 3018 3003 2992 2982 2975 2959 2950 2938 2931 2912 2900 2889 2883 2863 2844 2839 2835 2825 2819 2813 2813 2804 2798 2793 2791 2796 2802 2796 2795 2795 2795 2793 2791 
3467 3471 3471 3474 3473 3477 3475 3475 3475 3470 3469 3465 3464 3453 3450 3435 3433 3431 3434 3434 3430 3427 3423 3413 3408 3399 3401 3398 3396 3391 3388 3381 3375 3366 3366 3363 3361 3354 3353 3346 3342 3330 3325 3310 3303 3290 3288 3274 3268 3264 3265 3263 3258 3252 3248 3235 3233 3224 3223 3215 3210 3202 3202 3192 3188 3180 3178 3169 3162 3158 3155 3144 3142 3133 3133 3127 3122 3110 3112 3107 3103 3099 3098 3093 3086 3075 3074 3064 3061 3052 3049 3040 3036 3030 3030 3020 3019 3003 2997 2978 2969 2950 2947 2932 2922 2903 2902 2885 2875 2860 2854 2832 2825 2817 2816 2808 2805 2799 2792 2779 2780 2781 2779 2779 2782 2784 2782 2781 2780 
3455 3462 3465 3466 3465 3471 3472 3474 3476 3470 3470 3468 3468 3458 3448 3438 3424 3432 3433 3434 3431 3428 3421 3413 3398 3399 3397 3395 3393 3386 3378 3373 3363 3362 3358 3356 3352 3350 3347 3339 3329 3324 3315 3305 3293 3286 3277 3266 3248 3256 3253 3251 3245 3241 3234 3225 3214 3212 3208 3203 3196 3193 3188 3183 3172 3170 3165 3158 3148 3147 3144 3138 3131 3127 3124 3119 3110 3104 3099 3099 3096 3091 3088 3084 3078 3070 3063 3056 3050 3045 3038 3031 3024 3025 3024 3021 3026 3004 2989 2975 2957 2945 2931 2921 2904 2899 2889 2876 2858 2854 2843 2829 2807 2811 2807 2802 2796 2789 2778 2773 2764 2769 2768 2768 2766 2768 2769 2768 2769 
3460 3459 3460 3463 3468 3472 3472 3474 3470 3467 3469 3469 3469 3465 3459 3447 3449 3441 3438 3438 3436 3434 3429 3420 3416 3403 3398 3395 3392 3382 3381 3373 3372 3362 3358 3353 3351 3347 3344 3336 3333 3322 3315 3303 3301 3287 3282 3267 3269 3259 3250 3246 3243 3234 3229 3217 3216 3203 3201 3195 3193 3186 3184 3180 3177 3166 3160 3150 3150 3140 3138 3133 3131 3123 3121 3116 3110 3098 3099 3097 3092 3084 3084 3080 3075 3066 3060 3050 3050 3043 3036 3025 3026 3022 3017 3016 3011 3001 2996 2977 2969 2945 2936 2918 2918 2900 2889 2872 2872 2858 2850 2835 2832 2814 2806 2799 2795 2785 2780 2772 2770 2763 2760 2760 2756 2756 2756 2754 2755 
3466 3464 3463 3468 3473 3476 3480 3474 3470 3468 3465 3470 3473 3467 3459 3457 3460 3451 3450 3445 3441 3436 3431 3424 3421 3408 3397 3398 3395 3386 3377 3376 3376 3365 3354 3351 3348 3344 3343 3334 3328 3317 3307 3301 3299 3287 3281 3276 3275 3261 3249 3244 3239 3229 3221 3215 3211 3201 3192 3188 3185 3180 3176 3175 3175 3163 3154 3147 3146 3137 3134 3128 3124 3117 3115 3109 3105 3098 3092 3090 3089 3082 3078 3072 3066 3057 3046 3045 3044 3036 3028 3023 3022 3014 3009 3007 3006 2995 2983 2973 2968 2944 2925 2923 2925 2902 2883 2874 2871 2859 2851 2843 2839 2820 2806 2797 2789 2779 2767 2767 2768 2760 2755 2747 2741 2743 2749 2743 2742 
3469 3469 3471 3474 3475 3479 3476 3475 3474 3470 3471 3473 3472 3471 3470 3464 3460 3455 3456 3452 3447 3441 3435 3427 3424 3414 3413 3406 3400 3392 3389 3381 3376 3368 3364 3352 3344 3339 3337 3329 3327 3313 3307 3295 3288 3282 3285 3281 3275 3263 3259 3245 3235 3222 3221 3211 3207 3198 3194 3181 3180 3175 3174 3170 3166 3158 3153 3138 3136 3131 3130 3122 3119 3109 3108 3101 3102 3097 3092 3085 3084 3080 3074 3064 3062 3050 3050 3042 3038 3031 3027 3017 3013 3006 3005 2998 2998 2990 2982 2967 2957 2940 2939 2925 2918 2901 2895 2872 2868 2859 2858 2847 2841 2824 2816 2795 2788 2775 2773 2764 2760 2755 2746 2733 2731 2729 2728 2728 2729 
3473 3473 3475 3478 3485 3480 3479 3475 3473 3473 3473 3477 3481 3475 3472 3468 3465 3460 3458 3452 3447 3441 3433 3429 3426 3418 3412 3409 3408 3397 3391 3386 3381 3371 3363 3352 3334 3337 3333 3328 3324 3309 3295 3286 3270 3278 3280 3278 3277 3264 3253 3242 3227 3221 3215 3207 3200 3194 3189 3180 3173 3170 3169 3164 3163 3151 3143 3134 3124 3123 3121 3115 3111 3105 3101 3099 3097 3090 3083 3079 3079 3071 3065 3059 3059 3048 3044 3038 3036 3025 3016 3009 3002 2998 2994 2994 2996 2980 2966 2955 2941 2933 2926 2923 2924 2901 2885 2872 2861 2859 2855 2848 2843 2824 2808 2795 2779 2772 2766 2760 2756 2743 2729 2721 2710 2715 2716 2715 2717 
3476 3477 3477 3480 3475 3478 3476 3474 3477 3477 3479 3482 3478 3479 3479 3474 3471 3464 3460 3453 3451 3443 3437 3431 3428 3421 3419 3410 3408 3399 3399 3392 3388 3375 3372 3360 3356 3342 3333 3327 3321 3307 3302 3286 3291 3283 3277 3275 3273 3265 3261 3245 3240 3221 3216 3204 3203 3192 3187 3177 3175 3166 3162 3155 3153 3143 3143 3134 3129 3118 3113 3108 3107 3101 3101 3098 3093 3086 3080 3072 3069 3060 3058 3050 3049 3042 3039 3031 3027 3017 3014 3003 3001 2990 2990 2989 2981 2970 2964 2946 2946 2928 2925 2917 2910 2896 2891 2873 2874 2861 2856 2848 2841 2824 2817 2798 2791 2771 2763 2754 2746 2732 2727 2713 2713 2705 2701 2700 2702 
3480 3478 3480 3475 3470 3472 3469 3472 3478 3480 3485 3481 3479 3480 3484 3478 3475 3465 3458 3454 3451 3440 3429 3429 3427 3422 3420 3414 3413 3404 3399 3397 3397 3383 3372 3363 3359 3344 3332 3324 3319 3305 3291 3294 3302 3290 3282 3278 3273 3266 3259 3248 3243 3225 3213 3205 3202 3188 3179 3172 3169 3161 3155 3149 3145 3137 3134 3126 3124 3111 3104 3101 3099 3096 3096 3091 3088 3077 3065 3063 3062 3052 3046 3042 3042 3032 3026 3021 3018 3008 3000 2995 2995 2984 2982 2979 2974 2960 2945 2941 2944 2925 2914 2907 2904 2887 2872 2871 2877 2862 2854 2847 2840 2821 2805 2794 2789 2766 2750 2742 2733 2721 2710 2706 2705 2695 2689 2689 2690 
3478 3477 3475 3473 3473 3471 3471 3470 3473 3482 3480 3480 3480 3480 3479 3479 3477 3466 3465 3456 3451 3439 3439 3432 3427 3423 3421 3415 3412 3406 3406 3402 3400 3388 3381 3364 3358 3346 3338 3321 3316 3305 3306 3299 3296 3293 3291 3282 3278 3267 3259 3245 3238 3223 3220 3204 3196 3180 3177 3163 3159 3154 3150 3142 3135 3126 3123 3115 3111 3100 3101 3094 3093 3089 3086 3082 3078 3069 3066 3053 3050 3043 3040 3032 3029 3020 3019 3012 3006 2997 2995 2984 2979 2971 2974 2971 2966 2954 2947 2932 2926 2917 2914 2896 2891 2877 2878 2865 2863 2858 2857 2848 2839 2816 2808 2786 2776 2755 2753 2734 2725 2712 2710 2698 2693 2684 2685 2679 2681 
3479 3476 3472 3473 3471 3472 3474 3473 3473 3478 3481 3478 3477 3477 3480 3477 3480 3470 3464 3459 3453 3444 3436 3432 3427 3422 3419 3413 3409 3407 3404 3404 3411 3391 3375 3364 3353 3343 3329 3321 3307 3308 3304 3303 3301 3295 3290 3284 3283 3266 3253 3240 3225 3220 3212 3201 3190 3176 3164 3154 3142 3142 3138 3130 3118 3115 3108 3103 3096 3092 3089 3086 3087 3079 3076 3070 3068 3062 3057 3049 3041 3031 3023 3021 3020 3011 3004 2999 2990 2988 2982 2974 2962 2962 2959 2957 2957 2942 2930 2921 2912 2906 2900 2889 2880 2873 2867 2861 2859 2850 2845 2841 2841 2812 2791 2776 2759 2749 2737 2724 2707 2706 2698 2691 2680 2678 2675 2673 2674 
3480 3477 3476 3477 3476 3475 3476 3477 3476 3477 3475 3476 3475 3474 3472 3472 3474 3471 3470 3463 3458 3448 3443 3434 3431 3419 3416 3409 3412 3409 3404 3400 3397 3390 3386 3366 3365 3347 3341 3330 3327 3316 3313 3310 3304 3298 3291 3283 3277 3261 3257 3240 3237 3220 3213 3199 3192 3171 3164 3150 3146 3135 3131 3123 3121 3109 3105 3096 3093 3085 3081 3074 3073 3066 3065 3057 3058 3056 3052 3045 3038 3020 3018 3011 3009 3002 3001 2992 2990 2983 2977 2970 2966 2956 2949 2944 2939 2930 2927 2913 2911 2897 2893 2882 2881 2868 2862 2854 2851 2840 2839 2830 2821 2803 2796 2769 2767 2745 2736 2720 2723 2710 2701 2691 2686 2676 2669 2665 2665 
3485 3478 3473 3479 3483 3480 3484 3481 3479 3477 3477 3476 3472 3471 3467 3471 3474 3471 3466 3461 3457 3446 3437 3436 3436 3422 3409 3411 3413 3406 3400 3398 3397 3388 3379 3372 3372 3352 3337 3336 3336 3325 3319 3313 3307 3297 3284 3279 3275 3260 3247 3238 3235 3219 3209 3196 3187 3167 3145 3140 3137 3129 3125 3117 3114 3104 3097 3089 3086 3077 3071 3067 3063 3057 3053 3046 3045 3043 3042 3034 3030 3015 3000 3000 3003 2995 2993 2985 2982 2973 2967 2961 2957 2945 2937 2931 2925 2917 2908 2903 2905 2891 2883 2877 2877 2860 2848 2845 2844 2833 2827 2817 2809 2792 2774 2767 2765 2742 2722 2722 2726 2710 2697 2687 2679 2668 2658 2657 2656 
3486 3480 3482 3483 3480 3481 3483 3486 3482 3477 3479 3479 3475 3472 3473 3473 3472 3473 3467 3458 3453 3442 3445 3440 3433 3424 3423 3414 3408 3405 3404 3397 3394 3389 3384 3373 3367 3353 3355 3344 3340 3330 3328 3318 3314 3301 3294 3277 3271 3257 3250 3233 3226 3213 3209 3191 3188 3168 3157 3131 3124 3119 3117 3108 3109 3099 3093 3080 3076 3069 3066 3060 3056 3048 3043 3032 3031 3029 3028 3022 3021 3010 3004 2989 2985 2985 2982 2975 2972 2963 2960 2951 2946 2933 2932 2921 2917 2907 2899 2888 2884 2880 2878 2869 2864 2850 2849 2836 2831 2822 2816 2802 2799 2782 2777 2760 2751 2736 2736 2721 2719 2708 2700 2682 2673 2662 2659 2649 2647 
3494 3485 3481 3483 3485 3483 3485 3485 3484 3482 3481 3479 3474 3475 3476 3476 3475 3471 3465 3457 3446 3446 3443 3440 3434 3427 3419 3414 3405 3407 3404 3397 3390 3386 3379 3372 3363 3358 3353 3350 3350 3337 3328 3321 3320 3304 3293 3280 3269 3255 3238 3227 3213 3207 3198 3189 3184 3164 3144 3126 3101 3107 3104 3102 3104 3090 3082 3070 3058 3056 3050 3049 3046 3039 3031 3024 3013 3016 3017 3011 3011 2999 2989 2979 2967 2971 2967 2965 2960 2954 2946 2942 2935 2925 2917 2910 2906 2892 2879 2871 2860 2863 2860 2858 2856 2844 2833 2827 2821 2811 2799 2792 2788 2772 2757 2749 2735 2731 2722 2721 2726 2702 2686 2672 2654 2653 2646 2642 2637 
3492 3488 3488 3485 3484 3483 3485 3486 3487 3489 3487 3483 3481 3478 3481 3483 3478 3474 3471 3460 3461 3455 3450 3446 3440 3431 3429 3420 3419 3414 3407 3400 3397 3388 3384 3373 3372 3363 3360 3353 3348 3340 3333 3319 3317 3305 3298 3281 3277 3258 3247 3227 3222 3205 3197 3184 3177 3160 3151 3128 3124 3104 3097 3094 3086 3078 3075 3060 3062 3050 3047 3043 3041 3032 3031 3023 3018 3005 3001 2996 2994 2986 2984 2972 2976 2967 2963 2958 2955 2950 2945 2937 2929 2915 2909 2899 2891 2878 2874 2860 2863 2855 2850 2847 2844 2838 2834 2821 2817 2804 2795 2781 2776 2763 2759 2744 2744 2732 2725 2716 2706 2691 2688 2669 2668 2651 2645 2638 2632 
3494 3489 3486 3487 3488 3487 3488 3488 3490 3491 3492 3487 3485 3483 3489 3483 3480 3477 3476 3468 3467 3459 3455 3448 3443 3436 3431 3426 3426 3417 3410 3403 3397 3391 3386 3379 3376 3367 3362 3354 3348 3336 3323 3321 3319 3303 3288 3281 3277 3256 3237 3227 3221 3202 3188 3177 3168 3150 3134 3125 3123 3103 3089 3078 3069 3063 3058 3055 3057 3047 3038 3040 3041 3031 3024 3018 3013 3001 2992 2985 2978 2973 2968 2969 2976 2966 2960 2952 2946 2940 2936 2926 2920 2904 2890 2880 2873 2861 2854 2854 2859 2848 2841 2838 2833 2828 2821 2815 2811 2792 2774 2768 2764 2752 2744 2739 2743 2727 2718 2707 2698 2681 2667 2665 2669 2649 2637 2629 2622 
3492 3490 3490 3490 3491 3491 3490 3491 3492 3493 3491 3489 3488 3483 3483 3481 3483 3478 3475 3470 3467 3459 3457 3451 3447 3440 3435 3429 3424 3420 3416 3408 3403 3395 3389 3381 3375 3368 3363 3353 3349 3336 3334 3324 3316 3303 3298 3279 3270 3253 3247 3224 3215 3197 3191 3171 3159 3140 3136 3116 3111 3098 3088 3061 3057 3050 3052 3046 3047 3043 3044 3040 3034 3027 3026 3013 3009 2994 2990 2975 2967 2961 2964 2961 2961 2962 2957 2946 2942 2931 2928 2914 2908 2891 2883 2860 2851 2841 2848 2846 2844 2840 2842 2834 2830 2822 2818 2809 2802 2782 2776 2753 2745 2737 2738 2727 2724 2715 2714 2698 2690 2671 2671 2658 2650 2641 2637 2619 2608 
3493 3490 3489 3492 3498 3493 3491 3493 3498 3494 3492 3489 3488 3485 3484 3483 3484 3478 3474 3469 3463 3458 3453 3449 3443 3438 3431 3426 3419 3417 3413 3407 3402 3394 3385 3377 3367 3364 3358 3352 3345 3337 3330 3323 3315 3303 3291 3277 3263 3250 3235 3221 3205 3193 3177 3162 3140 3133 3121 3112 3099 3089 3070 3054 3031 3041 3043 3043 3041 3040 3037 3037 3034 3028 3024 3014 3005 2992 2979 2965 2941 2953 2958 2958 2956 2954 2946 2941 2933 2928 2921 2909 2894 2882 2863 2846 2815 2830 2835 2839 2836 2837 2837 2832 2825 2819 2811 2805 2796 2779 2759 2743 2717 2726 2724 2721 2712 2709 2701 2691 2675 2668 2659 2651 2637 2633 2622 2608 2584 
