238 238 239 238 238 236 236 235 235 233 233 232 233 232 232 231 231 229 229 226 226 223 223 221 221 220 220 218 218 216 217 216 216 215 215 213 213 210 209 207 207 203 201 201 201 199 199 198 198 197 196 195 195 195 196 195 195 195 195 193 193 191 190 189 189 187 188 185 184 184 185 185 185 184 185 184 183 183 184 183 184 185 188 187 187 188 189 188 188 187 188 187 187 187 187 187 188 189 190 190 191 192 193 192 193 194 196 195 196 196 197 197 198 198 200 199 200 200 201 201 202 202 204 204 206 208 211 211 211 214 218 217 218 217 216 216 217 217 218 217 218 217 218 217 217 217 217 217 218 217 217 215 215 214 215 214 214 213 215 215 216 217 218 219 220 220 221 220 221 222 224 223 224 224 225 224 223 223 224 223 225 224 225 223 223 224 226 225 225 226 228 227 226 226 226 225 226 222 221 221 222 220 219 217 217 216 217 216 216 215 214 213 213 210 208 208 209 207 206 204 204 203 204 203 204 204 204 203 204 203 203 203 203 204 206 204 204 204 204 202 203 202 201 200 201 200 200 198 199 197 197 195 195 192 191 190 191 189 189 187 187 185 184 184 185 184 185 183 183 182 182 181 182 181 181 180 180 178 178 178 180 180 181 179 180 179 180 178 178 178 179 178 177 176 177 176 177 176 177 177 177 176 177 175 175 174 175 173 173 173 174 172 172 170 170 168 168 166 166 166 167 166 166 165 165 168 172 171 171 173 176 176 177 178 180 181 182 184 187 187 189 190 192 192 193 196 199 199 200 201 203 202 203 204 206 207 209 210 213 212 212 214 216 215 217 217 217 217 218 220 222 222 223 223 225 225 226 227 229 230 231 231 233 232 232 232 234 234 236 236 238 237 238 239 241 240 240 241 243 242 241 243 244 244 246 245 245 245 246 246 248 246 246 246 248 249 250 252 255 255 255 255 255 255 255 255 255 255 255 255 255 255 255 255 255 255 255 255 255 255 255 255 255 255 255 255 255 255 255 255 255 255 255 255 255 255 255 255 255 255 255 255 255 255 255 255 255 255 255 255 255 255 255 255 255 255 255 255 255 255 255 255 255 255 255 255 255 255 255 255 255 255 255 255 255 255 255 255 255 255 255 255 255 255 255 255 255 255 255 255 255 255 255
238 238 238 238 238 237 236 235 235 233 233 233 233 233 232 232 231 230 229 226 226 225 224 223 222 221 219 218 217 216 216 216 216 215 214 213 212 211 210 209 208 205 205 203 202 201 201 200 200 199 198 197 197 197 196 196 196 196 195 194 195 194 193 192 191 190 189 187 186 185 185 186 186 186 185 185 184 183 183 184 185 186 186 188 189 189 189 189 189 189 188 188 188 188 188 189 189 190 190 191 192 193 193 193 193 195 195 197 198 198 197 197 198 198 199 200 200 201 200 201 202 203 203 205 207 209 208 210 211 213 213 216 217 217 217 217 217 217 217 218 217 217 217 217 217 216 216 216 217 217 216 216 216 215 214 214 214 213 214 215 216 217 218 220 221 222 221 221 222 223 223 224 224 224 223 223 223 222 222 222 223 224 223 223 224 223 224 225 226 226 225 225 225 224 223 223 223 222 222 221 222 221 220 218 217 216 217 217 217 216 215 214 213 210 211 210 210 208 207 205 205 205 205 205 205 205 205 204 204 204 204 203 203 204 204 205 205 204 203 202 202 202 201 200 200 200 200 199 199 198 197 195 195 193 193 192 192 191 190 188 188 187 187 186 186 186 185 185 184 183 183 183 182 182 182 181 181 180 180 181 181 182 181 181 181 181 180 179 180 180 179 179 179 178 177 177 177 177 177 178 178 177 176 175 175 173 173 172 173 174 174 174 174 172 171 170 170 169 169 169 169 169 168 168 168 168 168 170 171 173 173 176 177 178 178 179 180 182 183 186 188 190 190 192 193 196 196 200 200 201 200 200 201 202 203 206 207 209 209 211 212 213 213 214 216 217 217 217 218 220 220 222 223 224 224 224 226 228 228 230 230 230 231 232 233 233 233 235 235 237 237 238 238 239 239 241 241 241 240 241 241 242 242 244 244 244 245 245 245 246 246 246 247 246 247 249 250 252 254 255 255 255 255 255 255 255 255 255 255 255 255 255 255 255 255 255 255 255 255 255 255 255 255 255 255 255 255 255 255 255 255 255 255 255 255 255 255 255 255 255 255 255 255 255 255 255 255 255 255 255 255 255 255 255 255 255 255 255 255 255 255 255 255 255 255 255 255 255 255 255 255 255 255 255 255 255 255 255 255 255 255 255 255 255 255 255 255 255 255 255 255 255 255
240 238 238 238 240 237 236 235 237 234 234 233 234 233 233 232 232 230 229 227 227 225 224 223 224 221 219 218 217 217 217 217 217 216 215 213 212 211 210 210 212 207 206 204 205 202 202 201 202 200 200 199 200 198 197 197 198 197 197 196 198 196 195 194 195 192 191 189 187 187 187 187 188 187 186 186 186 185 185 185 187 187 188 189 192 190 191 190 190 189 190 189 190 189 190 190 192 192 193 193 196 195 195 194 194 195 197 198 201 199 199 199 200 200 201 201 202 201 201 202 204 204 205 207 211 209 210 210 211 212 214 215 218 217 217 217 218 217 218 218 218 217 217 217 219 217 217 217 218 216 216 216 217 215 215 214 214 214 216 216 218 218 219 221 225 223 223 222 223 223 224 224 226 224 223 222 222 221 222 222 223 223 223 223 225 224 225 225 227 225 225 224 224 223 222 221 221 221 222 222 225 221 220 219 218 217 218 218 219 217 215 214 214 212 212 212 214 210 208 207 207 207 207 207 208 207 207 206 206 205 205 204 204 204 205 205 206 204 204 203 203 202 202 201 201 200 200 199 199 198 197 196 197 195 194 193 194 192 192 190 190 188 188 187 188 186 186 185 186 184 184 183 184 183 183 182 183 182 182 183 184 183 184 183 184 182 181 181 183 182 182 180 180 179 179 178 180 178 179 179 180 177 176 175 175 173 173 173 174 174 175 175 177 174 173 172 173 171 172 172 174 171 171 170 171 170 171 170 170 172 175 176 179 178 178 178 180 181 184 186 189 189 191 192 194 195 198 199 203 200 200 199 199 201 203 205 207 208 210 210 212 212 213 214 217 216 217 217 218 220 222 223 225 224 225 225 227 228 230 230 232 230 231 232 234 234 235 235 237 237 238 238 240 239 240 241 244 242 241 240 241 241 243 244 246 244 245 245 246 245 246 246 248 247 248 249 251 253 255 255 255 255 255 255 255 255 255 255 255 255 255 255 255 255 255 255 255 255 255 255 255 255 255 255 255 255 255 255 255 255 255 255 255 255 255 255 255 255 255 255 255 255 255 255 255 255 255 255 255 255 255 255 255 255 255 255 255 255 255 255 255 255 255 255 255 255 255 255 255 255 255 255 255 255 255 255 255 255 255 255 255 255 255 255 255 255 255 255 255 255 255 255 255
239 238 238 238 237 237 237 235 235 235 234 232 233 233 233 233 232 231 230 228 227 225 225 224 223 222 221 219 219 218 218 218 217 217 216 214 214 212 212 211 209 207 207 205 205 203 203 202 202 202 202 201 200 198 198 198 198 198 198 198 197 197 197 195 195 194 193 191 191 189 188 188 188 188 188 187 186 186 186 186 186 188 188 190 189 191 191 191 191 190 190 190 190 190 191 192 192 193 193 195 195 196 196 195 196 196 196 198 198 200 200 200 200 201 201 201 201 202 202 203 203 205 205 207 207 209 209 209 210 212 212 215 215 217 218 218 217 217 218 218 217 216 217 217 217 217 217 217 217 216 216 216 215 214 215 215 215 215 215 216 217 219 219 221 220 223 223 223 223 223 223 224 223 223 222 221 221 221 221 222 222 222 222 223 223 224 224 225 224 225 224 223 223 222 221 221 221 220 221 221 221 221 221 220 219 218 218 218 218 218 217 215 215 215 214 214 213 212 211 209 209 209 208 208 208 209 209 208 208 207 206 204 205 205 205 205 205 205 205 204 204 204 203 201 201 201 200 198 198 198 197 196 196 196 196 195 194 193 193 191 191 190 189 188 187 186 186 185 185 185 185 184 184 184 184 184 183 183 184 185 184 185 185 185 184 183 183 183 183 184 183 181 181 181 180 179 179 179 179 179 178 178 178 177 176 174 174 173 174 175 175 176 175 175 176 175 174 173 174 174 173 173 173 171 171 172 172 172 172 173 173 175 175 177 177 177 178 181 182 185 185 189 190 192 192 195 196 198 198 199 200 199 199 201 201 204 204 207 208 210 210 211 212 213 213 216 217 218 218 220 221 223 223 224 225 226 227 229 229 231 230 230 231 232 232 234 234 235 235 237 238 239 239 240 240 241 241 242 242 240 240 241 241 243 243 244 245 245 244 245 245 245 246 247 247 248 250 253 255 255 255 255 255 255 255 255 255 255 255 255 255 255 255 255 255 255 255 255 255 255 255 255 255 255 255 255 255 255 255 255 255 255 255 255 255 255 255 255 255 255 255 255 255 255 255 255 255 255 255 255 255 255 255 255 255 255 255 255 255 255 255 255 255 255 255 255 255 255 255 255 255 255 255 255 255 255 255 255 255 255 255 255 255 255 255 255 255 255 255 255 255 255 255
239 238 238 238 238 237 237 236 236 234 233 232 234 233 234 233 233 231 231 229 228 226 225 223 223 222 222 220 220 219 219 218 219 218 217 215 215 213 213 211 210 207 207 206 207 204 205 204 204 203 204 202 202 199 199 199 199 198 198 198 199 198 198 197 198 196 194 193 194 191 190 190 190 190 190 188 188 187 186 187 188 189 190 190 190 191 193 192 193 192 192 192 193 193 194 193 193 194 195 195 196 196 197 197 198 198 198 198 199 200 201 201 202 202 202 202 202 203 204 204 205 205 207 206 207 208 210 209 210 211 213 214 215 217 219 218 219 218 219 218 217 217 217 217 217 217 217 217 218 217 217 216 216 215 215 215 216 216 217 217 218 219 221 220 220 222 224 223 224 223 224 222 222 221 221 221 222 221 221 221 222 222 222 222 222 223 225 224 224 224 224 223 223 221 220 220 222 221 222 221 221 220 221 220 221 219 219 219 220 219 219 217 218 216 216 215 215 213 212 211 213 211 211 210 211 211 211 210 210 208 208 206 206 206 207 205 205 205 207 206 206 205 205 203 203 201 200 199 199 198 197 197 198 197 197 197 197 196 196 193 193 191 190 188 188 186 186 186 187 186 186 185 185 184 185 185 185 186 188 187 187 187 188 186 186 184 184 185 186 185 186 183 183 182 182 180 179 179 180 179 179 178 179 178 179 176 175 175 176 176 177 177 177 177 178 177 177 176 176 175 176 175 176 173 173 172 173 173 174 174 176 175 175 176 178 177 179 180 183 184 185 187 191 191 192 194 197 197 197 198 200 198 199 200 203 203 203 206 209 209 210 211 213 213 213 215 218 218 219 220 223 222 223 224 226 226 228 229 232 231 230 230 231 232 233 234 235 235 236 237 239 239 239 240 241 241 241 241 242 240 241 240 241 241 242 243 245 244 244 244 246 245 246 246 247 248 251 254 255 255 255 255 255 255 255 255 255 255 255 255 255 255 255 255 255 255 255 255 255 255 255 255 255 255 255 255 255 255 255 255 255 255 255 255 255 255 255 255 255 255 255 255 255 255 255 255 255 255 255 255 255 255 255 255 255 255 255 255 255 255 255 255 255 255 255 255 255 255 255 255 255 255 255 255 255 255 255 255 255 255 255 255 255 255 255 255 255 255 255 255 255 255 255
239 239 238 238 237 237 237 236 236 234 233 231 231 231 232 233 233 231 230 229 228 226 225 223 223 223 222 221 221 220 220 219 220 219 218 216 215 214 213 211 210 207 207 206 205 204 205 205 205 204 203 203 202 200 201 200 200 199 199 200 200 199 200 200 199 198 197 195 195 194 194 193 193 192 191 190 189 188 188 188 188 190 190 191 191 192 192 194 194 194 194 194 194 195 194 194 195 195 196 197 197 198 198 200 200 200 200 200 200 200 201 202 202 203 203 203 203 204 204 205 205 205 206 206 207 209 209 210 210 211 212 214 215 217 217 219 219 219 219 218 219 218 218 217 218 218 218 218 218 218 217 217 216 215 216 216 216 217 217 219 219 219 219 221 221 222 222 224 224 224 223 221 222 221 220 220 220 221 221 221 221 222 221 221 221 221 222 224 224 224 223 222 222 221 221 220 220 220 221 221 221 220 220 220 220 220 220 220 220 219 219 217 217 217 217 216 216 214 214 213 213 212 213 212 213 213 212 212 211 210 209 208 208 208 207 206 207 206 206 207 207 206 205 203 203 202 201 200 199 198 198 199 199 199 199 199 199 198 196 195 194 192 191 189 188 187 187 187 187 187 186 186 186 185 185 186 187 188 187 188 188 188 188 188 187 186 186 187 187 186 186 185 184 182 182 181 181 180 180 180 180 179 179 180 179 177 178 177 177 178 178 178 178 178 178 178 178 178 177 177 177 177 176 175 174 173 174 175 175 175 175 176 176 176 176 177 178 180 181 184 184 186 187 191 192 193 194 196 197 198 197 197 198 200 200 203 204 206 206 210 211 212 212 213 214 216 216 219 219 221 221 222 223 224 225 227 228 230 230 231 231 230 231 232 233 234 234 236 236 238 238 239 241 241 240 241 241 241 240 240 239 239 240 241 241 242 241 242 243 244 244 245 246 247 247 249 250 254 254 255 255 255 255 255 255 255 255 255 255 255 255 255 255 255 255 255 255 255 255 255 255 255 255 255 255 255 255 255 255 255 255 255 255 255 255 255 255 255 255 255 255 255 255 255 255 255 255 255 255 255 255 255 255 255 255 255 255 255 255 255 255 255 255 255 255 255 255 255 255 255 255 255 255 255 255 255 255 255 255 255 255 255 255 255 255 255 255 255 255 255 255 255 255
241 239 239 238 238 237 237 236 237 234 232 231 232 231 231 232 234 231 230 228 227 226 226 224 224 223 223 222 222 221 222 221 223 219 218 217 216 214 213 211 209 208 207 206 204 204 205 205 207 205 204 203 203 202 202 201 202 200 200 201 203 201 202 202 203 200 198 197 197 196 195 195 197 194 192 191 191 190 190 190 191 191 191 191 193 193 194 195 197 195 195 195 196 196 197 196 198 197 199 199 201 200 201 201 204 202 202 202 203 202 203 203 204 203 204 204 205 204 205 205 207 207 208 207 209 209 210 210 210 211 213 214 217 216 218 219 221 220 220 220 221 220 220 219 221 219 220 219 220 218 217 217 218 217 217 216 217 217 219 220 222 220 221 221 223 223 224 224 226 223 223 222 222 220 220 220 221 221 221 221 223 221 221 221 222 221 222 223 225 223 223 222 221 220 220 220 222 221 221 221 221 220 221 220 221 220 220 221 224 221 220 218 218 217 217 217 218 215 214 214 215 214 215 215 217 214 214 213 214 212 211 210 210 209 209 208 209 208 208 207 208 207 206 204 204 202 201 200 200 199 199 200 202 201 201 201 202 199 197 195 194 193 192 190 189 189 189 188 189 187 187 187 187 186 187 188 190 189 189 189 191 189 189 188 189 188 188 189 191 188 187 186 186 184 183 182 181 181 181 181 181 180 180 180 182 179 179 179 180 179 180 180 181 179 179 179 180 179 179 178 180 178 177 176 175 175 175 176 178 176 177 177 178 177 178 177 177 179 182 184 186 187 189 190 193 193 195 196 197 197 198 197 197 198 201 202 205 205 208 209 213 212 213 214 216 216 218 219 221 221 223 223 226 225 227 228 232 230 231 231 233 232 233 233 235 234 235 236 238 238 240 241 245 241 241 241 242 240 239 238 238 239 240 240 242 241 241 241 242 243 244 244 247 247 248 249 252 253 255 255 255 255 255 255 255 255 255 255 255 255 255 255 255 255 255 255 255 255 255 255 255 255 255 255 255 255 255 255 255 255 255 255 255 255 255 255 255 255 255 255 255 255 255 255 255 255 255 255 255 255 255 255 255 255 255 255 255 255 255 255 255 255 255 255 255 255 255 255 255 255 255 255 255 255 255 255 255 255 255 255 255 255 255 255 255 255 255 255 255 255 255 255 255
240 240 239 238 238 237 237 236 235 234 233 231 231 230 230 230 230 231 230 229 229 228 227 225 225 224 224 223 223 223 222 222 221 219 219 218 217 215 214 212 212 209 208 207 206 204 204 205 205 205 205 203 203 203 203 203 202 201 202 202 202 203 203 203 202 201 200 198 198 198 197 197 196 196 196 194 193 191 191 191 191 192 192 192 192 194 194 195 195 196 196 196 196 197 197 198 198 199 200 201 200 201 201 202 202 203 204 203 203 204 204 204 204 204 205 205 205 205 205 206 206 208 208 208 208 209 209 210 210 211 212 213 213 215 216 218 218 220 221 221 221 221 221 220 220 220 220 219 219 219 219 218 217 218 217 216 217 217 218 220 219 220 221 222 222 223 223 222 222 222 222 222 221 220 221 221 221 221 221 220 220 220 221 222 222 222 222 223 222 222 223 222 222 221 221 220 220 221 221 221 221 221 220 220 220 220 221 221 220 221 221 220 220 218 218 217 217 217 217 216 215 216 216 217 216 215 216 215 214 214 213 212 212 211 211 211 210 210 209 208 208 208 207 206 205 203 203 202 201 200 201 202 202 203 203 202 201 199 199 197 197 195 194 192 192 191 190 189 189 188 189 189 188 188 189 190 189 190 190 190 190 190 189 188 189 189 190 190 189 190 190 189 188 185 185 184 184 183 182 182 181 180 180 181 181 181 181 181 181 181 181 181 181 181 181 180 180 180 179 179 178 178 178 177 177 177 177 178 177 177 177 178 178 179 179 179 179 180 181 184 184 187 188 190 190 192 194 196 195 196 197 197 197 197 198 201 201 204 205 208 208 211 213 214 214 215 216 218 219 222 222 224 224 226 226 227 227 228 230 230 231 232 233 234 233 233 234 236 236 238 238 240 239 240 241 240 239 238 238 238 238 239 239 240 239 239 240 240 241 242 242 243 244 247 248 249 250 253 255 255 255 255 255 255 255 255 255 255 255 255 255 255 255 255 255 255 255 255 255 255 255 255 255 255 255 255 255 255 255 255 255 255 255 255 255 255 255 255 255 255 255 255 255 255 255 255 255 255 255 255 255 255 255 255 255 255 255 255 255 255 255 255 255 255 255 255 255 255 255 255 255 255 255 255 255 255 255 255 255 255 255 255 255 255 255 255 255 255 255 255 255 255 255
240 239 240 238 238 237 237 235 235 233 232 231 231 230 231 230 231 230 229 229 231 229 229 227 227 225 225 224 224 223 224 222 222 220 219 219 220 217 216 214 215 211 210 208 207 205 206 205 205 205 205 204 205 204 205 204 205 204 204 203 203 203 204 203 203 202 201 200 201 199 199 198 198 197 197 196 196 193 193 192 193 192 193 193 194 194 196 195 195 196 197 197 199 199 200 199 200 200 202 202 202 202 203 202 203 204 206 205 206 205 206 205 205 206 207 206 206 206 207 207 207 208 210 209 210 210 211 210 210 211 214 213 213 214 217 217 218 219 222 221 222 222 222 221 222 221 222 221 221 220 220 218 218 218 219 217 218 218 220 219 219 220 221 222 223 223 224 222 221 221 221 221 222 221 221 221 222 221 222 220 221 221 222 222 223 222 223 222 223 222 223 222 222 222 223 222 222 221 222 221 221 220 221 220 221 221 222 221 221 221 222 221 223 221 221 219 219 218 218 217 217 217 219 218 218 217 217 216 216 215 215 214 214 213 213 212 213 211 210 209 210 209 209 207 207 204 203 203 204 203 204 203 204 204 205 203 202 200 198 198 199 197 196 194 194 193 192 191 191 190 191 190 191 190 192 191 191 190 190 190 191 190 190 190 191 190 192 191 191 191 192 190 191 188 187 186 187 185 185 183 182 181 180 181 182 181 182 182 183 182 182 181 182 182 182 181 181 180 180 179 179 178 179 178 180 179 180 179 179 178 178 179 180 180 182 181 182 183 186 185 185 187 190 190 191 193 196 196 196 196 198 197 197 197 199 199 200 202 205 206 206 210 214 214 215 216 218 218 220 222 224 224 224 225 227 226 226 227 230 229 231 232 234 233 234 233 235 235 236 237 239 238 237 238 239 238 239 237 237 238 239 239 239 239 239 239 240 240 241 241 242 242 244 246 249 249 250 253 255 255 255 255 255 255 255 255 255 255 255 255 255 255 255 255 255 255 255 255 255 255 255 255 255 255 255 255 255 255 255 255 255 255 255 255 255 255 255 255 255 255 255 255 255 255 255 255 255 255 255 255 255 255 255 255 255 255 255 255 255 255 255 255 255 255 255 255 255 255 255 255 255 255 255 255 255 255 255 255 255 255 255 255 255 255 255 255 255 255 255 255 255 255 255
239 239 239 238 238 237 236 235 234 232 232 231 231 230 230 230 231 231 231 230 230 230 229 228 228 227 226 225 225 224 223 222 222 221 221 220 219 218 218 216 215 213 212 208 207 206 206 205 205 205 205 205 205 205 205 205 206 206 205 205 205 205 204 203 204 203 202 201 201 201 200 199 199 198 198 197 196 195 195 194 193 192 193 193 194 195 195 196 196 196 197 199 199 200 200 201 201 202 202 203 203 203 203 203 203 204 204 206 206 206 207 207 208 208 207 208 208 208 208 208 209 210 209 210 211 211 211 211 211 212 212 214 214 214 215 217 217 219 219 221 223 223 222 223 223 223 222 222 222 221 220 218 218 217 217 218 219 219 218 219 219 220 220 222 222 223 222 222 222 221 220 221 221 221 221 221 221 221 221 220 221 222 222 223 223 223 222 222 223 222 222 223 223 222 222 223 223 222 221 220 220 220 220 221 221 222 222 222 222 222 222 222 222 222 222 221 221 220 219 219 219 219 218 219 219 218 218 217 217 217 216 215 216 216 215 214 214 213 212 211 211 211 210 209 208 205 206 205 204 204 204 205 205 205 204 203 203 201 201 200 199 199 198 197 197 195 194 193 192 192 192 192 191 191 191 192 192 192 192 192 192 192 192 192 191 191 192 192 192 191 191 191 192 191 190 189 188 186 186 184 183 182 182 182 182 182 183 183 184 184 183 182 183 183 182 181 181 181 181 181 180 179 179 179 179 180 180 180 180 180 180 181 180 181 182 184 184 185 185 187 188 189 189 191 191 193 194 196 196 197 196 197 197 197 197 198 200 202 202 205 206 209 210 214 215 217 217 218 220 222 223 225 225 225 225 226 226 227 227 228 230 231 231 233 233 233 234 235 236 237 237 237 237 237 237 237 237 237 238 238 238 239 239 238 239 240 240 241 241 242 242 242 243 246 246 249 250 253 254 255 255 255 255 255 255 255 255 255 255 255 255 255 255 255 255 255 255 255 255 255 255 255 255 255 255 255 255 255 255 255 255 255 255 255 255 255 255 255 255 255 255 255 255 255 255 255 255 255 255 255 255 255 255 255 255 255 255 255 255 255 255 255 255 255 255 255 255 255 255 255 255 255 255 255 255 255 255 255 255 255 255 255 255 255 255 255 255 255 255 255 255 255 255
239 239 239 238 238 236 235 234 234 233 232 231 231 230 231 231 233 232 232 231 233 231 230 229 229 227 227 226 226 225 224 224 224 223 222 221 222 219 218 217 218 214 212 209 206 206 206 206 207 205 205 205 205 205 206 206 208 207 207 206 207 206 206 205 206 204 204 203 203 202 202 201 203 200 200 198 198 196 195 195 195 193 194 194 196 195 196 196 197 197 198 199 202 201 202 202 204 203 204 204 205 205 205 204 204 205 206 207 209 208 209 209 211 210 209 209 210 209 210 210 211 211 212 212 213 211 212 211 212 212 214 214 215 215 216 216 217 218 220 222 226 224 223 224 225 224 224 223 224 222 221 219 220 218 218 218 220 219 219 218 219 219 221 222 225 223 222 221 222 221 220 221 222 221 222 222 223 222 222 221 222 222 223 223 224 223 223 224 226 223 223 223 224 223 223 223 224 222 222 221 221 220 220 221 222 222 223 223 224 223 224 223 225 222 222 222 224 221 221 220 220 220 220 220 222 221 221 219 220 219 219 218 219 218 218 217 219 215 213 213 214 212 211 210 209 207 207 206 207 205 206 206 208 206 205 204 204 203 202 201 202 200 200 199 200 197 196 195 194 193 193 193 193 192 193 193 195 193 193 193 194 193 193 193 194 193 194 193 194 193 193 193 195 193 192 191 192 188 187 185 183 183 183 183 185 184 185 185 187 185 185 184 185 183 183 182 183 182 183 182 183 181 181 180 181 181 182 182 183 182 183 183 183 183 185 185 187 186 187 188 190 190 191 192 192 194 196 196 198 197 197 196 196 196 198 199 201 202 204 205 207 209 212 214 217 217 219 220 222 223 225 225 227 225 226 225 226 226 227 228 231 230 232 232 234 233 235 236 239 237 238 237 237 236 237 237 237 237 238 239 241 240 240 239 240 241 242 242 244 243 244 244 245 246 248 249 252 254 255 255 255 255 255 255 255 255 255 255 255 255 255 255 255 255 255 255 255 255 255 255 255 255 255 255 255 255 255 255 255 255 255 255 255 255 255 255 255 255 255 255 255 255 255 255 255 255 255 255 255 255 255 255 255 255 255 255 255 255 255 255 255 255 255 255 255 255 255 255 255 255 255 255 255 255 255 255 255 255 255 255 255 255 255 255 255 255 255 255 255 255 255 255 255
239 239 238 238 237 236 236 235 235 234 233 231 231 230 231 231 231 232 232 232 231 231 231 230 229 228 227 226 226 226 226 226 225 225 224 222 222 220 220 218 217 215 214 211 210 207 206 206 206 206 206 206 206 206 206 206 207 208 208 208 207 206 207 207 207 206 206 205 204 204 203 203 202 201 201 199 199 197 197 196 195 194 194 195 195 196 197 197 197 197 198 199 200 202 203 203 204 205 206 206 206 207 207 206 207 207 207 209 208 210 211 212 212 212 212 212 211 211 211 211 212 213 213 213 212 211 212 211 212 212 213 214 214 215 215 215 216 219 220 222 222 224 225 225 225 225 225 223 223 222 222 220 220 219 219 219 218 219 218 218 218 218 219 221 221 222 222 221 221 221 221 221 220 221 221 222 222 223 223 222 222 222 223 224 224 224 224 225 224 224 224 224 223 223 222 222 222 222 222 221 221 221 221 221 221 222 222 223 223 224 224 224 223 222 223 222 222 222 222 221 221 221 221 222 222 223 222 221 221 221 221 221 220 219 219 219 218 216 216 215 214 214 213 211 210 208 208 207 207 206 206 206 206 207 207 206 206 205 204 203 203 202 202 201 200 199 199 197 196 195 194 194 194 194 194 195 195 195 196 196 196 196 196 196 195 196 195 195 195 195 195 195 194 194 194 193 192 190 189 187 187 185 185 185 185 185 186 186 186 187 187 185 185 184 183 182 183 183 184 184 183 183 183 182 182 183 183 184 184 185 185 185 185 185 185 187 187 187 188 190 190 192 193 194 194 195 195 197 196 196 197 196 196 196 197 199 200 202 203 205 206 209 210 214 214 218 219 221 221 224 224 225 225 225 226 225 226 226 226 228 228 229 231 232 232 233 233 235 235 237 237 237 237 236 236 237 237 238 238 239 239 240 240 240 240 242 242 244 243 244 244 245 245 247 248 250 251 254 255 255 255 255 255 255 255 255 255 255 255 255 255 255 255 255 255 255 255 255 255 255 255 255 255 255 255 255 255 255 255 255 255 255 255 255 255 255 255 255 255 255 255 255 255 255 255 255 255 255 255 255 255 255 255 255 255 255 255 255 255 255 255 255 255 255 255 255 255 255 255 255 255 255 255 255 255 255 255 255 255 255 255 255 255 255 255 255 255 255 255 255 255 255 255
239 238 239 237 237 236 237 236 236 234 234 232 233 231 232 231 231 231 233 232 232 231 231 230 231 229 228 227 228 228 229 228 228 226 226 224 224 221 220 218 218 216 215 212 212 208 206 205 206 206 207 206 207 207 208 207 208 208 209 208 209 208 209 209 209 208 207 206 206 205 205 204 204 202 203 201 201 198 198 196 196 195 194 195 196 197 199 198 198 198 200 200 201 203 205 205 207 207 209 208 209 209 210 209 210 210 211 210 210 211 213 214 215 214 215 214 214 212 213 213 214 214 215 213 213 212 213 212 213 213 215 214 214 214 215 215 217 219 222 222 222 223 225 226 227 226 227 224 224 222 222 221 221 220 220 219 219 218 218 217 218 219 221 220 220 221 223 222 222 221 221 221 221 221 222 222 223 223 225 223 223 223 225 225 225 225 226 225 225 224 225 224 225 223 222 222 222 221 221 221 222 222 222 222 223 223 224 223 223 224 225 224 223 223 224 223 224 223 223 222 223 222 223 224 225 225 225 223 224 223 224 222 223 221 221 219 219 217 216 216 217 215 214 212 212 210 209 208 208 207 206 206 207 207 208 207 208 206 206 205 205 204 204 203 203 201 200 198 199 196 195 195 196 196 196 196 197 197 198 198 199 198 199 198 198 197 198 197 197 197 197 196 195 195 195 194 193 191 189 189 190 188 187 187 187 187 189 188 189 188 189 187 187 185 184 184 185 185 186 185 185 184 185 184 184 184 186 185 186 187 188 187 187 187 188 188 189 189 191 191 193 194 197 196 196 197 199 198 197 197 199 198 198 198 199 200 201 203 205 206 207 210 213 214 215 218 222 222 223 225 227 226 225 226 228 226 227 226 227 227 228 229 232 231 231 231 233 233 234 236 238 237 237 236 236 237 238 238 240 239 239 239 241 241 241 243 245 244 245 245 246 246 247 248 250 251 252 254 255 255 255 255 255 255 255 255 255 255 255 255 255 255 255 255 255 255 255 255 255 255 255 255 255 255 255 255 255 255 255 255 255 255 255 255 255 255 255 255 255 255 255 255 255 255 255 255 255 255 255 255 255 255 255 255 255 255 255 255 255 255 255 255 255 255 255 255 255 255 255 255 255 255 255 255 255 255 255 255 255 255 255 255 255 255 255 255 255 255 255 255 255 255 255
239 238 238 237 237 235 236 236 236 235 234 233 233 231 231 231 231 231 231 231 231 231 231 231 231 230 229 227 228 229 229 229 230 228 227 225 225 223 222 219 219 217 215 212 211 209 208 205 205 205 205 205 206 207 207 208 208 209 208 209 210 210 210 212 212 210 209 208 207 206 205 204 204 203 203 202 201 199 199 197 196 196 196 197 197 197 197 199 200 200 200 201 202 204 205 208 209 210 209 209 210 210 210 211 212 212 212 212 212 213 213 216 217 217 216 216 215 213 214 215 215 215 214 214 214 213 213 213 213 214 213 214 214 214 214 216 217 219 219 222 223 224 224 227 227 227 226 225 224 221 221 221 221 220 219 219 219 218 218 217 217 219 219 220 221 222 221 222 223 222 221 221 221 222 222 223 223 224 223 223 224 225 225 226 226 226 226 226 225 225 225 225 225 224 224 223 222 222 222 222 222 223 223 224 224 224 223 223 223 224 223 224 224 223 223 224 224 224 223 223 223 224 224 226 227 227 226 225 225 224 224 223 224 223 222 220 219 217 218 217 217 215 215 213 212 211 210 209 209 208 208 208 208 208 208 209 209 207 207 207 206 205 205 205 204 203 202 199 199 198 198 197 197 198 198 198 198 199 199 200 200 200 200 199 199 199 199 200 200 199 198 197 197 196 195 195 194 192 192 191 190 190 190 189 189 190 189 190 190 190 189 189 189 187 187 185 185 186 186 186 186 185 185 185 186 186 186 186 188 189 188 188 189 190 190 191 191 192 192 193 194 197 197 199 200 200 199 199 199 199 198 199 199 199 200 202 202 204 205 208 209 212 212 215 217 220 220 224 225 226 226 227 227 227 227 227 227 227 227 228 228 229 229 231 231 230 231 232 234 236 236 237 237 235 236 237 237 239 239 239 239 239 240 242 242 244 244 245 246 246 246 247 247 248 249 252 253 255 255 255 255 255 255 255 255 255 255 255 255 255 255 255 255 255 255 255 255 255 255 255 255 255 255 255 255 255 255 255 255 255 255 255 255 255 255 255 255 255 255 255 255 255 255 255 255 255 255 255 255 255 255 255 255 255 255 255 255 255 255 255 255 255 255 255 255 255 255 255 255 255 255 255 255 255 255 255 255 255 255 255 255 255 255 255 255 255 255 255 255 255 255 255 255
240 238 238 237 237 235 236 236 237 235 234 234 234 232 232 231 231 231 232 232 232 231 231 231 232 230 229 229 230 230 231 231 234 229 227 226 226 224 223 221 221 218 216 213 211 210 208 206 205 206 206 206 207 207 208 208 210 209 209 209 212 211 212 213 218 212 211 209 208 207 206 205 206 205 205 203 203 201 199 198 196 197 198 198 200 198 199 200 202 201 202 202 204 205 208 210 214 212 212 211 213 212 213 213 215 213 214 214 215 214 216 218 223 219 218 217 217 215 215 216 219 216 216 215 216 214 214 213 214 213 214 214 215 214 215 216 219 218 220 221 224 224 225 227 231 227 226 224 224 222 221 220 221 220 219 219 219 218 218 217 217 218 220 220 222 222 223 223 225 222 222 221 222 222 223 223 226 224 225 224 226 225 226 226 229 227 227 226 226 225 225 225 227 225 224 223 224 223 222 222 224 224 225 225 226 225 225 224 224 224 224 223 224 222 223 223 225 224 224 223 224 224 226 227 233 228 227 226 226 225 225 225 227 224 223 221 221 219 219 219 220 217 216 214 213 211 210 210 210 209 209 209 210 209 210 210 212 209 209 208 209 207 207 206 207 204 203 201 201 199 198 198 200 199 200 200 201 201 201 202 205 202 202 201 202 201 201 202 205 201 200 198 199 197 197 196 195 194 193 192 192 191 191 191 192 191 192 191 193 191 190 190 191 189 189 187 188 188 188 187 188 187 188 187 189 188 188 188 191 190 191 191 193 192 193 194 196 195 195 196 198 199 200 201 204 202 202 201 201 200 200 199 199 200 202 203 206 206 208 209 213 213 215 216 220 221 223 224 228 227 228 228 229 228 229 228 229 228 228 228 229 229 230 230 231 230 232 232 235 236 237 237 238 236 236 237 239 239 240 240 240 240 242 243 244 244 246 246 249 247 248 248 250 250 252 253 255 255 255 255 255 255 255 255 255 255 255 255 255 255 255 255 255 255 255 255 255 255 255 255 255 255 255 255 255 255 255 255 255 255 255 255 255 255 255 255 255 255 255 255 255 255 255 255 255 255 255 255 255 255 255 255 255 255 255 255 255 255 255 255 255 255 255 255 255 255 255 255 255 255 255 255 255 255 255 255 255 255 255 255 255 255 255 255 255 255 255 255 255 255 255 255 255
238 238 238 237 236 235 236 236 235 235 235 235 234 234 233 233 233 233 233 233 232 232 232 231 231 231 231 231 231 231 230 230 229 228 229 227 226 225 225 223 222 219 218 216 215 212 211 209 209 208 207 207 207 208 208 208 208 209 209 209 210 211 212 213 212 212 213 211 210 208 207 206 207 207 206 205 205 203 203 201 201 200 199 200 199 199 200 200 200 202 202 202 203 206 207 210 209 212 213 213 213 213 213 214 214 214 215 215 215 215 216 218 217 219 220 218 218 217 217 217 216 216 217 216 215 215 215 214 214 213 214 215 215 215 215 215 215 217 219 221 221 223 224 225 224 225 225 224 223 222 221 219 220 220 220 219 219 219 219 218 218 219 218 219 220 222 222 223 222 222 222 222 222 222 222 223 222 223 225 225 225 225 225 226 226 227 227 227 226 225 226 226 225 226 226 224 224 224 224 223 224 225 225 225 225 226 226 225 224 224 223 223 222 221 222 222 223 224 224 224 224 225 225 226 225 227 227 226 226 226 226 226 225 225 225 223 223 221 221 220 219 218 218 215 215 212 212 211 210 210 209 209 209 210 210 211 210 210 210 209 209 208 208 207 206 204 204 203 202 201 201 200 200 201 202 202 202 203 203 203 202 203 203 203 203 203 203 203 202 201 201 199 199 199 199 198 197 196 196 195 195 194 193 192 192 193 193 192 192 192 192 191 191 190 190 189 190 190 189 188 189 189 189 188 189 190 190 189 190 192 192 193 193 194 195 196 196 197 198 199 199 201 201 202 202 203 203 202 202 201 201 200 201 201 202 204 204 207 208 210 210 213 215 217 217 221 222 224 224 226 227 228 228 229 229 229 228 228 228 228 228 229 229 230 230 230 231 232 233 236 236 237 237 237 237 237 238 240 240 241 241 242 242 244 244 245 245 247 247 248 249 249 250 251 252 254 253 255 255 255 255 255 255 255 255 255 255 255 255 255 255 255 255 255 255 255 255 255 255 255 255 255 255 255 255 255 255 255 255 255 255 255 255 255 255 255 255 255 255 255 255 255 255 255 255 255 255 255 255 255 255 255 255 255 255 255 255 255 255 255 255 255 255 255 255 255 255 255 255 255 255 255 255 255 255 255 255 255 255 255 255 255 255 255 255 255 255 255 255 255 255 255 255
237 237 237 236 237 235 236 235 236 235 236 235 236 235 234 234 235 234 235 233 233 233 235 233 233 232 233 232 233 232 232 230 229 228 229 228 228 226 226 224 224 221 219 218 218 214 212 212 213 211 210 209 209 209 210 209 209 209 211 210 211 211 212 212 212 212 213 211 212 209 208 208 209 208 208 207 207 206 206 204 204 203 203 202 202 201 201 201 201 202 204 204 205 206 209 209 209 211 213 213 214 214 215 214 215 215 216 216 216 216 216 217 217 218 220 219 219 218 217 217 217 217 218 216 216 216 217 215 215 214 215 215 216 216 217 216 216 217 220 220 221 222 224 222 222 222 223 222 223 221 220 219 220 219 220 219 220 219 220 219 220 219 220 220 221 222 224 222 222 222 222 222 223 222 223 222 222 223 226 225 226 225 226 226 226 226 227 227 228 227 228 226 226 226 227 225 226 225 226 225 226 226 228 227 227 227 227 225 224 224 224 223 223 221 221 222 223 223 225 225 226 226 227 225 224 224 225 225 227 226 226 226 226 225 225 224 225 223 222 221 220 219 219 217 217 214 214 212 212 210 210 209 210 210 211 211 211 210 211 210 210 209 208 207 207 205 205 204 204 202 202 201 202 203 205 204 205 204 205 204 204 203 204 204 204 204 205 203 203 202 202 201 201 200 200 199 200 198 198 197 198 196 196 195 195 194 195 194 194 193 192 192 193 192 193 192 193 192 192 191 191 190 191 190 191 191 192 191 192 193 194 195 196 196 197 197 198 199 201 201 202 202 204 203 203 204 205 203 203 202 202 202 203 203 205 205 205 207 209 209 210 213 217 217 218 220 223 222 223 225 228 228 229 229 230 229 229 228 229 228 229 229 229 229 230 230 231 232 234 236 238 237 237 237 237 237 239 240 242 241 242 243 245 245 245 246 247 247 248 249 250 251 252 253 254 254 254 255 255 255 255 255 255 255 255 255 255 255 255 255 255 255 255 255 255 255 255 255 255 255 255 255 255 255 255 255 255 255 255 255 255 255 255 255 255 255 255 255 255 255 255 255 255 255 255 255 255 255 255 255 255 255 255 255 255 255 255 255 255 255 255 255 255 255 255 255 255 255 255 255 255 255 255 255 255 255 255 255 255 255 255 255 255 255 255 255 255 255 255 255 255 255 255
236 236 236 236 235 234 235 235 235 236 235 235 236 236 236 235 235 235 235 234 235 235 234 235 235 234 234 233 233 232 232 230 230 229 228 228 228 227 226 226 225 223 222 220 218 215 216 215 215 214 213 211 211 211 210 210 210 210 210 211 211 211 211 211 211 212 211 211 211 210 210 210 210 210 209 209 208 208 207 206 207 206 205 204 204 203 203 202 202 203 203 205 205 206 207 208 209 211 212 214 214 214 215 215 215 215 216 217 217 217 217 217 217 218 218 220 220 219 218 217 217 217 217 217 217 216 216 216 216 216 216 216 216 217 216 217 217 218 218 221 221 222 220 220 220 220 220 220 220 219 219 219 219 218 218 219 219 220 220 220 220 220 220 220 221 222 221 222 222 222 222 223 223 223 222 222 223 223 224 226 226 225 226 226 226 227 226 227 227 228 227 227 227 226 225 225 226 226 226 226 227 228 228 228 228 228 227 226 225 224 223 223 222 221 222 222 222 223 223 225 225 226 225 225 224 223 224 225 225 225 225 226 226 226 225 225 225 224 223 222 222 221 220 218 217 214 214 213 212 211 210 209 210 210 210 211 211 211 211 210 210 210 209 208 208 207 206 204 203 203 203 203 204 205 205 207 206 205 205 205 205 204 204 205 205 205 204 203 203 202 202 202 201 200 201 201 201 201 200 200 200 199 198 197 196 196 196 196 196 194 193 193 193 194 194 194 194 194 193 193 193 192 192 192 192 193 193 193 193 194 195 197 198 199 198 198 199 201 201 203 203 204 203 203 204 205 204 204 205 204 204 204 204 204 205 207 207 209 209 210 211 214 214 218 219 220 220 221 223 225 226 229 229 230 229 229 229 228 228 229 229 229 229 229 230 231 231 233 234 236 236 237 238 238 238 238 239 241 241 242 242 243 244 246 246 247 247 248 249 250 251 253 254 255 254 254 255 255 255 255 255 255 255 255 255 255 255 255 255 255 255 255 255 255 255 255 255 255 255 255 255 255 255 255 255 255 255 255 255 255 255 255 255 255 255 255 255 255 255 255 255 255 255 255 255 255 255 255 255 255 255 255 255 255 255 255 255 255 255 255 255 255 255 255 255 255 255 255 255 255 255 255 255 255 255 255 255 255 255 255 255 255 255 255 255 255 255 255 255 255 255 255 255
237 236 236 235 235 234 235 235 236 235 236 236 238 237 237 236 237 236 236 236 237 236 236 235 236 236 236 235 235 233 233 231 231 229 228 228 228 227 226 226 228 224 223 221 220 217 217 217 219 216 214 213 214 212 212 211 211 211 211 211 212 212 212 211 212 211 211 210 210 210 210 211 213 211 211 210 210 209 209 209 211 208 208 207 208 206 205 204 204 205 206 206 207 207 209 209 211 212 214 214 216 215 217 217 218 217 218 218 220 218 218 217 217 218 219 220 222 219 219 218 218 217 218 217 217 216 217 216 218 217 217 216 218 217 217 217 219 219 220 221 224 221 220 218 217 218 218 218 218 217 217 218 219 218 218 219 220 220 221 221 222 221 221 221 223 222 222 222 222 222 223 223 224 223 223 223 224 224 225 226 228 226 227 227 228 227 227 227 229 228 228 227 228 227 226 226 226 227 228 228 231 230 230 230 231 229 228 226 226 225 224 223 223 222 222 222 222 223 224 225 227 225 225 224 224 224 225 224 225 225 225 226 228 226 225 225 226 225 224 223 224 222 221 219 218 215 213 213 213 211 211 210 211 210 211 211 212 211 212 211 212 210 210 209 210 207 206 204 203 203 204 204 207 206 208 208 210 207 207 207 208 206 206 206 208 206 206 204 205 203 203 202 202 202 203 203 204 203 202 202 203 200 199 198 198 197 198 197 199 195 194 194 196 195 196 196 197 195 195 194 195 194 194 194 194 194 195 195 196 196 198 199 202 200 201 200 201 202 204 204 207 205 206 205 205 206 207 206 208 206 206 206 207 207 208 208 210 210 212 212 214 215 217 219 222 221 221 221 223 225 227 228 232 230 229 229 230 229 229 229 230 230 231 231 232 232 233 234 237 237 238 238 239 239 240 240 242 241 242 242 243 243 245 246 249 248 249 250 251 252 254 255 255 255 255 255 255 255 255 255 255 255 255 255 255 255 255 255 255 255 255 255 255 255 255 255 255 255 255 255 255 255 255 255 255 255 255 255 255 255 255 255 255 255 255 255 255 255 255 255 255 255 255 255 255 255 255 255 255 255 255 255 255 255 255 255 255 255 255 255 255 255 255 255 255 255 255 255 255 255 255 255 255 255 255 255 255 255 255 255 255 255 255 255 255 255 255 255 255 255 255 255 255
237 236 236 236 235 234 235 235 235 235 236 237 237 238 238 238 238 238 238 238 237 237 237 236 237 238 237 237 236 235 234 232 232 230 230 229 228 227 227 226 226 225 225 223 222 219 219 219 218 218 217 215 215 214 213 211 212 212 212 212 212 213 213 212 211 211 211 211 211 211 211 211 211 212 212 211 211 211 211 210 210 210 210 208 208 208 208 206 206 207 207 208 208 209 209 211 211 213 213 215 215 216 217 218 218 219 219 218 218 219 219 218 218 218 218 219 218 218 219 219 219 218 218 218 217 217 216 216 217 217 217 216 217 218 218 218 218 219 219 219 218 219 219 218 218 217 216 217 216 216 216 217 217 218 218 219 219 219 220 221 221 221 222 222 221 222 222 222 221 221 222 223 222 223 223 223 223 224 224 225 225 226 227 227 227 227 228 228 228 229 229 228 228 228 228 227 227 228 228 230 230 231 231 231 230 229 229 227 227 226 225 224 224 223 223 222 222 223 223 225 224 225 225 224 225 225 224 224 225 225 226 227 226 227 227 226 226 226 226 225 224 222 222 220 219 216 215 213 212 210 210 210 210 211 211 211 211 212 212 212 211 211 211 211 210 208 208 206 206 205 204 205 205 206 208 209 208 208 209 208 208 207 208 207 206 205 206 205 205 204 204 203 203 204 204 205 204 205 205 203 203 202 202 200 200 199 198 197 197 195 196 194 195 195 196 197 196 196 196 196 196 196 196 196 196 196 196 197 197 198 198 199 199 201 202 203 203 204 204 205 205 206 206 206 207 207 207 207 207 207 207 207 208 209 209 210 210 211 212 214 214 216 217 220 219 221 221 221 222 225 225 227 227 229 230 229 229 230 229 228 229 230 231 232 232 233 233 235 235 237 238 239 239 240 240 241 241 242 242 243 243 243 244 247 247 249 250 252 252 254 254 255 255 255 255 255 255 255 255 255 255 255 255 255 255 255 255 255 255 255 255 255 255 255 255 255 255 255 255 255 255 255 255 255 255 255 255 255 255 255 255 255 255 255 255 255 255 255 255 255 255 255 255 255 255 255 255 255 255 255 255 255 255 255 255 255 255 255 255 255 255 255 255 255 255 255 255 255 255 255 255 255 255 255 255 255 255 255 255 255 255 255 255 255 255 255 255 255 255 255 255 255 255
239 238 238 237 237 236 236 235 235 235 236 237 238 239 240 240 241 240 240 239 239 238 239 239 240 239 240 238 238 236 236 234 235 232 231 230 230 229 229 227 228 226 226 224 224 221 220 220 221 220 219 217 218 216 215 213 213 213 213 212 213 213 215 213 212 211 211 211 212 212 212 212 212 212 213 212 213 212 213 212 211 211 212 210 211 210 210 208 209 209 210 209 210 210 212 212 212 214 216 216 216 217 219 219 220 220 221 219 219 219 220 219 220 219 219 218 217 218 219 219 220 219 219 218 218 217 217 217 218 217 217 217 217 218 220 219 220 219 219 218 217 217 218 217 218 216 216 216 216 215 215 216 217 217 219 219 220 220 222 221 221 222 223 222 222 222 222 222 222 222 224 222 222 223 224 223 223 224 225 224 224 225 228 227 228 228 229 228 229 229 230 229 229 229 229 228 229 229 231 230 231 231 232 231 231 229 229 228 228 226 226 225 226 224 224 223 223 223 224 224 225 225 227 225 226 225 226 225 226 226 228 228 228 227 227 226 227 226 227 226 226 224 223 220 219 216 214 213 213 211 210 210 211 211 211 211 212 212 214 212 212 212 213 212 212 210 209 207 208 206 205 205 206 207 210 209 209 209 211 210 211 209 210 208 207 206 206 205 206 205 204 204 205 206 208 207 206 207 208 206 206 204 204 202 202 200 200 198 198 196 196 196 197 196 198 197 198 197 197 197 199 198 199 198 198 198 199 199 199 199 200 200 200 202 205 204 205 205 207 206 205 206 208 208 210 209 210 209 209 208 208 209 210 211 213 212 213 213 215 216 217 218 221 220 220 221 223 223 224 225 227 227 227 228 231 230 231 230 230 229 230 231 233 232 232 233 235 235 236 237 239 239 240 241 242 241 242 243 244 244 244 244 246 247 248 250 253 253 255 255 255 255 255 255 255 255 255 255 255 255 255 255 255 255 255 255 255 255 255 255 255 255 255 255 255 255 255 255 255 255 255 255 255 255 255 255 255 255 255 255 255 255 255 255 255 255 255 255 255 255 255 255 255 255 255 255 255 255 255 255 255 255 255 255 255 255 255 255 255 255 255 255 255 255 255 255 255 255 255 255 255 255 255 255 255 255 255 255 255 255 255 255 255 255 255 255 255 255 255 255 255 255 255
240 240 239 239 239 238 237 235 235 235 236 237 238 240 240 242 242 242 241 240 240 240 240 241 241 241 240 239 239 237 237 236 236 234 233 231 231 230 229 228 228 226 226 225 224 223 223 222 222 222 221 219 218 217 216 214 214 214 213 213 213 213 213 214 214 213 213 212 213 213 213 213 213 213 213 214 213 213 214 214 214 213 212 212 212 211 210 209 210 210 210 211 211 211 212 213 213 215 215 217 217 218 219 221 221 222 221 221 221 220 220 220 220 220 219 219 219 218 218 219 219 220 219 219 219 218 218 218 218 218 218 218 218 219 219 220 220 220 219 218 217 216 216 216 215 215 215 215 215 215 215 216 216 217 218 219 220 221 220 221 223 223 222 222 222 222 222 222 222 222 221 222 223 223 222 223 223 224 223 224 224 225 226 228 228 228 228 229 229 229 229 230 230 230 229 229 229 230 230 231 232 233 232 231 231 229 229 228 228 227 226 225 226 225 225 224 224 224 224 225 225 226 226 226 226 226 226 226 227 227 227 229 229 229 228 227 227 227 226 226 226 225 223 220 219 215 215 212 212 211 211 209 210 211 211 211 212 213 212 212 213 213 212 213 213 211 210 208 208 206 207 207 207 208 207 209 210 210 209 210 211 211 210 209 209 207 206 205 206 206 206 206 207 208 208 209 209 209 208 208 207 205 205 203 202 200 200 199 199 197 197 197 196 196 197 198 199 199 198 198 199 199 199 199 199 199 200 201 201 201 201 202 203 204 203 205 206 206 206 207 208 208 208 211 211 211 211 210 211 210 210 211 211 213 213 214 215 216 216 218 219 221 220 221 222 222 222 224 224 225 225 227 227 228 229 231 231 231 231 230 231 231 232 233 234 235 234 235 236 237 238 241 241 242 242 242 243 244 244 245 246 246 247 249 250 252 252 254 255 255 255 255 255 255 255 255 255 255 255 255 255 255 255 255 255 255 255 255 255 255 255 255 255 255 255 255 255 255 255 255 255 255 255 255 255 255 255 255 255 255 255 255 255 255 255 255 255 255 255 255 255 255 255 255 255 255 255 255 255 255 255 255 255 255 255 255 255 255 255 255 255 255 255 255 255 255 255 255 255 255 255 255 255 255 255 255 255 255 255 255 255 255 255 255 255 255 255 255 255 255 255 255 255
243 241 241 240 241 239 238 237 236 237 238 238 240 240 242 243 246 243 242 241 242 241 242 242 245 242 241 240 240 238 238 237 238 235 233 232 232 230 229 229 230 228 227 226 225 223 223 224 227 223 222 220 220 218 217 216 215 215 215 214 215 214 215 215 217 215 215 214 216 215 215 214 215 214 215 215 215 215 216 215 216 214 214 213 213 212 212 211 211 211 211 212 214 213 214 214 215 216 217 217 219 219 221 222 225 222 222 222 223 221 221 221 222 220 220 220 220 219 219 219 221 220 220 219 220 218 218 219 221 219 218 218 220 220 221 221 223 220 219 217 217 215 215 214 214 213 214 214 216 214 214 215 218 217 219 219 221 220 221 222 226 223 223 222 223 222 222 222 224 222 221 221 223 222 223 223 224 223 224 223 224 225 227 227 229 228 229 228 230 230 231 231 233 231 231 230 231 231 232 232 236 233 233 232 233 230 230 229 229 228 227 227 228 226 225 225 225 224 225 225 227 226 227 226 226 226 227 227 229 228 229 230 233 229 228 228 229 227 227 227 228 225 223 220 219 216 215 213 211 211 211 210 211 210 211 211 213 213 214 213 215 213 213 213 215 212 211 209 209 208 208 208 209 208 208 209 211 210 210 210 214 211 210 209 210 208 208 207 207 207 208 208 210 209 210 211 213 210 210 209 208 206 206 204 203 201 201 200 200 198 197 197 198 197 198 199 201 200 200 200 203 201 202 201 202 201 202 202 204 203 203 203 206 205 205 206 208 207 207 208 210 209 211 212 216 213 213 213 214 213 213 213 214 214 215 215 217 217 219 220 225 223 223 223 224 223 224 224 226 225 226 227 229 229 231 231 233 231 232 232 234 233 234 234 236 236 237 237 239 239 241 242 245 243 244 244 246 245 246 246 249 248 249 250 253 253 254 255 255 255 255 255 255 255 255 255 255 255 255 255 255 255 255 255 255 255 255 255 255 255 255 255 255 255 255 255 255 255 255 255 255 255 255 255 255 255 255 255 255 255 255 255 255 255 255 255 255 255 255 255 255 255 255 255 255 255 255 255 255 255 255 255 255 255 255 255 255 255 255 255 255 255 255 255 255 255 255 255 255 255 255 255 255 255 255 255 255 255 255 255 255 255 255 255 255 255 255 255 255 255 255 255 255
243 243 243 242 242 241 240 239 239 239 239 240 240 241 242 243 242 242 243 242 242 242 242 242 242 242 242 241 241 240 239 238 237 235 234 232 232 230 230 229 229 229 228 227 226 224 224 224 223 223 223 222 222 220 219 218 218 217 216 215 216 216 216 215 215 216 216 215 216 217 217 216 216 216 216 216 216 217 217 216 216 216 216 215 215 215 214 214 213 213 213 213 213 215 215 214 215 217 217 217 218 219 220 222 221 222 223 222 222 222 222 221 221 220 221 221 220 219 220 220 219 220 220 219 219 219 219 219 218 219 219 219 219 220 220 220 219 218 218 217 216 215 215 214 213 212 213 213 213 214 214 215 215 216 217 219 219 219 220 221 221 222 223 223 222 221 222 222 221 221 221 221 221 222 222 222 222 222 223 223 224 225 225 227 227 228 228 227 228 230 230 230 230 231 231 230 231 231 231 232 231 232 232 232 232 231 231 229 229 229 228 228 228 228 228 227 226 225 225 226 226 226 227 227 227 226 226 226 226 227 228 229 228 228 229 228 228 228 228 227 225 224 224 221 220 217 216 214 214 212 211 210 210 210 210 211 211 213 213 213 213 214 214 214 212 211 212 210 210 209 208 208 208 208 208 208 208 209 209 209 209 210 210 210 210 209 209 209 209 208 209 209 210 211 211 212 211 211 211 210 209 208 207 206 205 203 202 201 201 200 200 199 199 199 199 200 200 201 201 201 201 203 203 202 202 202 203 203 203 204 204 204 204 205 205 206 206 207 208 209 209 210 210 211 211 213 214 215 215 216 216 215 215 215 215 216 216 217 218 220 220 223 224 224 223 224 224 224 225 226 227 228 228 230 230 231 230 230 231 232 232 234 234 235 235 237 237 237 238 240 240 242 242 243 244 245 245 246 246 247 247 248 249 250 251 253 253 255 255 255 255 255 255 255 255 255 255 255 255 255 255 255 255 255 255 255 255 255 255 255 255 255 255 255 255 255 255 255 255 255 255 255 255 255 255 255 255 255 255 255 255 255 255 255 255 255 255 255 255 255 255 255 255 255 255 255 255 255 255 255 255 255 255 255 255 255 255 255 255 255 255 255 255 255 255 255 255 255 255 255 255 255 255 255 255 255 255 255 255 255 255 255 255 255 255 255 255 255 255 255 255 255 255
244 244 245 244 244 242 242 241 242 241 241 240 241 242 244 243 242 242 243 242 243 243 243 242 243 242 242 241 242 240 240 238 238 235 233 232 233 230 230 229 230 229 229 227 227 225 225 224 224 223 223 223 224 222 221 220 221 219 219 217 218 217 218 217 217 217 218 217 218 218 219 218 218 217 217 217 217 218 220 218 218 217 218 217 218 217 217 216 216 215 215 215 215 216 217 216 217 218 219 219 220 221 223 222 222 222 223 222 223 223 224 223 223 222 222 221 222 220 221 220 220 220 220 219 219 219 220 219 219 219 219 219 220 220 221 219 218 217 217 216 216 214 214 214 214 213 213 212 212 213 214 214 215 216 218 218 219 219 221 220 221 221 223 222 223 222 223 222 222 221 220 221 222 221 222 221 221 222 223 223 224 225 227 226 226 227 228 227 228 229 231 229 229 230 231 231 232 231 231 231 231 231 231 231 232 231 232 231 231 229 229 229 229 229 230 229 229 227 226 226 227 227 229 228 228 227 228 227 227 227 227 227 227 227 227 228 229 228 228 226 225 224 223 221 221 217 216 215 216 213 212 210 209 210 211 211 212 213 214 214 214 214 215 214 213 212 212 211 211 209 209 208 209 208 209 207 207 208 209 208 209 209 209 209 211 210 210 210 211 211 212 211 212 212 214 212 212 211 211 210 211 209 209 207 206 204 202 201 202 201 201 200 201 200 201 200 201 202 204 203 203 203 204 203 204 203 205 204 204 204 205 205 205 205 205 205 206 207 209 209 210 210 211 211 212 213 215 216 218 218 219 217 217 216 217 216 216 217 219 219 219 222 225 224 224 224 225 225 227 227 229 228 229 230 231 230 229 230 232 232 233 234 236 235 236 237 239 238 239 240 242 242 242 243 244 244 246 246 248 247 248 248 250 250 252 253 254 254 255 255 255 255 255 255 255 255 255 255 255 255 255 255 255 255 255 255 255 255 255 255 255 255 255 255 255 255 255 255 255 255 255 255 255 255 255 255 255 255 255 255 255 255 255 255 255 255 255 255 255 255 255 255 255 255 255 255 255 255 255 255 255 255 255 255 255 255 255 255 255 255 255 255 255 255 255 255 255 255 255 255 255 255 255 255 255 255 255 255 255 255 255 255 255 255 255 255 255 255 255 255 255 255 255
245 245 244 245 245 244 243 242 243 243 242 241 242 242 242 243 243 242 242 243 244 244 243 242 243 242 241 241 242 241 240 238 238 235 235 233 231 230 231 230 230 229 229 228 227 226 225 224 224 224 224 224 223 223 223 222 222 221 220 219 219 219 218 218 219 219 219 219 219 220 219 219 219 219 219 219 219 220 219 220 220 219 219 219 219 219 219 219 218 217 217 217 217 217 216 217 218 219 219 220 221 222 222 223 223 223 223 223 224 224 224 224 224 223 223 222 222 221 221 221 221 220 220 220 220 220 219 219 219 219 219 219 219 219 218 217 217 215 215 214 213 212 213 214 214 213 213 213 213 213 213 214 215 216 217 219 219 220 219 220 220 221 221 222 222 222 222 222 222 221 221 221 220 220 220 221 221 222 221 222 223 225 225 226 226 227 227 228 229 230 229 229 230 230 230 232 232 232 231 230 231 231 231 231 231 231 232 232 232 230 230 230 229 229 229 230 230 229 228 227 228 229 228 228 228 228 228 228 228 227 227 227 227 227 227 228 228 228 227 226 226 224 223 221 219 217 217 216 215 214 213 210 210 210 210 211 212 213 213 215 215 215 214 214 214 213 212 211 210 208 209 209 208 207 207 207 207 207 207 208 208 209 209 209 210 210 211 212 212 213 212 212 213 213 212 213 212 211 211 211 210 210 209 208 208 205 204 202 201 201 201 202 202 201 201 201 201 203 203 204 204 204 204 205 205 204 204 204 204 205 205 206 206 206 206 206 206 207 207 208 210 211 211 212 213 214 215 218 219 220 219 219 219 218 218 218 218 218 218 219 220 222 222 223 224 225 225 227 227 229 228 228 229 230 229 229 230 231 232 234 234 235 235 236 236 237 238 240 241 241 241 242 242 243 243 244 245 246 246 247 248 249 249 251 252 253 253 255 255 255 255 255 255 255 255 255 255 255 255 255 255 255 255 255 255 255 255 255 255 255 255 255 255 255 255 255 255 255 255 255 255 255 255 255 255 255 255 255 255 255 255 255 255 255 255 255 255 255 255 255 255 255 255 255 255 255 255 255 255 255 255 255 255 255 255 255 255 255 255 255 255 255 255 255 255 255 255 255 255 255 255 255 255 255 255 255 255 255 255 255 255 255 255 255 255 255 255 255 255 255 255 255 255
246 245 245 245 246 245 244 243 245 244 244 243 244 244 245 244 244 243 244 244 246 244 244 243 245 242 241 241 244 240 239 239 240 236 235 233 231 231 231 230 231 229 229 228 227 225 225 224 225 224 224 224 225 223 223 223 225 222 221 220 221 220 220 220 221 220 221 220 222 221 221 220 222 220 220 220 223 221 221 221 222 221 221 220 222 221 221 221 222 219 219 218 219 218 218 219 221 221 222 222 224 223 224 223 223 223 224 224 226 224 225 225 225 224 224 223 223 221 221 221 222 221 220 220 222 220 220 219 220 219 219 219 220 218 218 217 217 215 214 213 212 212 213 213 215 213 213 213 214 213 213 214 216 216 218 219 222 219 219 219 221 220 221 221 222 221 221 221 222 220 220 220 222 220 220 221 222 222 222 223 225 224 225 225 227 227 228 228 230 230 231 230 231 231 232 232 233 232 232 231 233 232 232 232 232 232 233 233 234 232 231 230 231 230 230 230 232 230 230 229 231 229 229 228 229 228 229 228 229 227 227 226 227 227 228 228 230 228 227 226 227 224 222 220 218 216 215 215 217 214 213 211 209 210 211 211 213 213 215 215 217 215 215 214 215 213 212 211 209 209 209 209 210 208 207 207 207 207 208 208 209 209 209 209 212 211 213 213 215 214 215 214 216 214 213 212 213 211 211 211 211 210 210 209 210 206 205 203 202 202 202 202 204 203 203 202 202 203 205 205 206 205 206 206 207 205 205 205 205 205 206 206 208 207 207 207 208 208 208 209 212 212 213 213 215 216 218 220 224 222 222 221 222 220 219 219 221 219 220 220 221 222 224 224 226 226 227 228 230 230 230 229 230 230 231 230 231 232 234 235 238 236 236 236 237 237 239 240 244 241 242 242 244 243 244 245 247 247 248 248 250 250 251 252 255 254 255 255 255 255 255 255 255 255 255 255 255 255 255 255 255 255 255 255 255 255 255 255 255 255 255 255 255 255 255 255 255 255 255 255 255 255 255 255 255 255 255 255 255 255 255 255 255 255 255 255 255 255 255 255 255 255 255 255 255 255 255 255 255 255 255 255 255 255 255 255 255 255 255 255 255 255 255 255 255 255 255 255 255 255 255 255 255 255 255 255 255 255 255 255 255 255 255 255 255 255 255 255 255 255 255 255 255
246 246 246 245 245 246 245 244 244 245 245 244 245 246 246 246 245 245 245 245 244 245 245 244 243 241 241 241 240 239 240 239 238 237 236 234 234 232 231 231 230 229 229 228 227 225 224 224 224 224 223 223 223 223 223 223 222 221 222 222 222 222 222 222 222 222 222 221 221 222 221 221 220 220 221 221 221 222 222 222 222 222 222 221 222 222 222 222 221 221 221 220 220 220 220 221 221 222 222 223 223 223 224 224 224 224 224 225 224 224 225 226 226 226 226 225 224 222 222 222 222 222 222 221 221 221 221 220 220 219 219 218 218 218 217 216 216 215 215 213 213 212 212 212 212 213 213 213 212 212 213 213 213 216 217 218 217 217 218 218 218 219 220 220 220 220 220 220 219 219 219 220 220 220 221 221 221 222 222 223 222 224 224 225 225 227 227 227 228 230 230 231 231 232 232 233 232 232 232 232 232 233 233 233 233 233 233 234 233 233 232 231 231 231 231 230 230 231 230 229 229 229 229 229 229 229 229 228 227 227 226 226 226 227 227 228 227 227 227 226 225 223 222 220 219 217 216 215 214 214 214 212 212 210 210 212 212 213 214 215 214 214 215 215 214 213 213 212 211 210 209 209 208 208 208 208 208 208 208 208 208 209 209 209 210 212 213 214 214 215 215 215 214 214 214 212 212 212 212 211 210 210 210 209 208 207 207 205 205 203 202 202 203 204 204 204 204 205 205 205 206 207 207 207 206 206 206 206 206 207 207 207 207 208 208 208 208 209 209 210 210 212 213 214 215 217 217 220 220 222 223 223 223 222 222 221 220 220 221 221 222 223 223 224 225 226 227 229 229 231 231 230 230 231 231 231 232 234 234 235 234 235 236 235 236 238 238 240 239 240 242 243 243 244 244 245 245 247 248 249 249 251 251 253 252 254 255 255 255 255 255 255 255 255 255 255 255 255 255 255 255 255 255 255 255 255 255 255 255 255 255 255 255 255 255 255 255 255 255 255 255 255 255 255 255 255 255 255 255 255 255 255 255 255 255 255 255 255 255 255 255 255 255 255 255 255 255 255 255 255 255 255 255 255 255 255 255 255 255 255 255 255 255 255 255 255 255 255 255 255 255 255 255 255 255 255 255 255 255 255 255 255 255 255 255 255 255 255 255 255 255 255 255
247 247 247 247 247 247 247 246 246 245 246 246 247 247 248 247 247 246 246 245 245 245 245 243 243 241 240 240 240 239 239 238 239 237 236 235 235 233 232 231 231 230 230 228 227 225 223 223 224 223 223 222 222 222 222 222 222 222 223 223 224 223 224 224 224 224 225 223 223 222 222 221 221 221 222 221 222 222 222 223 224 223 224 223 224 223 225 223 223 222 222 222 223 222 222 223 224 224 224 224 224 224 226 225 225 225 225 225 225 225 227 227 228 227 228 226 226 224 224 223 224 223 223 222 222 221 221 220 221 219 219 218 218 217 216 215 215 214 215 213 213 212 212 211 211 212 213 213 213 212 213 213 213 215 218 217 216 216 218 218 219 218 220 219 220 219 220 219 219 218 218 219 220 220 221 220 221 221 223 222 222 223 224 225 226 226 227 227 229 230 232 232 233 233 234 233 233 233 234 233 234 234 235 234 234 234 235 234 234 233 233 232 232 232 233 231 231 230 231 229 230 229 230 229 230 229 230 228 227 226 225 225 226 226 228 227 226 226 227 225 225 222 221 219 219 217 216 215 215 214 214 213 214 212 212 212 213 214 216 215 215 215 216 215 215 214 214 213 213 210 210 209 209 208 209 208 209 208 209 208 208 209 211 210 211 212 215 214 214 215 217 215 215 214 214 213 214 212 212 211 211 210 210 209 209 207 206 206 207 205 204 204 205 205 206 206 207 207 208 207 208 208 209 208 207 206 206 207 208 208 209 208 209 209 210 209 210 210 210 210 211 213 217 216 216 218 219 219 220 222 225 224 225 224 223 222 222 222 223 222 224 224 226 225 226 227 229 230 231 232 233 231 232 231 232 232 234 235 237 235 235 235 236 236 238 238 239 239 239 240 242 243 244 244 244 245 246 247 249 249 250 251 253 252 253 254 255 255 255 255 255 255 255 255 255 255 255 255 255 255 255 255 255 255 255 255 255 255 255 255 255 255 255 255 255 255 255 255 255 255 255 255 255 255 255 255 255 255 255 255 255 255 255 255 255 255 255 255 255 255 255 255 255 255 255 255 255 255 255 255 255 255 255 255 255 255 255 255 255 255 255 255 255 255 255 255 255 255 255 255 255 255 255 255 255 255 255 255 255 255 255 255 255 255 255 255 255 255 255 255 255 255 255
249 249 249 249 248 248 248 248 247 246 247 247 247 248 248 249 249 248 247 246 246 245 244 242 242 241 241 240 239 238 238 238 238 237 237 235 234 233 232 231 231 230 229 227 227 225 224 222 222 223 223 223 223 223 223 223 223 223 223 224 224 225 226 227 227 226 225 225 224 223 222 222 222 222 221 221 222 223 223 225 225 225 224 223 224 224 224 225 225 224 224 224 224 224 225 226 226 226 225 225 225 226 225 226 226 226 225 225 226 226 227 229 229 229 228 227 227 226 225 225 224 224 223 222 222 222 221 220 220 220 219 218 218 217 216 214 214 214 213 213 213 212 212 212 212 212 212 213 213 213 213 213 213 215 215 217 217 216 217 218 218 217 218 219 219 218 218 217 218 217 217 218 219 220 220 220 220 221 221 221 222 223 223 225 226 227 227 227 228 230 230 232 233 234 233 233 233 233 233 233 234 234 234 235 235 235 235 236 236 235 234 233 233 232 232 232 232 230 230 229 230 229 229 229 230 229 228 227 227 226 226 225 225 226 225 226 226 225 225 225 224 222 221 218 218 216 216 214 213 213 213 213 213 213 213 214 214 215 215 216 216 215 215 215 215 214 214 213 212 210 210 208 209 209 209 209 209 208 208 208 209 210 210 211 211 213 213 215 216 215 215 215 215 213 214 214 213 212 212 211 211 210 209 209 209 208 208 207 207 206 206 206 206 207 207 208 208 208 208 208 209 210 209 209 209 208 208 209 209 210 209 210 210 210 210 210 211 212 212 212 213 214 215 218 219 220 219 220 222 224 224 226 227 226 224 223 223 223 223 223 224 225 225 225 226 228 228 231 232 233 232 232 232 232 232 233 234 235 235 236 236 236 236 238 238 239 239 239 240 241 241 243 244 245 245 246 246 247 247 250 250 251 251 252 253 253 254 255 255 255 255 255 255 255 255 255 255 255 255 255 255 255 255 255 255 255 255 255 255 255 255 255 255 255 255 255 255 255 255 255 255 255 255 255 255 255 255 255 255 255 255 255 255 255 255 255 255 255 255 255 255 255 255 255 255 255 255 255 255 255 255 255 255 255 255 255 255 255 255 255 255 255 255 255 255 255 255 255 255 255 255 255 255 255 255 255 255 255 255 255 255 255 255 255 255 255 255 255 255 255 255 255 255
253 251 251 250 251 249 249 249 250 248 249 248 250 249 250 250 253 249 248 247 248 245 244 243 243 242 241 240 239 238 239 238 239 237 237 235 235 233 232 231 231 230 230 228 228 226 225 223 223 223 224 224 225 224 224 224 224 224 225 225 227 226 228 229 233 228 227 226 226 223 222 222 223 222 223 222 224 223 224 226 230 226 226 224 225 224 225 225 227 225 225 225 227 226 227 228 231 228 227 226 227 226 227 227 228 227 227 226 228 227 228 229 233 230 229 228 228 226 226 225 226 224 223 223 223 222 222 221 222 220 219 218 218 217 216 215 215 214 213 213 213 212 213 212 213 212 213 213 214 213 214 213 214 215 217 217 219 217 218 218 219 217 217 218 219 218 218 217 218 217 217 218 220 219 220 219 221 221 222 222 224 223 224 225 228 227 228 228 230 230 231 232 236 234 234 233 233 233 234 234 235 234 235 235 236 235 236 236 239 235 234 233 235 233 234 233 233 231 231 230 231 230 231 230 232 229 228 227 227 226 226 225 226 225 225 225 225 224 225 224 224 221 220 218 217 215 215 213 212 212 212 212 214 213 214 215 218 216 217 216 218 215 215 215 217 215 215 213 213 211 211 209 209 209 209 209 210 209 209 209 210 210 211 211 212 213 215 215 219 216 216 215 216 214 214 213 214 212 212 211 212 210 209 209 210 208 208 207 209 207 207 207 210 208 209 209 210 209 209 210 213 211 211 210 211 209 210 210 212 211 211 211 212 211 212 212 215 214 214 214 216 216 218 219 223 221 222 222 225 225 227 227 231 227 225 224 225 224 225 225 227 226 226 226 228 228 230 231 236 233 233 232 233 232 232 233 237 236 237 237 238 237 238 238 240 239 240 239 241 241 243 243 246 245 246 246 248 247 248 250 253 251 251 252 254 254 255 255 255 255 255 255 255 255 255 255 255 255 255 255 255 255 255 255 255 255 255 255 255 255 255 255 255 255 255 255 255 255 255 255 255 255 255 255 255 255 255 255 255 255 255 255 255 255 255 255 255 255 255 255 255 255 255 255 255 255 255 255 255 255 255 255 255 255 255 255 255 255 255 255 255 255 255 255 255 255 255 255 255 255 255 255 255 255 255 255 255 255 255 255 255 255 255 255 255 255 255 255 255 255 255 255 255
253 253 253 252 251 251 250 249 250 250 250 249 250 251 251 251 250 250 250 248 247 245 245 244 244 243 242 241 240 239 239 239 238 238 237 236 236 235 234 232 232 231 230 229 228 227 226 225 225 224 224 224 224 224 225 225 225 225 225 226 226 227 227 228 227 228 228 226 225 224 224 223 222 222 223 223 223 224 225 226 224 225 226 225 225 225 225 226 225 226 226 226 226 226 227 228 228 229 229 228 227 227 227 227 227 227 227 226 226 227 228 229 228 229 229 228 228 227 227 226 226 225 225 224 224 224 223 221 221 220 220 219 219 218 217 216 215 215 215 214 213 212 213 213 213 213 213 214 214 214 214 213 214 216 216 216 217 218 218 218 217 216 217 217 217 218 218 218 217 217 218 218 218 219 218 218 219 220 221 223 223 224 224 224 225 227 228 229 228 229 230 232 231 233 234 233 233 233 233 234 233 234 234 235 234 234 235 236 235 235 235 233 233 234 234 233 233 232 231 230 231 231 231 231 230 228 228 226 227 227 226 226 225 225 224 224 224 224 224 223 222 220 220 218 218 215 215 214 214 212 212 212 212 213 214 214 214 216 216 216 216 215 215 215 215 215 215 214 213 212 212 211 210 209 209 210 209 209 209 209 209 209 210 211 211 213 213 214 214 216 216 215 215 214 214 213 212 211 212 211 211 210 210 208 209 209 208 207 208 208 208 207 207 209 209 209 209 210 210 211 210 210 211 210 210 210 210 211 211 212 212 212 212 212 212 213 213 215 216 216 216 217 217 218 219 221 222 222 223 225 226 227 226 226 227 226 225 225 225 225 225 226 226 227 227 228 228 230 229 231 232 231 232 232 232 232 233 236 237 237 237 238 238 239 238 239 239 239 240 242 242 243 243 245 246 247 246 247 248 249 248 250 251 251 251 253 254 255 255 255 255 255 255 255 255 255 255 255 255 255 255 255 255 255 255 255 255 255 255 255 255 255 255 255 255 255 255 255 255 255 255 255 255 255 255 255 255 255 255 255 255 255 255 255 255 255 255 255 255 255 255 255 255 255 255 255 255 255 255 255 255 255 255 255 255 255 255 255 255 255 255 255 255 255 255 255 255 255 255 255 255 255 255 255 255 255 255 255 255 255 255 255 255 255 255 255 255 255 255 255 255 255 255
254 253 254 253 253 252 251 251 252 251 252 251 252 252 252 250 250 250 250 249 249 247 246 245 246 244 243 241 241 240 240 239 239 238 238 238 239 237 236 234 234 232 231 230 229 227 226 226 227 225 225 225 225 226 228 226 227 226 227 226 226 227 228 226 226 226 226 225 226 224 224 223 224 224 225 224 225 225 226 225 224 224 225 225 226 225 226 226 226 226 227 227 228 227 229 228 229 229 230 228 228 227 227 226 227 227 228 226 227 227 228 228 228 228 229 228 229 227 227 226 227 226 227 225 226 225 225 223 222 220 220 219 220 218 218 216 216 215 216 215 215 213 214 213 213 213 215 215 215 215 215 214 216 216 218 217 217 218 219 218 218 217 217 216 217 217 218 217 218 217 219 218 218 218 218 218 220 221 223 223 223 224 225 225 226 227 229 228 229 229 231 230 230 232 234 233 235 234 234 233 233 233 234 234 235 235 236 235 235 234 235 233 234 234 235 234 233 232 231 231 232 231 232 230 230 228 228 227 228 227 227 226 226 225 224 224 225 224 224 222 221 220 220 218 219 216 215 215 216 214 215 213 214 213 215 214 214 215 217 216 217 216 215 215 216 215 216 214 214 212 212 211 212 210 211 210 210 209 209 209 209 210 212 211 211 213 215 214 214 214 215 215 215 214 214 213 212 211 212 211 211 210 210 209 210 209 208 208 209 208 208 207 207 208 210 209 210 210 211 210 211 210 211 210 210 210 211 211 212 212 214 213 213 213 213 213 214 216 218 217 218 218 218 218 219 221 223 223 224 225 227 226 226 226 228 227 227 226 225 225 226 226 226 227 228 228 229 228 228 229 230 230 232 232 233 232 233 235 238 237 237 238 240 239 239 239 241 240 241 242 243 243 243 245 247 247 247 247 249 248 248 249 251 250 251 252 254 254 255 255 255 255 255 255 255 255 255 255 255 255 255 255 255 255 255 255 255 255 255 255 255 255 255 255 255 255 255 255 255 255 255 255 255 255 255 255 255 255 255 255 255 255 255 255 255 255 255 255 255 255 255 255 255 255 255 255 255 255 255 255 255 255 255 255 255 255 255 255 255 255 255 255 255 255 255 255 255 255 255 255 255 255 255 255 255 255 255 255 255 255 255 255 255 255 255 255 255 255 255 255 255 255 255
254 254 254 254 254 254 253 253 252 253 253 253 253 253 252 250 250 250 249 249 249 248 247 246 245 244 243 242 241 241 241 240 240 239 239 239 239 238 237 235 235 234 233 231 230 228 228 228 228 227 227 227 227 228 227 227 227 226 227 227 227 227 226 225 225 224 224 225 224 224 224 223 224 225 224 225 225 226 225 225 225 225 225 225 225 226 226 226 227 227 227 228 228 228 228 229 229 228 228 228 228 227 227 226 227 227 226 226 227 227 226 227 227 227 227 228 228 227 227 226 227 227 226 226 226 225 225 224 223 221 221 220 220 219 218 217 217 216 215 215 215 214 214 214 214 214 214 216 216 216 215 215 216 217 217 217 218 218 217 217 217 217 216 216 216 217 217 217 217 217 217 218 218 217 217 218 219 221 221 223 223 224 224 225 225 227 227 228 228 229 228 229 230 231 231 233 234 234 233 232 233 233 233 234 234 235 234 234 234 233 233 233 234 234 234 235 235 233 232 232 231 231 231 230 230 228 228 227 227 227 226 226 227 226 225 224 224 224 223 222 222 220 219 218 217 215 216 216 215 214 214 214 214 213 214 214 215 216 216 217 217 217 216 215 215 216 215 214 214 213 213 212 212 211 212 212 212 211 210 210 210 210 210 211 212 213 212 214 214 213 214 215 214 213 213 213 213 212 211 211 211 210 210 209 210 209 210 210 209 209 208 208 208 208 208 210 210 210 210 210 211 211 210 210 210 211 211 212 212 213 213 214 214 214 214 214 215 217 217 219 219 219 219 219 219 221 221 223 224 225 224 225 225 226 226 227 227 227 226 226 227 227 227 228 227 227 227 227 227 227 228 230 230 231 231 232 233 235 235 237 238 238 238 239 239 240 240 241 241 242 242 243 244 245 245 247 247 247 247 247 247 248 248 250 251 252 252 254 254 255 255 255 255 255 255 255 255 255 255 255 255 255 255 255 255 255 255 255 255 255 255 255 255 255 255 255 255 255 255 255 255 255 255 255 255 255 255 255 255 255 255 255 255 255 255 255 255 255 255 255 255 255 255 255 255 255 255 255 255 255 255 255 255 255 255 255 255 255 255 255 255 255 255 255 255 255 255 255 255 255 255 255 255 255 255 255 255 255 255 255 255 255 255 255 255 255 255 255 255 255 255 255 255
255 255 255 255 255 255 255 254 254 254 254 254 255 254 253 251 251 250 250 249 250 248 247 246 247 244 243 242 241 241 242 242 244 242 242 241 243 240 239 237 238 235 234 232 230 229 229 229 231 229 228 229 231 229 228 228 229 227 228 227 228 227 227 225 226 224 224 224 224 224 224 224 227 225 225 225 227 226 226 226 227 226 226 225 226 226 226 227 229 228 229 229 231 229 230 230 231 229 229 227 227 227 228 227 228 227 227 226 227 226 226 226 227 227 227 227 228 227 228 227 228 227 226 226 227 225 225 224 224 221 221 220 221 218 217 216 217 215 215 214 216 215 215 215 217 215 216 216 218 217 217 216 219 218 219 218 221 219 219 217 218 217 216 216 217 217 218 217 218 217 218 218 219 218 218 218 219 220 222 223 224 224 225 225 226 227 228 228 228 228 228 228 230 230 232 233 236 233 234 233 234 233 233 234 236 235 235 234 233 233 234 233 234 234 235 235 237 234 233 232 232 231 231 230 230 228 228 227 227 226 226 227 229 227 226 225 226 224 224 222 222 220 219 218 217 215 216 216 217 215 215 214 214 214 215 215 216 216 218 218 219 217 217 216 217 216 215 214 213 213 213 213 215 213 213 212 214 212 211 210 211 211 211 212 214 213 213 213 214 214 215 215 216 213 213 212 213 212 212 211 211 210 210 210 212 211 211 210 212 210 209 208 208 208 209 209 211 210 211 210 212 211 211 210 211 211 212 212 214 213 214 214 216 215 216 216 218 218 219 220 223 221 221 220 221 221 222 223 225 224 224 224 225 225 225 226 229 227 227 227 230 228 228 228 230 228 228 227 228 228 229 229 230 230 232 232 235 234 235 236 239 237 238 238 239 239 241 241 243 241 242 243 245 245 246 247 249 247 247 246 247 247 249 249 251 251 252 253 255 255 255 255 255 255 255 255 255 255 255 255 255 255 255 255 255 255 255 255 255 255 255 255 255 255 255 255 255 255 255 255 255 255 255 255 255 255 255 255 255 255 255 255 255 255 255 255 255 255 255 255 255 255 255 255 255 255 255 255 255 255 255 255 255 255 255 255 255 255 255 255 255 255 255 255 255 255 255 255 255 255 255 255 255 255 255 255 255 255 255 255 255 255 255 255 255 255 255 255 255 255 255 255 255
255 255 255 255 255 255 255 255 255 255 255 255 255 255 254 253 253 252 251 250 250 249 249 247 246 244 244 243 243 243 243 244 243 244 244 243 242 240 240 238 238 236 236 234 233 230 230 229 229 230 230 230 229 230 230 229 229 228 228 227 227 227 226 225 225 223 223 223 223 224 224 224 224 225 226 226 225 225 226 227 226 226 226 226 226 227 227 228 228 229 229 229 229 229 229 230 230 230 229 227 228 228 228 228 228 228 228 227 227 227 227 227 227 228 228 228 227 228 228 227 227 227 227 226 225 225 225 224 223 221 221 219 218 216 217 216 215 215 214 213 214 215 215 215 215 216 216 215 216 217 217 216 217 219 219 218 218 218 218 217 217 217 217 217 217 218 218 218 218 218 218 218 218 219 219 218 219 221 221 223 223 224 224 225 226 227 227 228 227 227 227 228 228 230 230 231 230 231 233 233 233 232 233 233 233 234 234 234 234 234 234 234 234 235 235 236 235 235 234 232 232 232 231 230 229 228 228 227 226 225 226 227 226 227 227 225 225 224 223 221 221 220 220 218 217 215 215 215 214 214 215 215 215 215 215 216 216 217 217 218 218 218 218 218 218 217 216 215 215 214 214 213 213 214 213 212 212 212 212 211 211 212 212 212 212 213 213 213 213 214 214 215 214 212 213 212 212 212 212 211 211 211 211 211 211 212 211 210 210 210 210 209 209 209 208 208 208 209 210 210 211 212 211 210 211 212 212 213 212 213 213 213 214 216 216 216 217 218 219 220 220 222 222 222 221 221 221 222 221 222 223 224 224 224 224 225 225 227 227 227 227 228 228 227 227 228 228 228 228 228 228 228 228 230 230 231 231 232 233 235 235 236 237 238 238 239 239 240 240 240 242 243 243 245 245 246 245 246 246 245 246 247 247 249 250 252 253 254 254 255 255 255 255 255 255 255 255 255 255 255 255 255 255 255 255 255 255 255 255 255 255 255 255 255 255 255 255 255 255 255 255 255 255 255 255 255 255 255 255 255 255 255 255 255 255 255 255 255 255 255 255 255 255 255 255 255 255 255 255 255 255 255 255 255 255 255 255 255 255 255 255 255 255 255 255 255 255 255 255 255 255 255 255 255 255 255 255 255 255 255 255 255 255 255 255 255 255 255 255 255 255 255 255
255 255 255 255 255 255 255 255 255 255 255 255 255 255 255 254 254 253 253 251 251 250 250 248 248 245 244 244 245 244 246 245 245 244 245 243 243 241 241 240 241 238 237 235 236 233 231 231 231 231 231 231 231 230 231 230 231 229 229 228 227 227 226 225 225 223 223 223 223 224 225 224 225 225 227 226 226 226 228 228 228 227 227 227 228 228 230 229 230 230 230 229 229 229 229 230 231 230 229 229 230 229 230 229 229 228 229 227 227 227 229 228 229 228 229 228 228 228 229 227 228 227 228 226 226 225 224 223 224 221 220 218 218 216 215 214 215 214 213 212 214 214 215 214 215 215 216 215 216 216 217 217 218 219 220 219 219 218 218 217 217 217 218 217 218 218 219 219 219 218 218 218 219 219 221 220 221 221 223 222 223 224 225 226 227 227 229 227 227 227 228 227 228 229 230 229 229 230 232 232 233 233 235 234 235 234 235 234 234 234 235 234 235 235 236 236 236 235 235 233 234 232 231 230 230 228 229 227 226 226 227 227 227 227 227 225 226 224 224 222 221 220 220 218 218 216 215 214 214 214 216 215 216 215 216 216 217 218 220 219 219 218 219 219 220 218 216 216 216 215 216 215 215 214 214 213 214 213 214 212 213 212 213 212 212 213 214 213 214 214 216 215 214 212 212 212 212 212 212 211 212 212 214 213 213 212 213 211 211 210 210 209 210 209 210 208 208 209 211 211 212 212 213 212 212 212 214 213 213 213 213 214 215 216 217 217 218 218 220 220 221 222 224 223 223 222 222 221 221 222 224 223 224 224 225 225 226 226 227 227 228 228 229 228 228 227 228 228 229 228 229 228 228 229 230 230 231 231 233 234 235 235 237 237 238 239 241 240 240 240 242 243 244 245 246 245 245 245 245 245 246 246 248 248 250 252 255 254 255 255 255 255 255 255 255 255 255 255 255 255 255 255 255 255 255 255 255 255 255 255 255 255 255 255 255 255 255 255 255 255 255 255 255 255 255 255 255 255 255 255 255 255 255 255 255 255 255 255 255 255 255 255 255 255 255 255 255 255 255 255 255 255 255 255 255 255 255 255 255 255 255 255 255 255 255 255 255 255 255 255 255 255 255 255 255 255 255 255 255 255 255 255 255 255 255 255 255 255 255 255 255 255 255
255 255 255 255 255 255 255 255 255 255 255 255 255 255 255 255 255 255 254 253 252 250 250 249 248 245 246 246 245 245 246 247 246 245 244 243 243 242 242 242 241 239 238 236 236 235 234 233 232 232 232 232 231 231 231 232 232 230 230 229 229 228 227 225 225 224 223 223 223 224 224 224 225 225 226 227 227 227 227 229 229 229 229 229 229 230 230 231 231 231 230 229 229 229 229 230 231 231 231 230 230 230 230 230 229 229 228 228 228 228 228 229 229 229 228 228 228 227 227 227 228 228 227 227 226 225 224 223 223 221 220 217 217 215 214 213 213 213 212 211 212 213 213 214 214 215 215 215 215 216 217 218 218 219 218 219 219 218 217 216 217 217 216 217 217 218 219 220 220 219 219 219 219 220 220 221 221 222 221 222 223 224 225 227 228 228 228 227 228 227 227 227 227 228 228 229 230 231 230 231 232 234 234 235 235 235 234 234 235 235 234 234 235 235 235 236 236 236 235 234 233 231 231 230 230 228 228 227 226 226 226 227 227 227 226 225 225 224 223 222 221 219 219 218 218 216 215 214 214 214 214 216 216 216 216 217 217 218 218 219 220 219 220 221 221 220 219 217 217 217 216 216 216 215 214 213 214 214 213 212 213 213 212 212 213 213 213 214 214 215 214 215 214 213 213 212 212 212 212 212 213 214 214 215 215 213 212 211 211 210 210 209 209 209 209 208 209 210 210 212 212 213 213 213 213 213 213 214 214 213 214 215 215 217 217 218 218 219 219 221 221 222 222 223 223 223 222 222 222 222 222 223 223 223 223 224 225 226 226 227 227 228 228 228 228 227 228 228 228 229 229 229 229 230 230 231 231 231 232 233 234 235 236 237 237 239 238 239 240 241 241 243 244 245 244 245 245 245 245 245 245 245 246 248 250 252 252 254 255 255 255 255 255 255 255 255 255 255 255 255 255 255 255 255 255 255 255 255 255 255 255 255 255 255 255 255 255 255 255 255 255 255 255 255 255 255 255 255 255 255 255 255 255 255 255 255 255 255 255 255 255 255 255 255 255 255 255 255 255 255 255 255 255 255 255 255 255 255 255 255 255 255 255 255 255 255 255 255 255 255 255 255 255 255 255 255 255 255 255 255 255 255 255 255 255 255 255 255 255 255 255 255 255
255 255 255 255 255 255 255 255 255 255 255 255 255 255 255 255 255 255 255 254 253 252 251 250 248 247 247 247 248 247 248 248 249 246 246 244 243 243 243 242 243 240 239 237 238 236 235 234 235 233 233 232 233 232 232 232 235 232 232 231 231 229 228 226 225 224 223 223 224 224 225 225 226 226 227 227 228 228 229 229 231 229 230 230 231 230 232 232 235 232 231 230 230 230 231 232 235 232 232 231 232 231 231 230 230 229 229 227 227 227 229 229 231 229 229 228 229 228 228 227 228 228 228 227 227 225 225 224 225 221 220 218 217 215 213 212 212 212 212 211 211 211 212 213 215 214 215 215 216 216 218 218 221 219 219 218 219 217 217 216 218 216 216 217 218 218 220 220 223 220 219 219 221 220 221 221 222 221 222 222 225 224 226 228 233 230 230 228 229 227 227 227 227 228 229 229 231 231 232 232 234 233 234 234 236 235 235 235 237 236 236 235 236 235 235 236 239 236 236 234 234 232 231 230 231 229 228 226 225 225 226 226 228 226 226 225 226 224 222 221 221 219 219 218 218 216 215 214 214 214 215 216 217 216 217 217 219 219 220 220 222 221 222 223 226 221 220 219 219 217 217 216 217 215 215 214 215 214 214 213 213 213 213 213 215 214 214 214 216 215 215 215 215 213 213 212 212 212 212 213 215 214 215 216 218 215 214 212 212 211 210 209 209 209 209 208 210 210 211 212 214 213 214 213 214 213 214 214 215 214 215 215 217 217 219 219 220 220 221 221 223 222 222 223 225 223 223 223 224 223 223 222 222 222 224 224 227 226 227 227 229 228 228 228 230 229 229 228 229 229 229 229 231 230 231 231 232 232 233 234 236 236 237 237 238 238 239 239 240 241 242 243 246 244 244 244 246 245 245 245 245 246 248 249 252 252 254 255 255 255 255 255 255 255 255 255 255 255 255 255 255 255 255 255 255 255 255 255 255 255 255 255 255 255 255 255 255 255 255 255 255 255 255 255 255 255 255 255 255 255 255 255 255 255 255 255 255 255 255 255 255 255 255 255 255 255 255 255 255 255 255 255 255 255 255 255 255 255 255 255 255 255 255 255 255 255 255 255 255 255 255 255 255 255 255 255 255 255 255 255 255 255 255 255 255 255 255 255 255 255 255 255 255
255 255 255 255 255 255 255 255 255 255 255 255 255 255 255 255 255 255 255 255 255 254 253 252 251 250 249 249 248 248 248 248 247 246 246 245 245 244 243 243 242 241 240 238 238 236 236 235 235 234 234 233 232 232 232 232 232 233 233 232 231 230 229 227 227 225 224 223 223 224 224 225 225 226 226 227 227 228 228 228 228 229 230 230 230 230 231 232 231 232 232 231 231 231 231 232 231 232 233 232 232 232 232 231 231 230 229 227 228 227 228 229 228 229 229 228 228 228 228 227 227 228 228 228 227 226 226 224 223 221 221 218 218 216 215 213 213 212 211 211 211 211 211 211 212 214 215 215 215 216 217 218 217 218 218 217 218 217 217 216 216 216 217 217 217 218 219 220 219 220 220 220 219 220 220 220 220 221 221 222 222 224 225 227 227 229 229 228 229 228 228 227 227 228 228 230 230 231 231 232 232 233 233 234 234 234 235 235 235 236 236 236 236 236 236 236 235 236 236 235 234 232 232 231 230 229 228 227 227 226 225 226 225 226 226 224 224 224 224 222 221 219 218 218 218 217 216 214 215 215 215 216 216 216 217 218 218 219 220 221 221 222 222 223 221 221 222 220 220 218 218 217 217 216 216 215 215 214 214 214 214 214 214 215 214 215 215 215 215 215 215 215 215 214 214 213 213 213 213 213 213 215 215 216 215 215 215 214 213 212 212 211 210 209 208 208 209 209 210 211 211 213 214 214 214 214 214 215 214 215 215 215 216 218 219 220 220 221 221 221 220 221 222 223 222 223 223 223 223 223 223 223 223 222 223 224 224 226 227 228 228 229 229 229 229 230 230 229 229 229 229 229 230 231 230 230 231 232 232 234 234 236 236 237 237 238 238 238 239 241 241 242 242 243 244 244 244 245 246 246 246 246 247 249 250 253 253 255 255 255 255 255 255 255 255 255 255 255 255 255 255 255 255 255 255 255 255 255 255 255 255 255 255 255 255 255 255 255 255 255 255 255 255 255 255 255 255 255 255 255 255 255 255 255 255 255 255 255 255 255 255 255 255 255 255 255 255 255 255 255 255 255 255 255 255 255 255 255 255 255 255 255 255 255 255 255 255 255 255 255 255 255 255 255 255 255 255 255 255 255 255 255 255 255 255 255 255 255 255 255 255 255 255
255 255 255 255 255 255 255 255 255 255 255 255 255 255 255 255 255 255 255 255 255 255 255 254 253 252 252 250 250 249 249 247 247 246 247 246 247 245 245 243 242 241 240 239 240 237 236 235 236 234 234 232 232 231 232 231 232 232 234 233 233 231 230 228 228 226 225 224 225 224 225 225 226 226 227 227 227 228 229 228 229 229 231 230 231 231 232 231 231 231 232 231 232 231 232 231 232 232 233 232 232 232 233 232 232 230 230 228 229 228 229 228 228 228 229 228 230 229 229 228 228 228 229 228 228 227 227 224 224 222 221 219 219 216 215 214 214 212 212 211 210 210 212 211 212 213 216 215 216 217 219 218 217 217 218 218 219 217 217 217 218 217 217 217 219 219 221 219 219 219 220 219 220 219 220 219 220 220 221 221 221 223 225 225 226 227 229 228 230 229 230 229 229 229 230 230 230 230 231 231 232 233 234 234 234 234 235 235 236 236 237 236 237 236 236 236 236 236 236 234 234 232 231 231 231 229 228 227 227 226 226 225 225 225 226 225 225 224 224 222 222 219 217 217 218 217 217 216 217 216 217 216 217 217 218 218 219 219 221 221 222 222 223 221 221 220 221 221 222 220 220 218 218 217 217 216 217 215 215 215 216 216 217 215 215 215 216 216 216 215 215 215 216 215 215 214 215 214 215 214 215 215 216 215 215 215 216 214 214 212 213 212 212 210 209 209 210 210 210 211 212 213 215 214 215 215 216 215 215 215 216 217 219 220 222 221 221 221 222 221 220 221 222 222 223 223 224 223 224 223 224 223 224 223 224 224 225 226 227 227 229 229 231 230 230 230 231 230 230 230 232 231 231 231 231 231 232 232 233 233 234 235 237 236 237 237 239 239 240 241 243 241 241 242 243 244 245 245 247 247 248 248 250 250 251 253 255 255 255 255 255 255 255 255 255 255 255 255 255 255 255 255 255 255 255 255 255 255 255 255 255 255 255 255 255 255 255 255 255 255 255 255 255 255 255 255 255 255 255 255 255 255 255 255 255 255 255 255 255 255 255 255 255 255 255 255 255 255 255 255 255 255 255 255 255 255 255 255 255 255 255 255 255 255 255 255 255 255 255 255 255 255 255 255 255 255 255 255 255 255 255 255 255 255 255 255 255 255 255 255 255 255 255
255 255 255 255 255 255 255 255 255 255 255 255 255 255 255 255 255 255 255 255 255 255 255 255 255 254 253 251 251 250 249 247 247 247 247 247 247 246 245 244 243 241 241 240 239 238 237 236 236 235 234 232 232 231 231 231 231 231 232 233 233 231 231 229 229 226 226 225 225 225 225 226 226 226 227 228 228 228 227 228 228 229 229 230 230 231 231 231 231 231 230 231 231 231 231 231 232 232 232 232 232 232 232 232 232 231 230 229 229 228 228 228 228 228 228 228 229 230 229 229 228 228 227 227 227 227 226 224 224 222 221 219 218 216 216 215 215 213 213 211 211 210 210 211 212 213 213 215 217 218 217 218 218 217 218 219 219 218 218 217 217 218 218 218 218 220 219 219 219 219 219 219 219 219 219 218 219 220 220 221 222 223 222 224 224 225 226 227 228 229 229 230 230 230 229 230 230 231 231 232 232 233 233 235 235 235 235 236 236 236 236 237 237 237 236 236 236 236 235 234 234 232 232 231 230 228 228 226 226 226 226 225 226 226 225 225 225 224 224 223 222 220 219 217 216 216 216 216 216 216 217 217 217 218 217 218 219 220 220 222 223 223 221 220 220 220 220 221 221 220 220 220 220 219 218 218 217 217 217 217 217 217 217 216 217 217 217 217 216 216 216 216 216 216 215 215 215 216 216 216 216 216 216 216 216 215 214 214 213 212 213 213 212 211 211 210 210 211 211 212 212 214 214 215 215 216 216 216 216 216 217 219 219 221 221 222 222 222 222 222 222 222 222 223 223 223 223 222 222 222 223 224 223 223 224 225 225 226 226 227 228 230 230 230 231 231 231 231 231 231 231 232 232 231 231 232 232 233 233 234 234 234 235 236 236 237 237 239 240 241 241 241 241 241 242 244 244 246 246 248 248 250 250 252 253 254 253 255 255 255 255 255 255 255 255 255 255 255 255 255 255 255 255 255 255 255 255 255 255 255 255 255 255 255 255 255 255 255 255 255 255 255 255 255 255 255 255 255 255 255 255 255 255 255 255 255 255 255 255 255 255 255 255 255 255 255 255 255 255 255 255 255 255 255 255 255 255 255 255 255 255 255 255 255 255 255 255 255 255 255 255 255 255 255 255 255 255 255 255 255 255 255 255 255 255 255 255 255 255 255 255 255 255
255 255 255 255 255 255 255 255 255 255 255 255 255 255 255 255 255 255 255 255 255 255 255 255 255 255 255 253 254 251 250 248 248 247 247 247 248 246 245 244 245 242 242 241 241 238 237 236 237 235 234 232 231 231 231 231 232 232 233 233 234 232 232 231 232 228 226 225 225 225 226 227 229 228 229 228 229 228 228 228 229 229 230 230 231 230 231 230 231 230 230 230 230 231 232 232 234 232 232 232 234 232 232 232 234 231 230 229 229 228 227 228 229 228 228 229 231 230 230 229 229 228 228 227 228 226 225 224 225 222 221 219 218 217 217 216 217 215 214 212 211 210 211 211 212 213 215 216 219 218 218 217 218 218 219 219 221 219 219 218 219 218 219 218 220 219 220 219 219 219 219 218 218 218 219 218 219 219 221 221 223 223 223 224 225 225 227 227 229 229 230 230 231 230 230 230 232 231 232 232 234 234 235 235 237 236 236 236 237 236 237 237 239 237 236 236 237 236 235 234 234 232 231 230 231 228 227 225 225 225 226 226 228 226 225 225 225 224 224 223 223 220 219 217 217 217 217 217 218 217 218 218 219 218 218 218 220 220 222 222 226 223 222 220 220 220 220 220 222 221 221 221 222 220 220 219 219 218 218 219 221 219 219 218 220 218 219 218 218 217 217 217 218 216 216 216 217 216 217 216 217 216 217 216 217 215 215 214 213 213 214 213 214 212 211 211 213 212 212 212 214 214 215 215 217 217 217 216 217 217 219 220 223 222 223 223 224 223 223 222 223 223 224 224 224 223 224 223 223 223 224 224 224 224 225 226 227 227 228 229 231 230 231 231 232 232 232 231 232 232 233 233 235 233 233 233 234 233 234 234 235 235 236 236 237 237 238 239 242 241 242 241 242 242 243 244 245 246 247 248 250 250 252 253 255 254 255 255 255 255 255 255 255 255 255 255 255 255 255 255 255 255 255 255 255 255 255 255 255 255 255 255 255 255 255 255 255 255 255 255 255 255 255 255 255 255 255 255 255 255 255 255 255 255 255 255 255 255 255 255 255 255 255 255 255 255 255 255 255 255 255 255 255 255 255 255 255 255 255 255 255 255 255 255 255 255 255 255 255 255 255 255 255 255 255 255 255 255 255 255 255 255 255 255 255 255 255 255 255 255 255 255 255
255 255 255 255 255 255 255 255 255 255 255 255 255 255 255 255 255 255 255 255 255 255 255 255 255 255 255 255 254 252 251 249 249 248 247 247 246 245 245 244 243 243 242 241 240 238 237 236 236 235 234 233 233 232 231 231 232 233 232 232 232 232 232 231 230 229 229 227 227 227 226 227 227 229 229 228 229 229 229 228 228 229 229 230 229 229 229 229 230 231 230 229 230 231 231 232 232 233 233 233 233 233 233 233 232 232 231 230 229 228 228 228 228 229 229 229 229 230 230 229 229 228 228 227 227 226 226 225 224 223 222 220 220 219 218 217 216 216 215 213 213 211 210 211 211 213 213 215 215 217 217 217 217 218 218 219 218 219 219 219 219 219 219 218 219 219 220 220 220 219 219 219 219 219 219 219 219 219 220 222 222 223 223 224 224 225 226 227 227 229 229 230 229 230 230 230 230 230 231 233 233 235 235 235 235 236 236 237 237 237 237 237 236 236 236 235 236 236 235 234 233 231 231 230 229 227 227 225 225 225 225 226 225 225 226 225 225 225 224 223 222 220 220 218 218 218 218 218 217 217 218 218 218 219 219 219 219 221 221 221 221 222 222 221 221 220 220 220 220 221 221 222 221 220 220 219 220 220 220 220 219 220 220 220 219 219 220 219 219 218 218 218 217 217 217 216 216 217 217 217 217 217 217 217 217 216 216 215 215 214 214 214 213 213 213 212 212 212 213 213 213 215 215 216 216 218 218 217 217 218 218 220 220 222 223 224 224 224 224 223 224 225 225 225 224 224 224 223 224 224 224 225 225 225 226 227 227 229 230 231 230 231 231 232 232 233 232 232 232 232 232 233 233 233 234 234 234 234 234 234 234 235 236 237 236 237 238 239 239 241 241 242 242 242 243 244 244 246 247 248 248 251 252 254 253 254 255 255 255 255 255 255 255 255 255 255 255 255 255 255 255 255 255 255 255 255 255 255 255 255 255 255 255 255 255 255 255 255 255 255 255 255 255 255 255 255 255 255 255 255 255 255 255 255 255 255 255 255 255 255 255 255 255 255 255 255 255 255 255 255 255 255 255 255 255 255 255 255 255 255 255 255 255 255 255 255 255 255 255 255 255 255 255 255 255 255 255 255 255 255 255 255 255 255 255 255 255 255 255 255 255 255 255
255 255 255 255 255 255 255 255 255 255 255 255 255 255 255 255 255 255 255 255 255 255 255 255 255 255 255 255 255 252 250 249 250 248 247 246 246 244 244 243 243 242 242 240 239 237 235 235 236 234 234 233 234 233 232 232 233 233 234 233 233 232 232 231 230 229 229 229 230 228 228 228 228 229 231 230 230 229 230 229 230 229 230 230 230 230 230 230 231 231 232 230 231 231 232 232 232 233 234 233 234 233 233 233 233 232 231 231 231 229 228 228 229 229 230 229 230 230 231 229 229 228 228 227 227 226 226 226 226 224 222 221 222 220 220 218 217 216 216 214 214 211 210 210 211 212 214 214 214 216 218 217 217 217 219 218 217 218 220 219 220 219 220 219 220 220 222 221 221 220 219 219 220 220 221 220 220 220 222 222 222 223 225 224 224 225 227 227 227 228 230 229 229 229 230 230 231 231 232 233 235 236 238 236 235 236 237 237 238 237 237 236 235 235 236 236 237 235 235 233 232 230 230 229 229 226 225 225 225 225 226 226 226 225 226 225 226 225 225 223 222 220 219 219 220 219 219 218 219 218 219 218 219 219 221 220 220 220 222 221 221 221 222 221 222 220 220 220 221 221 222 222 223 222 222 221 222 221 221 221 221 221 222 221 221 221 223 221 222 221 221 219 219 217 217 217 218 218 219 218 218 218 218 218 218 217 217 216 216 215 216 214 214 213 213 212 213 213 214 214 215 216 218 217 218 218 220 219 219 219 220 220 220 222 225 225 226 225 225 225 226 226 227 226 225 225 225 225 226 226 227 226 226 227 229 229 230 231 233 232 233 233 233 233 234 234 234 233 232 232 233 233 233 233 234 234 235 235 236 235 235 236 238 237 237 238 241 240 241 241 242 242 243 243 245 245 246 247 249 248 249 251 254 254 254 255 255 255 255 255 255 255 255 255 255 255 255 255 255 255 255 255 255 255 255 255 255 255 255 255 255 255 255 255 255 255 255 255 255 255 255 255 255 255 255 255 255 255 255 255 255 255 255 255 255 255 255 255 255 255 255 255 255 255 255 255 255 255 255 255 255 255 255 255 255 255 255 255 255 255 255 255 255 255 255 255 255 255 255 255 255 255 255 255 255 255 255 255 255 255 255 255 255 255 255 255 255 255 255 255 255 255 255
255 255 255 255 255 255 255 255 255 255 255 255 255 255 255 255 255 255 255 255 255 255 255 255 255 255 255 255 255 251 251 249 249 248 247 245 245 244 243 242 242 241 241 240 239 237 236 235 234 234 234 234 234 234 234 234 234 235 234 234 233 232 232 231 231 230 230 230 230 230 230 229 230 231 230 231 231 230 230 230 230 230 230 231 231 231 230 231 231 232 232 231 232 231 231 232 232 233 232 233 234 234 234 234 234 233 232 232 231 229 229 229 228 228 229 230 230 230 229 229 229 227 227 226 227 226 226 227 226 225 224 222 221 219 219 218 218 216 216 215 214 211 211 210 210 212 212 214 214 215 215 217 217 217 217 217 217 217 218 220 220 220 219 219 220 220 221 222 222 221 220 220 220 220 220 221 221 222 222 223 223 224 223 224 225 226 226 227 227 228 228 229 229 230 230 231 231 231 232 235 235 237 236 236 237 237 237 238 238 238 237 236 236 235 235 236 236 235 234 232 232 229 229 227 227 226 226 225 225 225 225 226 226 225 225 226 225 224 224 222 222 220 220 219 219 219 219 218 219 218 219 219 219 220 219 220 221 220 220 221 221 221 220 221 221 220 220 221 221 222 222 223 223 223 222 221 222 222 222 222 222 221 221 222 222 222 222 223 224 223 221 219 219 217 218 218 218 219 218 219 219 219 219 219 219 219 218 217 217 216 215 215 214 212 213 213 213 213 214 215 216 217 217 218 219 219 219 220 221 221 221 222 222 224 224 227 228 228 227 227 227 227 227 227 227 226 226 227 227 227 227 228 228 229 229 230 231 233 233 234 235 235 235 235 235 235 234 234 234 233 233 234 234 234 234 235 235 236 236 236 237 237 237 238 239 240 240 241 242 241 242 243 243 244 244 245 246 248 248 249 250 251 251 254 254 255 255 255 255 255 255 255 255 255 255 255 255 255 255 255 255 255 255 255 255 255 255 255 255 255 255 255 255 255 255 255 255 255 255 255 255 255 255 255 255 255 255 255 255 255 255 255 255 255 255 255 255 255 255 255 255 255 255 255 255 255 255 255 255 255 255 255 255 255 255 255 255 255 255 255 255 255 255 255 255 255 255 255 255 255 255 255 255 255 255 255 255 255 255 255 255 255 255 255 255 255 255 255 255 255 255 255 255
