123 121 120 120 120 118 117 114 112 112 112 111 111 110 110 110 111 111 110 108 108 107 107 106 106 103 101 97 93 90 87 83 77 82 84 84 83 82 82 81 81 81 81 81 82 83 85 86 89 89 90 89 89 87 85 84 83 84 84 84 84 83 82 80 78 
122 122 121 120 119 117 117 115 115 113 111 111 111 111 110 109 110 112 110 108 108 108 107 106 105 104 103 99 97 92 90 87 88 86 84 85 83 82 82 82 82 82 81 81 81 82 83 85 85 88 89 90 89 87 86 85 85 85 84 84 83 83 82 81 79 
123 121 120 120 120 118 117 115 115 112 110 110 111 110 109 109 111 111 112 109 109 108 109 107 106 104 104 100 99 94 90 91 94 91 90 87 83 82 81 82 83 82 83 81 81 82 83 84 85 87 91 90 90 88 86 86 88 86 86 84 83 82 82 80 80 
123 122 121 120 120 118 117 115 115 113 112 111 110 109 109 109 109 109 109 109 109 108 108 109 108 105 104 101 100 97 97 94 94 94 92 90 88 84 83 82 81 81 81 81 81 82 82 83 84 87 87 89 90 89 89 88 88 87 86 85 84 83 81 80 80 
126 123 122 121 122 118 116 115 115 112 111 110 112 110 110 110 110 109 109 109 109 108 108 108 109 106 106 102 99 98 98 98 101 96 93 91 90 86 84 83 81 81 82 81 81 81 83 83 84 85 87 88 91 90 90 89 91 88 87 85 83 82 81 80 81 
123 122 122 120 120 119 118 116 113 110 110 109 110 110 112 112 111 111 110 109 109 108 108 108 107 106 106 104 103 100 100 100 99 96 96 92 91 88 87 85 83 82 81 81 81 81 82 83 83 84 84 86 87 90 90 90 89 90 88 85 85 83 82 81 80 
123 122 121 120 121 118 117 114 112 109 109 109 111 111 114 113 113 112 112 110 110 108 107 107 108 107 108 105 105 102 101 101 102 98 95 93 93 89 88 85 84 82 81 81 82 83 84 84 84 84 85 86 88 90 92 90 89 89 89 86 86 84 84 81 80 
123 123 122 120 119 117 116 112 111 108 109 109 110 111 112 115 115 114 113 112 111 109 109 108 108 108 107 106 105 104 104 104 104 102 99 95 93 90 89 84 83 81 83 83 83 85 85 86 86 86 86 87 87 90 89 91 90 88 87 86 86 84 83 81 79 
125 123 122 120 119 117 115 112 107 108 109 109 111 111 113 114 117 114 113 112 112 111 112 110 111 109 108 106 104 104 105 105 109 103 100 97 95 92 89 86 82 83 84 84 84 86 87 88 89 87 87 87 88 88 89 89 91 88 88 86 85 83 81 80 77 
124 123 124 122 121 118 117 114 114 109 108 109 109 110 111 114 112 113 113 112 112 112 112 111 110 110 109 107 107 106 105 105 104 103 103 100 99 95 93 89 90 88 87 88 87 89 88 90 88 88 88 87 86 87 87 88 87 88 88 87 86 84 83 81 79 
125 125 126 123 122 120 120 117 118 112 109 109 109 110 112 112 111 111 111 111 112 112 114 111 110 109 110 107 107 106 107 106 106 104 103 102 103 98 94 93 95 92 92 90 89 90 92 90 90 89 88 87 86 86 85 86 86 87 88 87 87 84 83 81 80 
126 126 125 124 123 121 121 119 118 115 114 111 110 109 110 112 111 110 110 111 112 113 111 110 110 109 108 107 107 106 107 106 107 106 105 103 102 100 99 97 96 95 94 92 91 90 90 90 91 90 89 88 87 86 86 87 86 86 86 87 87 85 84 82 81 
128 127 126 124 124 122 122 121 121 117 115 113 111 111 111 111 112 110 110 111 113 111 110 110 109 108 108 107 105 107 109 108 109 107 106 104 103 100 98 98 101 98 97 94 91 92 92 91 92 91 91 89 87 87 87 87 86 87 88 87 88 85 85 82 82 
129 128 127 125 125 123 122 122 120 117 117 115 115 113 112 112 111 110 110 111 110 110 111 111 110 108 108 108 109 109 109 110 109 109 108 106 105 101 101 99 99 100 100 98 97 95 94 93 93 93 92 91 90 88 87 88 87 88 87 88 86 84 84 82 82 
132 130 129 127 127 124 122 122 121 119 118 116 117 114 114 112 111 109 109 109 110 110 111 111 112 110 109 110 112 111 113 112 111 111 111 108 107 103 101 101 102 101 101 99 100 98 99 97 96 94 93 92 91 89 88 87 87 87 87 86 85 84 83 82 83 
135 134 132 130 128 125 125 123 122 120 119 117 117 115 115 113 111 109 109 108 109 110 110 111 111 112 111 111 111 113 113 114 114 113 111 109 108 106 104 102 101 101 100 99 100 100 100 100 99 95 94 93 92 90 89 88 88 88 86 86 85 84 83 83 83 
139 135 132 130 129 126 125 124 124 121 120 118 118 116 115 113 109 109 109 110 110 110 111 111 112 111 111 112 114 114 115 115 118 114 112 110 108 106 104 103 103 102 101 100 100 100 100 101 104 97 94 93 92 90 89 88 89 87 86 85 84 83 83 82 83 
138 137 135 130 130 128 127 124 123 121 121 120 119 118 117 115 115 112 112 113 112 112 113 113 112 112 112 113 113 114 114 115 114 115 114 111 110 106 105 103 104 103 102 101 101 100 99 100 99 98 97 94 93 91 89 87 87 87 86 85 84 83 82 82 82 
139 136 134 132 132 129 127 125 125 122 121 120 121 119 119 118 119 115 114 115 116 115 117 114 113 112 113 113 114 113 114 113 113 113 113 111 111 107 105 105 106 104 103 102 102 100 98 98 98 96 94 95 96 92 89 88 88 86 85 84 85 83 82 82 83 
139 137 136 134 132 130 129 127 126 123 123 121 121 120 121 121 120 118 118 118 117 116 115 114 114 113 112 112 112 113 113 113 113 114 112 112 111 109 108 107 105 104 104 103 102 100 99 98 97 96 96 96 94 92 92 90 88 87 86 84 83 83 82 82 82 
142 139 137 134 130 130 128 127 128 125 125 123 123 122 124 123 125 121 120 119 121 117 116 115 114 113 113 112 113 113 114 113 114 112 112 111 112 109 108 107 107 105 104 102 102 99 98 97 97 96 95 96 97 93 91 90 89 87 86 83 81 81 81 81 82 
141 140 139 135 135 132 130 128 127 126 125 124 124 123 124 125 124 123 122 120 119 117 117 116 115 114 113 113 114 115 114 114 113 111 110 109 109 109 108 106 106 106 104 101 101 99 99 98 98 97 97 97 95 95 94 90 89 88 86 84 83 80 80 81 81 
143 141 141 137 136 132 130 128 128 125 124 124 125 125 127 125 125 123 123 121 121 117 115 115 115 113 112 113 115 115 117 114 113 111 109 109 109 108 108 107 107 105 104 101 101 98 98 98 99 97 98 96 95 94 94 90 90 87 86 84 84 81 81 80 80 
145 143 141 137 136 132 131 128 127 124 125 124 124 125 125 125 124 122 122 121 120 118 117 115 114 113 114 113 114 116 115 115 114 112 111 109 108 108 108 108 106 104 103 101 99 97 98 98 96 96 95 94 94 92 91 89 89 87 86 84 83 82 82 80 80 
149 144 142 138 135 133 131 129 126 125 125 124 123 124 125 125 125 122 121 120 120 118 117 115 114 114 115 115 117 115 114 113 113 112 111 109 108 108 108 107 107 103 100 98 96 96 96 96 95 94 94 93 93 92 91 88 87 85 85 83 83 82 82 81 82 
146 144 144 141 140 136 134 131 131 128 127 126 125 125 124 125 124 123 122 121 121 120 119 117 118 117 116 115 114 114 113 113 113 112 111 110 111 110 109 108 105 102 101 98 97 95 95 95 95 93 93 93 93 92 91 88 87 84 84 83 83 82 83 83 81 
147 145 144 142 141 137 134 133 134 131 130 128 126 125 124 125 125 123 121 121 122 120 119 119 121 119 119 116 114 112 111 112 113 112 111 111 113 111 111 107 105 101 99 97 98 96 97 95 96 93 93 93 94 92 91 88 87 84 82 83 85 83 84 82 80 
146 145 144 142 140 138 138 136 135 134 133 131 129 126 127 126 126 125 124 122 121 121 121 121 120 119 118 117 116 112 112 112 111 112 112 112 111 110 108 106 105 101 99 95 94 94 95 95 94 93 93 93 93 93 91 88 87 85 84 83 84 84 82 81 79 
147 146 145 142 139 139 137 137 139 136 134 132 130 130 131 129 129 127 127 125 123 122 123 122 122 120 118 117 117 114 113 112 111 112 113 112 113 109 106 105 104 100 98 94 91 92 93 93 94 92 92 92 94 91 90 87 86 84 83 83 87 83 81 78 76 
148 148 146 145 144 142 140 139 138 139 137 134 135 134 133 133 132 130 129 128 127 124 123 122 122 122 121 119 117 114 114 112 112 113 112 112 109 107 106 104 103 100 99 95 95 93 91 90 90 91 90 90 89 88 88 86 86 84 84 82 81 81 80 77 75 
150 149 146 146 146 143 142 140 140 140 139 138 138 137 137 135 135 132 131 130 129 126 126 124 123 121 121 119 118 115 113 112 113 112 113 109 107 105 103 103 104 100 98 96 96 93 91 89 87 87 87 88 88 87 87 86 86 84 84 81 81 79 76 74 73 
154 152 151 149 147 145 145 142 142 142 141 141 140 139 138 137 136 134 134 132 130 128 127 125 124 121 121 120 119 116 115 113 111 110 109 107 107 103 104 103 102 101 100 98 96 94 92 88 87 86 87 87 86 86 85 85 84 82 82 80 80 78 76 73 72 
161 155 153 151 151 148 147 145 145 144 144 143 143 141 141 139 138 136 135 133 132 129 128 126 124 123 122 121 122 118 115 113 111 110 109 107 106 104 103 103 102 101 100 98 95 94 92 89 85 86 88 87 87 85 84 83 82 81 81 81 81 78 75 72 70 
157 155 156 154 152 151 150 149 149 148 146 144 144 143 143 141 141 140 137 134 134 131 130 129 128 126 124 123 122 120 119 114 113 110 109 107 107 106 105 104 103 102 102 100 99 95 95 93 92 88 87 86 85 83 83 82 82 82 82 82 80 78 76 72 71 
157 156 156 153 153 151 150 150 152 150 149 147 147 145 145 144 145 142 139 137 136 133 131 130 130 127 124 124 123 121 120 117 116 112 108 108 108 106 106 105 106 104 105 102 101 99 98 96 96 91 89 86 83 82 80 81 82 81 82 80 80 77 75 73 72 
156 156 154 152 152 150 151 152 152 152 151 148 148 148 147 146 146 144 143 139 138 135 134 133 132 128 128 127 125 123 122 119 118 114 112 109 108 107 107 106 106 105 105 105 104 102 100 97 96 92 91 87 85 83 82 81 80 80 80 79 78 77 76 74 74 
156 155 153 151 150 151 152 153 155 152 152 150 150 150 149 149 150 147 145 143 141 137 135 135 136 131 129 128 129 125 123 120 120 115 111 110 110 108 108 107 107 105 105 105 105 102 101 98 99 94 91 87 83 83 82 81 82 80 80 78 77 76 75 75 76 
156 156 155 152 152 152 152 154 152 152 152 153 153 153 152 152 151 150 149 147 144 139 138 136 135 134 132 129 128 126 124 120 119 116 115 111 111 110 109 108 107 106 106 105 103 101 100 98 98 95 94 89 89 87 84 82 81 80 80 78 78 76 76 75 76 
156 155 156 154 154 154 155 153 151 151 151 152 155 154 155 154 154 152 151 148 147 142 139 137 137 134 132 131 131 127 124 121 120 116 113 112 113 110 108 108 109 106 106 104 103 100 99 98 98 95 93 91 92 88 87 84 83 81 82 80 79 77 77 77 77 
155 154 155 156 155 155 154 153 153 151 151 152 153 155 156 158 157 155 153 149 148 144 143 139 137 135 134 132 130 127 126 121 121 118 117 113 112 110 110 109 107 105 105 103 102 99 99 97 97 96 94 91 89 88 87 86 85 82 81 81 80 78 78 79 78 
155 155 155 155 155 154 154 153 153 152 153 153 155 155 158 159 161 157 154 152 151 146 143 140 137 135 133 131 129 127 125 123 121 119 117 114 113 111 111 109 109 105 103 101 100 98 97 96 97 94 92 90 87 86 85 85 85 82 80 80 80 78 78 78 80 
156 156 155 154 155 155 154 154 154 153 154 155 154 155 156 159 158 158 157 154 152 148 146 143 142 138 135 132 131 127 127 125 124 120 119 116 115 112 111 109 109 106 104 100 99 96 96 94 94 93 92 90 88 85 85 85 84 82 81 79 78 78 78 77 77 
158 157 157 156 156 156 155 155 156 155 156 155 155 156 157 157 157 157 157 155 154 149 145 144 145 140 136 133 133 129 128 126 126 121 119 118 118 114 113 110 110 105 102 98 97 94 94 92 93 90 90 88 87 84 83 83 84 81 80 77 77 77 78 76 75 
160 159 159 158 158 158 157 156 156 157 157 157 157 157 156 157 157 157 156 156 154 150 149 145 144 142 139 133 132 129 129 126 126 122 122 119 118 116 114 110 109 105 101 95 93 91 91 89 89 87 87 86 84 81 82 83 82 80 79 75 75 76 75 75 74 
163 162 161 160 161 159 159 158 159 158 158 158 159 158 158 157 157 156 156 155 154 150 147 145 146 141 137 134 132 130 129 128 128 124 122 119 118 115 113 109 108 103 97 92 87 88 89 87 87 84 83 82 81 80 80 81 82 79 77 74 71 73 74 73 72 
165 165 163 161 161 160 160 159 159 158 158 159 158 158 159 159 158 157 156 154 154 152 150 145 144 141 140 136 135 132 131 129 127 124 122 119 118 114 112 107 106 102 98 91 92 88 86 85 83 81 81 80 80 78 79 80 78 77 77 75 75 74 72 72 71 
168 166 165 163 162 161 161 160 160 159 159 159 159 159 161 160 161 159 159 155 154 151 150 146 144 140 137 136 136 133 131 129 128 123 119 118 118 113 109 106 105 100 94 92 93 87 85 82 79 77 76 78 80 78 78 78 77 76 74 74 76 74 73 71 70 
169 167 166 165 164 163 162 162 161 160 160 161 160 160 161 162 162 161 159 156 155 151 149 146 143 138 138 135 134 133 132 129 128 124 123 119 116 112 110 105 103 99 97 92 89 85 84 79 76 74 76 76 77 78 78 78 77 76 75 73 73 73 72 70 69 
173 168 167 165 164 163 163 163 164 162 162 161 162 162 164 164 167 162 160 157 155 151 148 145 140 138 136 134 132 132 130 128 128 124 121 118 116 111 108 104 100 97 94 91 88 84 80 76 69 73 75 76 78 77 76 77 79 76 75 74 74 72 71 69 68 
170 168 168 166 166 165 164 163 163 163 162 161 162 163 164 165 163 160 160 158 156 152 151 146 145 140 138 136 135 133 131 128 127 124 123 118 117 111 110 105 104 98 95 91 90 84 83 79 80 77 75 76 75 76 75 76 74 74 74 74 73 71 71 70 69 
171 169 168 167 167 165 164 163 164 163 162 161 162 163 166 164 163 160 157 157 157 153 151 148 147 141 136 136 136 133 132 129 128 125 122 119 118 113 108 107 108 100 94 91 91 86 84 83 85 81 79 76 73 73 73 73 72 72 71 72 74 71 70 70 71 
171 171 169 167 166 165 165 164 164 164 163 162 161 162 162 163 163 161 160 157 156 154 153 150 148 143 141 137 135 133 132 129 129 126 124 120 118 115 113 110 107 102 99 91 89 87 87 85 86 85 83 78 76 73 72 72 72 71 70 71 71 72 72 71 71 
172 170 169 167 166 165 166 166 167 164 163 162 160 161 162 162 163 161 159 157 157 154 153 151 150 144 140 137 134 133 133 130 129 125 122 119 118 114 112 110 110 102 95 91 85 87 88 88 90 86 84 79 74 74 73 72 72 70 69 70 72 71 72 71 72 
172 171 170 167 167 166 166 167 166 165 165 163 163 162 161 163 162 162 160 158 157 154 154 152 149 143 143 139 138 135 133 130 129 126 124 119 118 113 112 109 107 102 101 94 94 91 89 90 89 88 87 83 82 76 75 74 72 71 70 69 69 71 71 71 71 
174 171 170 169 169 168 168 167 167 166 166 165 165 163 161 162 162 161 160 158 157 155 155 151 148 143 140 140 141 136 134 131 130 127 124 120 119 113 109 107 105 101 98 97 99 95 93 92 92 91 89 86 86 79 76 74 72 70 68 68 69 70 72 71 71 
174 172 172 172 171 170 169 167 167 167 166 167 166 165 164 163 162 163 161 158 157 155 153 150 148 144 143 140 138 136 135 131 131 128 125 119 118 113 111 105 102 100 99 97 96 97 97 95 96 95 91 88 85 81 79 74 73 70 70 69 68 69 69 71 71 
177 174 173 173 173 171 171 169 169 167 166 167 168 166 166 164 164 163 162 158 156 154 153 149 146 144 142 140 138 135 133 132 133 128 123 120 116 112 108 103 97 98 96 96 95 96 97 98 103 96 92 88 85 81 78 75 74 71 69 69 69 68 69 70 72 
176 174 175 174 173 173 172 170 170 168 168 167 167 168 167 165 165 165 163 159 159 155 153 149 149 145 144 141 139 135 134 132 131 129 127 122 119 113 110 104 104 99 98 96 96 97 96 98 95 95 95 90 89 83 81 77 76 74 72 70 68 68 67 68 68 
177 175 176 175 175 173 174 172 172 169 168 168 168 168 168 166 166 164 164 161 161 156 153 151 150 146 144 140 138 135 134 132 131 127 125 122 120 114 109 107 108 103 100 98 97 96 97 95 93 93 93 91 91 84 80 78 78 74 72 69 68 66 65 64 64 
177 176 176 176 175 173 174 174 173 171 171 171 169 169 169 168 166 164 163 161 160 156 155 152 151 146 144 139 138 135 134 132 130 126 125 122 119 114 113 108 108 105 103 99 98 96 95 94 94 92 92 92 89 85 84 80 79 74 72 68 66 64 63 61 61 
179 178 178 176 175 174 175 175 176 174 173 172 171 171 171 168 166 164 162 160 159 156 153 152 153 146 142 138 134 133 132 131 131 126 123 120 116 113 111 110 111 106 102 100 98 96 95 94 94 92 92 90 89 85 83 81 82 74 70 67 63 62 61 60 60 
180 180 178 177 177 175 175 176 176 176 176 175 174 173 172 169 169 165 163 160 159 156 155 153 150 146 145 140 139 134 133 132 129 125 124 120 119 114 112 110 109 107 106 101 100 97 95 94 93 92 90 88 88 84 83 79 78 73 72 67 67 63 61 60 59 
183 182 179 179 179 177 176 177 178 178 179 176 176 174 175 172 171 166 162 161 160 156 154 151 148 144 141 140 140 134 132 131 130 126 123 121 121 115 111 109 108 106 105 102 101 97 94 93 93 91 89 87 88 83 80 78 78 72 69 67 68 63 59 58 58 
187 186 183 181 180 180 179 178 179 180 177 176 176 174 174 173 173 169 167 163 160 157 154 150 147 143 142 139 136 133 134 132 130 126 125 122 119 114 113 108 106 104 104 102 100 97 96 93 92 90 89 86 86 83 81 77 75 71 70 65 64 62 61 57 56 
193 188 185 183 183 181 180 180 182 179 177 176 175 174 175 175 177 170 166 163 160 156 152 148 144 142 140 137 134 132 131 131 131 126 123 120 117 114 111 107 102 103 103 101 99 97 96 93 92 90 88 86 86 82 79 76 73 70 67 64 61 60 57 55 53 
