806 808 809 813 816 820 823 828 830 836 838 846 849 859 860 866 868 876 877 879 880 884 886 890 891 896 900 911 912 924 929 937 939 946 947 951 953 958 958 963 966 974 976 982 979 983 983 987 989 994 994 995 995 998 999 996 997 997 996 1000 1001 1004 1008 1016 1017 1026 1028 1036 1037 1045 1047 1052 1055 1065 1066 1072 1074 1081 1086 1095 1096 1104 1106 1111 1109 1111 1114 1120 1123 1132 1136 1144 1142 1150 1151 1155 1157 1164 1166 1176 1176 1185 1188 1189 1188 1189 1192 1199 1201 1208 1211 1215 1216 1223 1223 1231 1230 1235 1238 1238 1238 1240 1242 1249 1252 1261 1264 1270 1271 1280 1285 1300 1299 1310 1316 1320 1323 1328 1331 1343 1346 1361 1367 1378 1378 1387 1389 1396 1398 1410 1413 1418 1422 1430 1432 1443 1446 1458 1461 1468 1470 1478 1480 1486 1486 1493 1495 1497 1499 1502 1505 1515 1513 1517 1522 1528 1530 1537 1540 1549 1550 1561 1564 1568 1569 1574 1578 1591 1590 1602 1606 1610 1614 1625 1629 1638 1640 1651 1654 1659 1665 1675 1678 1692 1695 1710 1715 1723 1723 1729 1734 1743 1743 1755 1758 1763 1766 1775 1777 1790 1793 1809 1811 1814 1816 1818 1820 1822 1819 1819 1818 1813 1813 1808 1804 1799 1797 1791 1791 1792 1793 1797 1798 1800 1801 1805 1806 1807 1807 1808 1809 1812 1810 1809 1809 1806 1810 1819 1822 1837 1842 1862 1869 1880 1886 1900 1905 1924 1930 1952 1959 1972 1978 1995 2001 2021 2022 2040 2045 2050 2057 2069 2073 2090 2095 2114 2122 2138 2145 2164 2171 2193 2194 2216 2225 2238 2244 2263 2268 2294 2298 2323 2334 2347 2353 2371 2376 2394 2397 2418 2423 2429 2437 2450 2453 2474 2476 2499 2509 2525 2529 2543 2548 2563 2561 2575 2578 2579 2583 2589 2590 2601 2604 2616 2621 2629 2631 2639 2643 2654 2652 2659 2662 2663 2665 2668 2668 2670 2673 2678 2682 2689 2688 2694 2696 2701 2701 2705 2706 2706 2705 2705 2706 2711 2711 2717 2719 2724 2725 2729 2727 2726 2724 2720 2721 2717 2716 2713 2712 2712 2711 2711 2710 2708 2709 2712 2714 2719 2717 2720 2724 2730 2732 2739 2742 2747 2751 2758 2761 2766 2769 2779 2780 2789 2788 2793 2795 2794 2794 2792 2791 2788 2790 2791 2791 2796 2798 2807 2809 2820 2818 2826 2831 2836 2839 2847 2851 2863 2864 2875 2879 2888 2893 2908 2910 2918 2919 2929 2933 2937 2938 2943 2946 2958 2963 2977 2982 2987 2990 2997 3001 3010 3009 3017 3022 3024 3025 3026 3026 3037 3037 3046 3050 3060 3063 3078 3079 3086 3087 3098 3101 3106 3108 3115 3120 3134 3133 3141 3147 3154 3156 3166 3172 3184 3185 3198 3202 3206 3210 3217 3219 3229 3230 3242 3243 3246 3249 3253 3257 3267 3268 3275 3279 3286 3289 3299 3303 3317 3316 3326 3332 3332 3333
807 811 815 818 823 827 832 834 835 841 847 851 854 862 869 871 875 880 886 885 887 888 890 895 899 904 910 914 917 928 938 944 949 956 964 961 961 965 968 972 978 983 990 987 984 987 989 994 999 1001 1004 1002 1002 1004 1006 1005 1007 1005 1005 1007 1009 1012 1019 1022 1023 1033 1042 1042 1043 1051 1056 1059 1061 1070 1080 1080 1081 1091 1103 1104 1104 1113 1120 1121 1122 1123 1125 1131 1137 1146 1156 1154 1151 1159 1163 1166 1169 1174 1181 1180 1180 1189 1199 1197 1196 1198 1199 1203 1206 1213 1222 1221 1223 1228 1233 1235 1236 1241 1247 1246 1245 1247 1250 1253 1254 1263 1271 1269 1270 1279 1288 1294 1296 1308 1319 1321 1325 1331 1337 1343 1347 1362 1376 1380 1382 1390 1395 1400 1403 1414 1424 1426 1430 1438 1448 1449 1451 1462 1472 1473 1474 1482 1491 1487 1485 1491 1494 1497 1500 1503 1508 1510 1509 1515 1521 1527 1532 1538 1547 1548 1550 1560 1570 1570 1570 1574 1578 1582 1580 1592 1601 1605 1611 1620 1632 1633 1634 1643 1649 1657 1665 1674 1685 1690 1693 1705 1717 1719 1721 1729 1737 1739 1738 1749 1755 1763 1769 1777 1786 1788 1791 1804 1817 1817 1819 1820 1824 1819 1815 1814 1814 1813 1815 1807 1804 1800 1799 1794 1790 1791 1790 1793 1795 1798 1801 1803 1804 1804 1806 1807 1812 1808 1804 1803 1800 1798 1799 1806 1815 1827 1833 1852 1865 1876 1884 1900 1915 1922 1925 1949 1970 1975 1980 1995 2009 2016 2018 2035 2047 2052 2060 2069 2080 2086 2092 2113 2132 2140 2149 2167 2187 2189 2189 2211 2228 2238 2248 2264 2280 2287 2291 2319 2345 2351 2359 2374 2386 2390 2389 2408 2421 2430 2442 2452 2465 2468 2470 2496 2521 2528 2535 2545 2555 2556 2554 2567 2576 2580 2587 2591 2598 2600 2602 2615 2628 2631 2636 2643 2651 2649 2646 2655 2662 2663 2667 2668 2669 2672 2677 2680 2689 2688 2686 2692 2700 2699 2699 2702 2708 2705 2705 2704 2704 2708 2711 2716 2722 2726 2728 2729 2727 2725 2723 2720 2719 2716 2714 2711 2708 2706 2704 2704 2701 2702 2706 2708 2712 2712 2712 2715 2721 2724 2727 2733 2740 2744 2749 2755 2762 2765 2769 2775 2780 2783 2784 2789 2794 2793 2794 2792 2792 2788 2789 2789 2792 2792 2795 2803 2810 2813 2812 2821 2830 2834 2840 2846 2855 2858 2862 2873 2885 2889 2894 2905 2915 2915 2916 2925 2934 2935 2940 2944 2949 2955 2960 2975 2990 2990 2992 2998 3004 3005 3003 3012 3022 3023 3027 3026 3028 3032 3033 3043 3052 3057 3061 3073 3082 3081 3079 3089 3097 3103 3110 3117 3128 3130 3130 3139 3150 3152 3155 3166 3177 3179 3180 3191 3199 3205 3212 3218 3226 3225 3226 3235 3241 3244 3248 3252 3259 3263 3265 3274 3283 3283 3284 3295 3305 3307 3306 3319 3332 3328 3330
810 814 817 822 826 834 835 841 844 849 850 859 860 868 868 877 880 886 886 891 892 894 896 902 905 913 913 921 925 935 938 953 958 966 965 971 973 974 976 982 986 992 990 993 994 995 997 1002 1005 1009 1007 1010 1010 1012 1011 1013 1013 1013 1013 1015 1016 1019 1022 1030 1034 1041 1042 1049 1054 1061 1061 1067 1069 1076 1079 1088 1092 1099 1101 1114 1119 1124 1124 1132 1133 1136 1137 1144 1149 1161 1159 1166 1169 1172 1172 1180 1180 1184 1183 1186 1189 1193 1196 1206 1207 1209 1207 1210 1212 1217 1219 1227 1230 1236 1236 1242 1242 1247 1248 1254 1253 1255 1255 1260 1261 1267 1264 1267 1270 1278 1283 1295 1299 1308 1311 1323 1328 1335 1338 1348 1354 1365 1370 1387 1391 1398 1399 1407 1410 1420 1422 1432 1438 1446 1447 1456 1460 1467 1467 1478 1480 1485 1484 1489 1493 1495 1494 1500 1500 1504 1505 1509 1510 1514 1519 1529 1532 1539 1541 1549 1553 1561 1562 1572 1572 1574 1574 1580 1581 1586 1589 1601 1604 1613 1618 1631 1634 1641 1644 1657 1661 1674 1677 1691 1694 1703 1706 1717 1722 1729 1730 1739 1741 1748 1751 1765 1769 1779 1780 1788 1794 1802 1805 1818 1821 1821 1817 1817 1816 1811 1812 1811 1809 1804 1804 1798 1799 1797 1795 1792 1791 1790 1792 1798 1798 1802 1801 1801 1803 1805 1804 1805 1804 1800 1795 1787 1785 1792 1804 1824 1831 1849 1854 1875 1883 1901 1906 1926 1933 1952 1955 1978 1988 1999 2001 2018 2022 2036 2038 2054 2057 2070 2072 2084 2095 2115 2119 2143 2152 2169 2171 2190 2197 2211 2214 2238 2247 2265 2268 2285 2297 2320 2325 2356 2366 2380 2378 2392 2397 2407 2410 2430 2438 2454 2453 2465 2476 2495 2502 2531 2541 2548 2546 2555 2557 2564 2566 2579 2584 2592 2592 2600 2605 2614 2616 2631 2639 2646 2643 2648 2651 2655 2654 2662 2665 2670 2670 2673 2675 2679 2681 2689 2689 2689 2690 2696 2695 2696 2698 2704 2705 2703 2705 2708 2710 2717 2720 2732 2734 2735 2729 2725 2723 2719 2717 2714 2713 2709 2707 2701 2701 2700 2698 2696 2695 2702 2703 2706 2708 2710 2713 2720 2723 2729 2732 2743 2745 2754 2755 2765 2768 2773 2772 2779 2782 2787 2787 2792 2792 2791 2789 2785 2785 2785 2785 2787 2790 2800 2802 2810 2814 2819 2821 2831 2834 2844 2847 2855 2861 2871 2876 2891 2897 2905 2904 2914 2916 2922 2923 2932 2937 2945 2947 2956 2962 2974 2976 2991 2996 3001 2999 3004 3004 3009 3011 3022 3022 3025 3026 3031 3035 3043 3046 3058 3060 3071 3070 3077 3079 3082 3087 3101 3104 3115 3118 3128 3132 3138 3140 3149 3156 3167 3167 3177 3181 3190 3193 3206 3210 3220 3217 3221 3225 3232 3233 3243 3245 3251 3255 3263 3266 3273 3272 3279 3285 3294 3293 3302 3306 3315 3313 3321 3324
810 818 825 828 834 837 842 847 856 855 859 863 868 871 875 882 890 891 895 896 897 900 903 908 917 918 921 927 936 941 950 959 975 973 977 978 983 983 987 992 1003 998 999 999 1000 1002 1007 1011 1021 1014 1012 1013 1015 1016 1017 1019 1022 1020 1020 1022 1028 1028 1031 1037 1047 1048 1055 1058 1065 1068 1073 1075 1080 1084 1091 1095 1101 1105 1113 1121 1136 1132 1136 1139 1144 1145 1148 1156 1168 1170 1175 1177 1182 1182 1186 1189 1195 1192 1194 1193 1197 1200 1206 1210 1217 1214 1216 1218 1222 1223 1227 1231 1236 1240 1244 1246 1249 1252 1257 1258 1259 1260 1261 1264 1267 1270 1271 1271 1266 1280 1290 1298 1307 1312 1320 1326 1336 1338 1345 1354 1366 1370 1381 1389 1404 1404 1412 1415 1421 1426 1433 1440 1451 1452 1457 1462 1471 1471 1475 1479 1486 1487 1491 1492 1499 1496 1496 1498 1502 1504 1508 1510 1512 1517 1524 1528 1539 1541 1546 1550 1556 1560 1568 1570 1574 1573 1574 1578 1582 1585 1591 1595 1601 1608 1619 1624 1634 1639 1647 1655 1667 1671 1679 1687 1700 1702 1712 1715 1728 1727 1732 1734 1741 1744 1753 1762 1777 1778 1785 1789 1801 1802 1810 1814 1829 1816 1814 1812 1815 1811 1811 1808 1807 1803 1800 1799 1798 1796 1795 1794 1793 1792 1793 1796 1797 1798 1800 1801 1805 1802 1800 1800 1799 1795 1790 1781 1761 1788 1804 1819 1836 1847 1862 1874 1892 1900 1915 1925 1941 1950 1965 1979 2006 2001 2009 2016 2028 2034 2044 2051 2060 2065 2074 2083 2101 2111 2127 2140 2165 2164 2176 2184 2200 2207 2221 2235 2258 2261 2274 2285 2304 2316 2335 2352 2385 2375 2383 2388 2403 2405 2417 2428 2450 2447 2453 2462 2480 2491 2512 2528 2566 2546 2547 2549 2557 2560 2570 2577 2592 2587 2591 2597 2609 2610 2619 2629 2652 2643 2645 2645 2651 2651 2655 2660 2667 2667 2670 2673 2679 2678 2682 2685 2691 2688 2690 2690 2690 2693 2696 2700 2708 2704 2705 2707 2714 2715 2721 2731 2749 2735 2731 2725 2721 2717 2715 2712 2711 2708 2706 2700 2695 2695 2693 2690 2684 2693 2699 2701 2704 2707 2713 2715 2722 2725 2730 2736 2745 2748 2755 2761 2774 2769 2770 2774 2785 2784 2787 2788 2793 2788 2786 2783 2781 2781 2781 2783 2783 2794 2804 2809 2817 2818 2825 2827 2832 2840 2849 2854 2864 2870 2881 2889 2907 2901 2904 2909 2916 2919 2925 2929 2938 2941 2948 2955 2969 2971 2980 2987 3002 2998 3000 2999 3001 3005 3011 3015 3022 3021 3024 3030 3039 3042 3050 3054 3061 3065 3072 3073 3075 3079 3086 3094 3105 3110 3119 3125 3137 3137 3143 3149 3158 3163 3170 3174 3183 3188 3198 3203 3216 3215 3218 3219 3222 3226 3231 3237 3247 3251 3259 3263 3270 3270 3274 3277 3285 3288 3294 3297 3305 3307 3311 3315 3322
821 826 826 834 833 839 842 849 849 856 861 867 869 876 878 886 886 895 899 904 904 909 909 913 914 923 925 933 933 944 948 960 961 975 978 983 983 988 991 998 996 1001 1003 1004 1003 1006 1008 1014 1011 1016 1017 1017 1019 1021 1022 1026 1024 1026 1027 1028 1030 1034 1036 1042 1041 1049 1054 1063 1065 1074 1076 1081 1083 1091 1094 1102 1102 1110 1114 1122 1123 1133 1139 1144 1146 1154 1157 1166 1167 1178 1181 1186 1186 1191 1193 1196 1194 1196 1198 1198 1200 1205 1207 1213 1213 1217 1221 1225 1226 1228 1231 1236 1237 1245 1247 1251 1253 1258 1259 1262 1262 1265 1265 1270 1271 1276 1278 1281 1282 1288 1291 1303 1303 1313 1318 1328 1329 1338 1345 1357 1357 1370 1375 1386 1390 1404 1412 1420 1422 1431 1435 1444 1445 1456 1458 1464 1465 1473 1475 1477 1479 1487 1488 1490 1492 1496 1497 1497 1500 1505 1507 1512 1512 1518 1517 1523 1527 1540 1543 1549 1551 1558 1562 1568 1567 1570 1572 1576 1575 1581 1583 1588 1591 1600 1604 1615 1621 1636 1640 1650 1652 1666 1669 1680 1683 1696 1699 1706 1709 1720 1722 1726 1730 1737 1742 1753 1755 1771 1777 1785 1785 1795 1798 1802 1799 1802 1806 1804 1806 1807 1807 1804 1805 1802 1802 1801 1799 1796 1795 1796 1795 1793 1795 1797 1795 1795 1796 1798 1797 1799 1798 1797 1796 1793 1793 1787 1793 1795 1793 1812 1817 1841 1850 1868 1871 1893 1902 1918 1924 1944 1951 1969 1969 1990 2000 2011 2014 2028 2034 2046 2047 2059 2064 2076 2081 2102 2107 2126 2128 2149 2159 2172 2178 2197 2205 2225 2227 2250 2262 2278 2282 2305 2312 2332 2333 2355 2366 2375 2380 2394 2402 2415 2416 2432 2439 2451 2455 2478 2484 2505 2502 2525 2534 2537 2541 2552 2556 2567 2566 2576 2582 2588 2590 2601 2604 2614 2615 2629 2634 2637 2639 2643 2648 2656 2656 2662 2666 2671 2670 2675 2675 2678 2678 2683 2685 2687 2687 2690 2690 2693 2695 2701 2701 2703 2704 2709 2714 2724 2721 2728 2730 2723 2722 2716 2714 2710 2709 2706 2704 2698 2698 2692 2690 2690 2691 2690 2691 2695 2696 2701 2702 2707 2710 2719 2720 2728 2730 2739 2743 2750 2751 2759 2762 2764 2768 2777 2779 2780 2781 2785 2784 2781 2782 2780 2780 2782 2785 2792 2794 2805 2806 2814 2817 2823 2826 2837 2839 2849 2852 2865 2867 2878 2877 2888 2895 2902 2905 2915 2918 2923 2925 2933 2939 2950 2951 2962 2967 2976 2977 2989 2992 2993 2996 3002 3003 3008 3010 3015 3020 3026 3028 3039 3042 3049 3050 3058 3062 3068 3069 3075 3078 3086 3089 3101 3107 3119 3122 3133 3138 3146 3147 3158 3162 3169 3173 3184 3187 3195 3197 3207 3211 3216 3216 3221 3223 3230 3234 3247 3251 3260 3259 3264 3265 3270 3271 3279 3282 3289 3291 3299 3300 3306 3309
829 832 835 836 835 842 847 850 851 859 867 872 877 881 884 887 890 898 908 908 910 914 918 918 917 923 930 933 937 945 954 957 961 972 981 984 986 991 996 998 998 1002 1004 1004 1005 1008 1013 1011 1009 1014 1016 1021 1026 1026 1028 1028 1030 1031 1034 1036 1039 1040 1041 1043 1043 1051 1059 1064 1068 1077 1085 1086 1088 1096 1105 1106 1106 1115 1123 1123 1125 1135 1146 1149 1153 1160 1165 1171 1176 1184 1195 1193 1193 1199 1205 1201 1199 1200 1204 1204 1206 1209 1213 1215 1216 1221 1227 1231 1235 1235 1238 1240 1243 1251 1259 1259 1261 1264 1267 1266 1267 1268 1268 1274 1278 1283 1288 1288 1291 1298 1307 1309 1309 1319 1327 1330 1330 1341 1352 1357 1357 1369 1379 1384 1389 1404 1420 1424 1427 1436 1445 1446 1447 1455 1461 1464 1467 1474 1481 1477 1477 1482 1489 1490 1492 1495 1499 1498 1502 1506 1511 1510 1511 1514 1517 1520 1522 1534 1545 1547 1551 1558 1567 1564 1563 1567 1571 1571 1570 1576 1583 1584 1587 1595 1603 1609 1614 1627 1641 1643 1646 1657 1666 1673 1677 1688 1697 1697 1698 1708 1716 1721 1725 1732 1739 1744 1746 1762 1776 1776 1778 1786 1794 1788 1785 1787 1789 1793 1800 1799 1803 1801 1803 1801 1799 1800 1800 1796 1793 1795 1797 1797 1797 1797 1795 1795 1796 1794 1792 1793 1793 1794 1796 1795 1795 1796 1803 1802 1805 1811 1812 1835 1857 1859 1861 1884 1906 1913 1920 1937 1953 1953 1952 1974 1994 2001 2008 2022 2035 2037 2039 2052 2064 2070 2073 2090 2102 2108 2113 2132 2152 2159 2168 2185 2201 2209 2214 2238 2262 2267 2272 2291 2309 2311 2310 2332 2351 2361 2371 2382 2396 2397 2400 2413 2425 2433 2439 2458 2475 2474 2469 2493 2510 2518 2528 2537 2548 2549 2551 2562 2573 2576 2581 2588 2595 2597 2599 2610 2621 2626 2632 2637 2643 2648 2653 2658 2666 2665 2664 2668 2670 2671 2672 2676 2682 2681 2681 2684 2688 2688 2690 2693 2695 2697 2699 2703 2710 2711 2711 2717 2721 2718 2719 2713 2710 2708 2707 2704 2702 2699 2698 2691 2684 2689 2692 2692 2696 2693 2691 2695 2697 2700 2704 2710 2713 2720 2725 2732 2741 2741 2741 2747 2751 2756 2761 2768 2776 2774 2775 2777 2778 2779 2781 2779 2778 2781 2786 2792 2798 2801 2802 2809 2815 2818 2821 2831 2839 2844 2847 2857 2863 2865 2864 2877 2886 2894 2902 2910 2920 2919 2920 2929 2937 2943 2946 2955 2962 2963 2963 2975 2985 2986 2989 2995 3001 3004 3007 3012 3017 3022 3025 3034 3042 3044 3045 3053 3063 3063 3064 3070 3077 3080 3084 3095 3106 3113 3117 3127 3137 3138 3141 3151 3163 3166 3169 3178 3189 3187 3188 3198 3208 3209 3210 3215 3222 3225 3230 3240 3252 3253 3254 3257 3258 3262 3263 3269 3275 3280 3282 3289 3293 3297 3300
837 840 840 843 846 849 848 853 855 862 866 878 881 888 886 888 892 901 903 912 917 921 921 924 923 924 927 935 938 946 948 956 962 974 976 988 992 996 998 1003 1004 1006 1004 1005 1006 1008 1009 1011 1014 1016 1018 1026 1028 1031 1029 1029 1031 1034 1038 1044 1046 1046 1046 1047 1049 1056 1059 1069 1073 1083 1082 1090 1091 1100 1102 1113 1116 1122 1120 1125 1129 1139 1143 1155 1161 1170 1171 1179 1181 1190 1193 1200 1204 1207 1204 1205 1204 1204 1205 1208 1209 1213 1215 1219 1221 1227 1230 1238 1239 1241 1242 1245 1248 1257 1259 1268 1270 1271 1271 1271 1272 1274 1276 1280 1282 1290 1290 1295 1298 1306 1309 1320 1322 1327 1327 1335 1336 1346 1349 1362 1364 1372 1374 1385 1389 1403 1410 1429 1434 1442 1442 1449 1451 1457 1459 1467 1470 1476 1472 1474 1474 1477 1481 1490 1492 1495 1494 1496 1500 1506 1506 1509 1510 1513 1514 1519 1522 1531 1534 1545 1550 1557 1556 1561 1563 1564 1564 1568 1568 1572 1574 1581 1584 1591 1594 1605 1610 1620 1624 1638 1641 1650 1655 1671 1674 1683 1681 1688 1691 1699 1704 1717 1722 1730 1731 1740 1742 1755 1755 1768 1772 1777 1772 1772 1774 1774 1776 1782 1782 1787 1791 1794 1798 1801 1800 1800 1799 1796 1797 1797 1798 1801 1799 1799 1797 1796 1792 1790 1790 1789 1790 1792 1793 1796 1798 1800 1801 1806 1809 1816 1820 1833 1835 1852 1858 1876 1884 1910 1919 1933 1931 1941 1946 1962 1968 1992 2000 2017 2018 2030 2035 2049 2052 2067 2072 2083 2083 2094 2100 2117 2125 2147 2157 2175 2179 2197 2205 2229 2234 2259 2267 2281 2280 2293 2298 2314 2322 2348 2355 2369 2371 2380 2385 2397 2402 2417 2424 2440 2437 2447 2453 2468 2474 2497 2506 2521 2523 2531 2537 2548 2551 2563 2569 2576 2576 2583 2585 2593 2599 2614 2619 2630 2634 2643 2645 2652 2654 2659 2662 2663 2662 2665 2663 2667 2669 2676 2677 2679 2679 2683 2684 2686 2688 2691 2691 2694 2696 2701 2703 2709 2709 2712 2711 2709 2708 2705 2705 2702 2701 2699 2695 2691 2692 2690 2690 2693 2692 2691 2691 2691 2691 2694 2697 2706 2708 2717 2718 2725 2725 2732 2732 2737 2740 2749 2753 2761 2761 2766 2769 2773 2774 2776 2777 2778 2780 2781 2785 2794 2793 2799 2802 2807 2808 2816 2818 2827 2831 2844 2848 2855 2853 2858 2861 2872 2875 2888 2893 2903 2906 2915 2919 2926 2929 2940 2944 2950 2948 2953 2956 2964 2967 2978 2982 2991 2992 3000 3003 3010 3013 3021 3024 3030 3032 3040 3042 3048 3049 3057 3060 3066 3068 3075 3078 3090 3096 3112 3115 3123 3123 3131 3133 3144 3148 3163 3166 3172 3173 3179 3183 3192 3193 3203 3206 3209 3212 3219 3222 3233 3235 3246 3250 3253 3253 3257 3256 3261 3265 3274 3277 3284 3285 3290 3294
842 845 848 851 857 856 857 857 858 867 875 883 894 892 892 893 895 902 911 917 927 926 929 928 926 930 934 939 942 948 954 958 966 973 983 991 1003 1003 1007 1009 1012 1010 1010 1009 1009 1010 1014 1015 1016 1019 1023 1029 1039 1034 1033 1034 1036 1038 1044 1049 1060 1053 1053 1053 1053 1061 1070 1075 1082 1086 1089 1092 1091 1102 1110 1117 1124 1127 1130 1131 1132 1145 1155 1163 1174 1177 1182 1187 1193 1200 1206 1209 1214 1211 1211 1209 1205 1208 1210 1212 1214 1217 1222 1224 1227 1234 1241 1244 1251 1247 1249 1250 1253 1261 1268 1275 1284 1281 1281 1280 1279 1282 1284 1288 1291 1295 1297 1301 1304 1312 1322 1327 1336 1335 1338 1339 1337 1350 1359 1366 1372 1377 1383 1388 1391 1407 1422 1432 1448 1448 1451 1452 1454 1460 1466 1469 1476 1473 1474 1471 1467 1475 1483 1489 1496 1493 1494 1496 1499 1503 1507 1509 1509 1512 1516 1520 1524 1532 1541 1545 1554 1554 1557 1559 1560 1562 1562 1563 1561 1568 1575 1577 1581 1587 1594 1601 1612 1616 1624 1630 1635 1645 1655 1665 1679 1676 1679 1680 1681 1691 1703 1711 1725 1726 1732 1734 1737 1745 1753 1759 1768 1765 1763 1759 1756 1762 1766 1770 1773 1777 1783 1789 1796 1797 1799 1799 1803 1798 1796 1798 1803 1800 1800 1797 1797 1792 1789 1787 1785 1786 1787 1790 1793 1796 1800 1801 1805 1807 1811 1818 1828 1835 1845 1848 1848 1871 1892 1907 1930 1927 1932 1931 1928 1950 1969 1982 2000 2008 2019 2024 2029 2043 2056 2064 2077 2078 2083 2085 2089 2106 2123 2136 2154 2165 2178 2188 2195 2218 2237 2250 2268 2270 2276 2278 2279 2299 2318 2333 2355 2357 2365 2367 2370 2384 2396 2404 2416 2418 2424 2424 2422 2444 2463 2477 2498 2503 2513 2516 2521 2531 2542 2550 2564 2565 2567 2570 2571 2581 2591 2602 2612 2622 2633 2638 2644 2647 2653 2655 2661 2658 2658 2656 2652 2658 2663 2668 2672 2673 2675 2678 2682 2683 2686 2685 2686 2688 2692 2693 2694 2700 2704 2705 2705 2703 2702 2702 2704 2700 2698 2696 2690 2691 2692 2693 2693 2693 2693 2689 2687 2689 2690 2692 2694 2700 2706 2711 2718 2717 2719 2720 2720 2729 2736 2743 2751 2754 2759 2761 2762 2768 2772 2774 2776 2777 2780 2783 2789 2791 2795 2798 2804 2805 2808 2813 2815 2825 2834 2842 2856 2853 2854 2853 2852 2866 2878 2885 2896 2898 2905 2909 2917 2923 2931 2938 2949 2943 2945 2945 2945 2955 2963 2970 2977 2984 2990 2996 3004 3008 3015 3020 3029 3030 3035 3037 3039 3043 3048 3052 3056 3062 3068 3070 3073 3086 3099 3107 3120 3118 3121 3121 3120 3132 3145 3154 3167 3168 3174 3174 3174 3183 3191 3197 3205 3205 3210 3212 3216 3224 3234 3240 3252 3249 3251 3251 3251 3258 3264 3270 3276 3280 3285 3288 3293
850 851 854 858 858 863 862 862 867 876 877 885 885 894 895 898 899 904 908 919 920 930 931 933 935 937 939 945 945 953 954 959 962 971 977 990 993 1007 1011 1017 1014 1014 1013 1013 1013 1012 1014 1019 1019 1024 1025 1031 1030 1035 1037 1038 1039 1041 1044 1051 1051 1056 1059 1060 1061 1066 1069 1079 1082 1093 1094 1098 1101 1109 1110 1121 1123 1134 1135 1139 1144 1154 1158 1169 1172 1185 1189 1196 1200 1211 1211 1216 1214 1214 1216 1215 1214 1213 1213 1216 1216 1219 1221 1228 1232 1241 1242 1248 1248 1250 1253 1256 1260 1267 1269 1280 1280 1288 1289 1289 1292 1294 1294 1297 1297 1302 1304 1310 1311 1319 1322 1330 1332 1339 1343 1346 1350 1359 1360 1371 1373 1383 1387 1395 1399 1412 1416 1432 1435 1452 1455 1457 1459 1463 1463 1470 1466 1467 1469 1469 1472 1474 1477 1487 1484 1488 1492 1495 1497 1501 1505 1511 1510 1513 1515 1521 1522 1532 1533 1542 1542 1549 1554 1560 1560 1562 1562 1562 1562 1566 1567 1574 1575 1583 1586 1595 1598 1610 1616 1626 1628 1641 1643 1657 1656 1666 1669 1672 1675 1683 1687 1702 1705 1719 1724 1730 1732 1738 1741 1750 1749 1753 1753 1748 1751 1754 1754 1760 1762 1768 1774 1785 1785 1792 1794 1796 1795 1797 1797 1796 1796 1799 1798 1795 1793 1787 1787 1785 1786 1786 1787 1790 1791 1796 1799 1802 1804 1809 1812 1820 1824 1837 1840 1848 1855 1869 1875 1898 1898 1916 1922 1925 1931 1941 1946 1969 1975 1996 2005 2019 2025 2041 2043 2057 2058 2069 2072 2076 2082 2096 2101 2123 2129 2155 2163 2182 2189 2212 2217 2239 2239 2255 2259 2264 2272 2288 2292 2314 2318 2339 2347 2355 2361 2374 2376 2390 2387 2395 2400 2405 2411 2425 2431 2453 2458 2481 2489 2500 2504 2515 2520 2533 2538 2553 2557 2562 2563 2571 2576 2591 2596 2613 2620 2633 2634 2640 2643 2649 2649 2651 2651 2649 2650 2651 2652 2661 2661 2667 2670 2674 2674 2678 2678 2678 2680 2681 2683 2686 2689 2695 2697 2702 2699 2697 2698 2700 2698 2698 2698 2697 2696 2693 2695 2697 2695 2696 2693 2688 2689 2689 2687 2690 2690 2694 2696 2703 2703 2709 2711 2712 2717 2726 2728 2737 2737 2747 2751 2758 2760 2766 2768 2775 2774 2776 2780 2784 2784 2788 2791 2796 2797 2803 2807 2814 2816 2825 2827 2837 2837 2847 2849 2850 2854 2864 2866 2878 2878 2888 2893 2900 2905 2918 2922 2932 2927 2931 2935 2938 2943 2950 2953 2965 2966 2979 2982 2993 2994 3005 3009 3017 3018 3027 3030 3034 3035 3040 3042 3049 3051 3059 3060 3067 3071 3082 3085 3099 3099 3111 3113 3114 3117 3122 3126 3142 3146 3161 3164 3170 3171 3175 3178 3189 3190 3197 3201 3206 3207 3216 3219 3229 3231 3242 3246 3248 3251 3257 3257 3266 3266 3275 3279 3286 3287
859 861 866 863 863 866 869 870 874 881 891 890 888 893 895 899 903 908 917 921 922 931 937 939 942 944 949 949 948 957 963 963 964 974 982 989 993 1007 1020 1020 1021 1018 1016 1016 1017 1017 1019 1019 1020 1025 1031 1031 1031 1035 1039 1040 1044 1045 1049 1051 1053 1057 1061 1063 1065 1071 1078 1084 1088 1098 1106 1107 1109 1116 1121 1128 1130 1139 1144 1149 1153 1165 1178 1178 1180 1192 1204 1207 1213 1219 1225 1223 1221 1220 1221 1219 1218 1218 1219 1222 1222 1225 1226 1233 1237 1245 1254 1254 1254 1256 1257 1262 1268 1273 1279 1283 1284 1291 1295 1300 1304 1306 1309 1307 1306 1310 1316 1317 1318 1326 1335 1337 1338 1347 1354 1356 1358 1366 1375 1378 1379 1390 1399 1402 1407 1418 1431 1434 1435 1452 1466 1465 1467 1468 1468 1467 1462 1464 1465 1468 1471 1474 1483 1482 1481 1486 1490 1494 1498 1503 1510 1510 1510 1514 1517 1519 1519 1529 1536 1539 1539 1547 1555 1558 1561 1562 1565 1561 1560 1564 1570 1569 1570 1579 1588 1591 1596 1606 1616 1621 1624 1635 1642 1646 1646 1655 1661 1664 1669 1675 1682 1692 1698 1711 1722 1726 1730 1734 1741 1740 1740 1742 1743 1740 1741 1743 1747 1751 1754 1762 1770 1778 1783 1788 1793 1792 1791 1791 1793 1793 1793 1795 1795 1792 1790 1785 1780 1782 1787 1785 1788 1790 1793 1799 1808 1805 1806 1810 1815 1822 1828 1838 1848 1854 1860 1873 1885 1890 1888 1906 1917 1920 1926 1935 1949 1961 1967 1989 2006 2017 2024 2037 2048 2051 2050 2059 2066 2069 2074 2087 2099 2111 2118 2143 2164 2174 2184 2206 2225 2229 2227 2242 2251 2255 2260 2274 2287 2298 2304 2324 2341 2346 2352 2363 2373 2371 2367 2377 2384 2387 2391 2406 2424 2432 2436 2460 2478 2484 2488 2501 2512 2519 2524 2538 2549 2551 2554 2563 2571 2582 2590 2606 2625 2628 2631 2637 2642 2643 2643 2643 2644 2643 2644 2644 2647 2652 2655 2663 2669 2669 2670 2673 2675 2675 2676 2677 2680 2682 2686 2692 2698 2696 2693 2693 2691 2694 2695 2695 2696 2697 2699 2697 2701 2697 2697 2696 2696 2689 2686 2686 2685 2686 2686 2690 2693 2696 2695 2702 2707 2708 2711 2719 2731 2731 2730 2740 2748 2753 2758 2764 2772 2772 2773 2777 2786 2783 2784 2787 2792 2793 2795 2801 2807 2813 2818 2825 2834 2834 2833 2840 2846 2848 2851 2860 2870 2871 2870 2880 2889 2895 2900 2912 2924 2921 2916 2922 2925 2932 2940 2946 2955 2959 2960 2971 2981 2987 2990 3001 3011 3014 3014 3023 3032 3031 3032 3037 3043 3047 3051 3056 3061 3066 3069 3080 3089 3091 3090 3101 3107 3107 3111 3115 3123 3131 3136 3150 3160 3163 3167 3171 3177 3182 3184 3191 3199 3198 3199 3208 3218 3221 3222 3233 3243 3245 3249 3253 3257 3259 3260 3270 3279 3280 3282
868 870 868 868 870 871 872 875 879 886 889 897 898 898 900 903 903 910 916 926 930 936 937 945 947 951 951 955 958 964 962 967 972 979 981 992 997 1009 1012 1025 1026 1024 1022 1021 1020 1022 1020 1019 1022 1028 1028 1033 1035 1037 1036 1039 1041 1046 1047 1052 1055 1060 1061 1066 1069 1078 1081 1091 1095 1105 1107 1118 1120 1126 1130 1140 1143 1149 1152 1162 1164 1177 1178 1188 1193 1201 1205 1218 1223 1228 1228 1231 1230 1227 1225 1224 1223 1223 1227 1231 1231 1233 1235 1241 1241 1251 1254 1263 1264 1266 1265 1270 1271 1279 1282 1291 1292 1298 1301 1312 1314 1319 1316 1317 1318 1319 1320 1325 1327 1334 1337 1347 1352 1359 1357 1366 1367 1372 1376 1387 1392 1399 1400 1409 1412 1423 1426 1440 1445 1457 1458 1471 1475 1476 1471 1469 1468 1464 1465 1468 1466 1471 1474 1479 1483 1486 1489 1495 1498 1504 1505 1509 1512 1517 1516 1519 1522 1529 1529 1539 1541 1547 1549 1559 1559 1561 1558 1558 1559 1562 1561 1565 1568 1576 1578 1587 1592 1602 1607 1621 1626 1634 1634 1642 1645 1650 1650 1654 1657 1668 1675 1688 1694 1708 1710 1723 1725 1730 1729 1732 1734 1734 1732 1731 1730 1733 1737 1744 1748 1756 1762 1776 1780 1787 1785 1788 1788 1786 1788 1792 1792 1793 1790 1790 1789 1784 1782 1778 1778 1781 1785 1789 1792 1799 1801 1807 1811 1813 1816 1825 1829 1840 1844 1860 1867 1878 1878 1891 1896 1904 1902 1912 1914 1927 1939 1961 1969 1989 1996 2022 2027 2037 2037 2049 2050 2054 2054 2062 2066 2082 2088 2105 2116 2137 2144 2169 2180 2203 2205 2225 2229 2237 2236 2246 2249 2263 2269 2288 2297 2315 2320 2339 2346 2355 2352 2357 2359 2363 2361 2368 2371 2386 2396 2418 2427 2445 2449 2471 2478 2492 2493 2507 2512 2526 2529 2540 2546 2556 2562 2578 2583 2599 2604 2623 2630 2636 2634 2638 2638 2636 2636 2636 2635 2636 2641 2648 2652 2661 2660 2665 2667 2671 2671 2674 2672 2674 2675 2678 2681 2689 2688 2692 2693 2692 2691 2692 2691 2693 2695 2698 2696 2697 2696 2696 2698 2696 2692 2688 2687 2685 2683 2683 2684 2689 2689 2693 2694 2698 2698 2703 2704 2711 2716 2727 2731 2736 2740 2751 2754 2762 2763 2768 2772 2776 2776 2780 2783 2786 2786 2789 2793 2799 2803 2814 2818 2824 2825 2832 2835 2837 2837 2845 2847 2857 2858 2866 2870 2876 2880 2893 2897 2907 2906 2913 2916 2918 2918 2927 2929 2940 2944 2956 2959 2966 2971 2986 2991 3000 3003 3015 3017 3022 3021 3026 3030 3036 3038 3046 3049 3055 3059 3068 3072 3082 3080 3086 3090 3097 3094 3099 3100 3107 3113 3124 3131 3144 3146 3158 3161 3168 3171 3179 3182 3187 3187 3190 3192 3199 3204 3216 3220 3227 3230 3242 3245 3251 3251 3255 3258 3266 3266 3273 3274
877 876 878 875 875 877 879 882 887 892 900 904 909 908 911 910 906 916 925 931 941 942 947 950 955 955 958 961 965 968 972 974 980 984 991 997 1005 1012 1021 1027 1038 1028 1024 1023 1022 1023 1024 1023 1022 1027 1031 1034 1039 1038 1039 1040 1043 1046 1048 1053 1060 1063 1067 1069 1072 1081 1091 1097 1108 1111 1119 1124 1130 1136 1147 1153 1164 1163 1168 1172 1175 1186 1194 1199 1208 1213 1222 1228 1242 1238 1240 1239 1238 1234 1231 1230 1227 1233 1237 1240 1241 1242 1244 1248 1249 1257 1266 1269 1273 1273 1272 1276 1278 1285 1292 1297 1303 1306 1313 1320 1331 1327 1326 1326 1329 1330 1333 1333 1333 1341 1350 1357 1368 1367 1368 1372 1377 1381 1388 1396 1407 1409 1414 1416 1419 1427 1435 1444 1452 1460 1470 1477 1489 1479 1475 1472 1472 1468 1467 1465 1462 1470 1476 1479 1486 1489 1496 1498 1505 1506 1512 1512 1514 1516 1519 1519 1523 1527 1532 1537 1543 1547 1551 1556 1564 1558 1555 1554 1553 1557 1560 1561 1561 1572 1580 1586 1593 1600 1611 1620 1635 1632 1637 1640 1646 1646 1650 1649 1647 1663 1675 1685 1700 1704 1714 1718 1727 1724 1725 1726 1732 1727 1724 1721 1716 1725 1731 1738 1746 1752 1764 1773 1789 1783 1785 1783 1785 1783 1785 1787 1791 1789 1787 1788 1790 1783 1779 1778 1775 1781 1785 1789 1793 1799 1805 1809 1818 1817 1823 1828 1836 1842 1851 1863 1882 1881 1886 1892 1905 1904 1906 1905 1900 1924 1944 1958 1978 1988 2006 2019 2044 2036 2040 2043 2050 2049 2053 2055 2057 2075 2091 2104 2123 2135 2153 2165 2185 2196 2211 2219 2229 2232 2236 2238 2237 2253 2268 2283 2301 2309 2325 2332 2349 2343 2346 2344 2344 2346 2349 2351 2348 2371 2391 2405 2422 2432 2447 2457 2473 2478 2487 2495 2506 2516 2527 2532 2541 2548 2560 2571 2585 2593 2606 2617 2638 2630 2633 2633 2636 2632 2630 2629 2627 2631 2637 2644 2653 2655 2660 2661 2664 2665 2669 2669 2668 2671 2675 2676 2680 2683 2687 2688 2691 2689 2687 2689 2689 2692 2695 2695 2696 2694 2694 2695 2701 2694 2690 2686 2681 2681 2681 2681 2681 2686 2690 2692 2695 2696 2698 2698 2697 2706 2716 2723 2732 2735 2743 2748 2756 2758 2764 2767 2773 2772 2775 2777 2783 2783 2787 2787 2792 2797 2805 2812 2828 2823 2827 2830 2837 2834 2835 2838 2842 2851 2858 2862 2869 2874 2884 2888 2900 2899 2904 2905 2909 2910 2914 2919 2924 2933 2943 2950 2959 2964 2974 2984 3000 3001 3010 3013 3020 3020 3024 3024 3026 3032 3038 3044 3054 3056 3064 3068 3080 3079 3083 3084 3091 3091 3092 3092 3089 3101 3113 3121 3135 3138 3146 3151 3159 3163 3171 3177 3186 3185 3187 3186 3183 3194 3204 3212 3222 3225 3232 3238 3247 3247 3251 3251 3254 3260 3265 3267 3269
882 882 881 879 882 886 885 887 890 897 902 912 911 916 918 920 921 924 925 935 936 946 949 955 953 957 960 966 966 972 974 979 980 988 991 1000 1003 1013 1015 1024 1021 1026 1030 1028 1027 1026 1026 1028 1028 1028 1029 1033 1034 1037 1040 1042 1043 1048 1048 1053 1057 1068 1069 1073 1075 1084 1088 1098 1102 1114 1119 1129 1132 1144 1150 1164 1164 1172 1177 1183 1187 1199 1200 1208 1211 1221 1224 1232 1234 1244 1247 1247 1246 1243 1242 1238 1242 1247 1246 1251 1249 1251 1253 1258 1259 1264 1267 1275 1275 1281 1282 1284 1286 1294 1296 1304 1304 1311 1316 1326 1325 1332 1333 1334 1337 1342 1341 1342 1345 1349 1353 1366 1365 1375 1376 1380 1382 1390 1393 1404 1406 1416 1420 1424 1425 1431 1436 1449 1450 1463 1467 1478 1473 1476 1477 1475 1474 1471 1469 1465 1468 1471 1471 1476 1479 1488 1492 1498 1498 1506 1509 1513 1513 1515 1515 1517 1519 1525 1527 1535 1538 1548 1549 1553 1551 1555 1555 1552 1553 1555 1556 1560 1564 1573 1575 1586 1586 1595 1600 1613 1613 1625 1630 1635 1635 1639 1643 1647 1653 1662 1665 1679 1681 1695 1701 1710 1709 1715 1717 1717 1717 1718 1718 1715 1718 1721 1721 1731 1732 1744 1749 1763 1761 1771 1775 1776 1776 1776 1778 1782 1781 1785 1785 1786 1783 1780 1783 1780 1782 1786 1786 1791 1791 1799 1800 1806 1808 1817 1822 1831 1832 1842 1846 1859 1861 1878 1882 1888 1891 1901 1903 1904 1913 1925 1929 1952 1956 1982 1989 2006 2007 2025 2032 2034 2036 2041 2045 2049 2057 2072 2079 2100 2104 2128 2136 2155 2161 2188 2195 2211 2215 2228 2230 2235 2239 2247 2253 2275 2277 2298 2304 2316 2313 2322 2328 2330 2331 2331 2334 2341 2346 2359 2364 2389 2392 2415 2423 2439 2444 2463 2471 2483 2489 2506 2511 2522 2525 2538 2546 2564 2566 2582 2588 2601 2601 2614 2621 2626 2625 2626 2626 2623 2626 2627 2630 2638 2638 2646 2650 2655 2656 2659 2662 2665 2666 2668 2668 2672 2675 2679 2681 2685 2685 2687 2688 2690 2690 2692 2691 2693 2691 2689 2691 2692 2691 2692 2690 2686 2684 2679 2680 2681 2683 2687 2688 2693 2690 2693 2694 2694 2697 2702 2705 2718 2720 2730 2735 2743 2743 2751 2755 2763 2762 2764 2767 2772 2771 2776 2778 2783 2785 2793 2796 2804 2805 2816 2822 2826 2826 2830 2831 2833 2838 2847 2848 2855 2858 2869 2872 2878 2879 2888 2892 2897 2898 2901 2905 2913 2916 2927 2932 2945 2945 2957 2962 2977 2979 2995 3001 3009 3010 3015 3017 3020 3023 3030 3031 3041 3042 3054 3056 3063 3063 3071 3073 3077 3081 3087 3087 3089 3091 3097 3100 3115 3116 3130 3135 3144 3146 3156 3162 3173 3174 3180 3183 3186 3188 3192 3195 3206 3209 3220 3225 3233 3233 3241 3243 3246 3250 3256 3257 3262 3263
887 887 887 886 887 890 895 895 897 905 913 918 919 924 927 929 931 934 936 939 941 949 957 955 954 958 963 968 971 975 983 982 983 991 999 1004 1008 1014 1021 1020 1016 1022 1028 1029 1032 1029 1028 1031 1033 1033 1034 1036 1038 1041 1043 1044 1044 1049 1051 1056 1061 1069 1077 1076 1078 1087 1098 1102 1106 1117 1125 1132 1136 1151 1165 1171 1174 1183 1190 1195 1201 1209 1218 1219 1221 1230 1235 1238 1239 1247 1256 1254 1254 1252 1249 1250 1254 1257 1262 1261 1258 1261 1262 1266 1270 1274 1280 1281 1281 1286 1290 1293 1296 1303 1311 1312 1312 1319 1324 1328 1329 1334 1336 1341 1346 1350 1354 1354 1357 1361 1367 1372 1372 1381 1384 1388 1392 1398 1404 1411 1417 1425 1434 1432 1432 1439 1447 1452 1454 1465 1476 1474 1469 1471 1471 1473 1476 1473 1470 1470 1472 1473 1475 1475 1476 1486 1496 1495 1495 1504 1513 1513 1513 1515 1516 1517 1518 1524 1528 1533 1537 1545 1553 1549 1546 1548 1549 1549 1552 1554 1558 1560 1564 1572 1580 1582 1584 1593 1602 1603 1604 1616 1627 1629 1631 1637 1640 1647 1654 1662 1672 1676 1678 1689 1699 1700 1700 1705 1711 1710 1709 1709 1707 1710 1714 1715 1716 1722 1723 1735 1745 1747 1746 1757 1765 1767 1770 1771 1772 1774 1775 1778 1780 1780 1780 1779 1782 1782 1784 1787 1792 1790 1789 1797 1804 1805 1806 1815 1823 1830 1835 1842 1849 1853 1856 1870 1882 1886 1890 1899 1903 1910 1918 1929 1941 1948 1948 1972 1990 1993 1992 2011 2027 2027 2030 2035 2041 2047 2055 2069 2088 2094 2098 2120 2141 2146 2151 2176 2197 2205 2210 2222 2229 2234 2238 2247 2256 2265 2268 2286 2301 2298 2292 2302 2312 2315 2319 2319 2322 2330 2337 2349 2363 2372 2375 2398 2417 2422 2427 2446 2466 2473 2481 2497 2512 2513 2516 2530 2543 2555 2560 2574 2586 2587 2584 2597 2609 2614 2618 2618 2621 2620 2624 2625 2631 2631 2632 2641 2647 2648 2651 2655 2661 2663 2665 2667 2667 2671 2675 2678 2682 2682 2683 2685 2687 2688 2691 2691 2693 2690 2689 2687 2688 2687 2686 2685 2684 2683 2684 2680 2680 2682 2685 2688 2693 2691 2687 2691 2695 2695 2697 2702 2706 2714 2718 2728 2737 2737 2736 2743 2750 2755 2757 2759 2760 2764 2763 2769 2773 2778 2780 2788 2795 2797 2798 2809 2820 2820 2823 2824 2825 2830 2838 2844 2851 2852 2853 2862 2872 2869 2867 2876 2884 2888 2893 2895 2899 2905 2910 2921 2934 2937 2938 2948 2957 2966 2970 2986 3002 3004 3006 3010 3013 3016 3019 3025 3030 3034 3037 3046 3055 3055 3056 3062 3067 3072 3078 3081 3082 3084 3087 3093 3099 3105 3108 3121 3132 3137 3140 3151 3162 3168 3173 3179 3182 3185 3187 3192 3202 3204 3207 3217 3227 3227 3228 3234 3241 3244 3249 3254 3258 3257 3258
890 892 891 893 893 895 897 901 906 915 917 928 929 935 934 938 941 946 945 946 949 955 954 957 957 958 963 972 972 977 979 984 987 996 998 1009 1012 1017 1016 1019 1020 1021 1024 1031 1032 1033 1034 1036 1038 1040 1040 1041 1044 1047 1046 1048 1049 1054 1055 1061 1064 1071 1073 1079 1083 1091 1096 1109 1114 1125 1127 1140 1144 1160 1166 1184 1190 1198 1199 1208 1210 1221 1223 1232 1237 1243 1241 1246 1245 1252 1253 1261 1263 1263 1262 1262 1263 1266 1268 1274 1274 1273 1273 1277 1278 1284 1284 1289 1291 1295 1297 1303 1304 1312 1315 1324 1327 1330 1329 1336 1336 1341 1343 1348 1351 1358 1359 1363 1367 1373 1375 1383 1387 1394 1392 1396 1400 1408 1411 1421 1426 1435 1434 1440 1441 1448 1451 1460 1462 1468 1468 1473 1472 1470 1472 1473 1474 1475 1475 1474 1475 1476 1475 1475 1479 1486 1486 1492 1494 1502 1504 1513 1516 1517 1516 1518 1520 1525 1527 1534 1538 1543 1542 1546 1544 1543 1544 1545 1548 1553 1555 1561 1563 1571 1572 1580 1585 1592 1591 1596 1600 1610 1614 1626 1631 1638 1639 1647 1650 1662 1666 1677 1680 1685 1685 1694 1693 1697 1698 1705 1705 1705 1705 1706 1706 1711 1714 1720 1722 1731 1730 1736 1739 1748 1750 1758 1761 1767 1766 1768 1769 1773 1773 1774 1776 1777 1778 1782 1783 1788 1787 1788 1792 1797 1798 1804 1806 1814 1819 1833 1835 1843 1843 1848 1853 1866 1870 1885 1890 1902 1905 1916 1920 1933 1938 1952 1958 1971 1970 1984 1987 2000 2003 2017 2022 2030 2032 2043 2047 2064 2070 2091 2100 2116 2118 2137 2146 2169 2176 2202 2210 2222 2224 2234 2238 2249 2251 2264 2267 2278 2275 2284 2282 2284 2288 2299 2301 2307 2312 2321 2325 2338 2344 2361 2370 2386 2389 2405 2412 2431 2439 2462 2472 2489 2491 2504 2511 2525 2533 2553 2557 2569 2568 2577 2578 2583 2588 2603 2604 2609 2611 2614 2616 2621 2622 2626 2632 2639 2637 2641 2644 2650 2654 2662 2665 2669 2668 2671 2672 2677 2678 2681 2682 2683 2683 2686 2687 2690 2688 2687 2688 2684 2683 2682 2681 2680 2680 2679 2678 2679 2681 2684 2684 2688 2688 2691 2690 2689 2690 2696 2697 2703 2705 2714 2718 2727 2726 2732 2733 2738 2741 2750 2752 2756 2757 2761 2760 2765 2767 2776 2777 2784 2785 2792 2795 2802 2805 2814 2817 2821 2823 2827 2830 2840 2842 2849 2851 2856 2855 2859 2863 2868 2870 2879 2883 2888 2892 2901 2904 2916 2920 2933 2937 2943 2947 2960 2962 2977 2981 2999 3004 3008 3008 3012 3015 3023 3023 3029 3032 3041 3040 3047 3050 3056 3060 3068 3072 3078 3077 3080 3083 3092 3093 3101 3107 3117 3121 3134 3136 3147 3152 3166 3172 3181 3180 3185 3184 3189 3193 3203 3207 3215 3213 3220 3222 3227 3232 3243 3247 3253 3249 3251 3250
893 895 895 897 898 903 908 910 914 922 929 936 943 942 944 948 953 955 957 958 960 961 963 961 956 964 969 974 978 981 985 987 988 997 1006 1012 1024 1021 1023 1021 1019 1024 1030 1033 1036 1036 1038 1041 1048 1046 1048 1048 1054 1053 1053 1052 1053 1058 1062 1066 1073 1076 1082 1085 1088 1098 1109 1115 1124 1131 1139 1147 1154 1169 1186 1197 1213 1212 1218 1220 1224 1233 1241 1247 1257 1254 1254 1254 1250 1257 1263 1266 1272 1271 1272 1272 1276 1276 1280 1283 1290 1285 1284 1287 1292 1293 1296 1298 1300 1305 1309 1311 1312 1320 1329 1334 1344 1340 1340 1343 1345 1350 1356 1357 1363 1366 1372 1373 1378 1382 1390 1394 1405 1404 1407 1409 1412 1417 1425 1432 1446 1443 1444 1445 1443 1454 1464 1469 1476 1475 1477 1475 1472 1475 1479 1477 1477 1476 1477 1477 1480 1477 1478 1478 1482 1486 1490 1490 1488 1499 1507 1512 1521 1518 1518 1520 1523 1527 1534 1537 1547 1544 1545 1542 1534 1541 1545 1544 1545 1551 1557 1560 1565 1569 1576 1581 1588 1590 1594 1595 1595 1608 1616 1624 1633 1638 1643 1648 1653 1661 1671 1677 1688 1685 1686 1687 1684 1690 1693 1698 1702 1700 1702 1702 1703 1706 1712 1718 1724 1728 1733 1732 1730 1742 1751 1753 1757 1760 1762 1762 1765 1767 1772 1772 1775 1774 1774 1778 1782 1786 1788 1790 1794 1798 1804 1805 1804 1815 1824 1832 1843 1843 1846 1848 1851 1864 1876 1884 1893 1903 1914 1921 1931 1939 1950 1958 1971 1973 1978 1980 1976 1993 2006 2010 2016 2021 2027 2034 2042 2056 2073 2085 2106 2110 2121 2129 2137 2161 2183 2200 2221 2223 2230 2235 2240 2248 2256 2262 2271 2270 2273 2270 2262 2272 2279 2284 2287 2293 2301 2309 2319 2327 2342 2353 2372 2379 2391 2394 2396 2418 2437 2454 2473 2481 2492 2499 2505 2521 2538 2550 2565 2564 2566 2567 2566 2574 2582 2590 2596 2599 2603 2607 2611 2614 2618 2623 2633 2635 2637 2638 2638 2646 2653 2659 2669 2667 2669 2671 2675 2677 2679 2680 2683 2681 2682 2683 2685 2685 2685 2685 2689 2683 2680 2677 2676 2675 2676 2674 2673 2676 2679 2683 2687 2687 2689 2689 2687 2689 2690 2693 2694 2701 2708 2715 2727 2726 2729 2728 2726 2734 2740 2746 2754 2753 2756 2756 2757 2762 2767 2772 2777 2780 2785 2788 2793 2799 2807 2811 2814 2818 2823 2826 2831 2836 2843 2845 2849 2851 2853 2853 2854 2862 2869 2874 2881 2884 2889 2895 2900 2910 2922 2928 2938 2942 2950 2953 2956 2969 2981 2993 3010 3005 3006 3009 3013 3019 3022 3026 3030 3034 3037 3041 3043 3051 3060 3067 3078 3074 3075 3077 3079 3087 3095 3101 3112 3117 3126 3129 3131 3144 3157 3166 3181 3179 3182 3181 3181 3188 3195 3201 3208 3209 3211 3214 3215 3224 3233 3240 3251 3246 3246 3244 3243
898 900 899 902 905 913 913 917 922 933 935 944 942 949 953 959 961 966 967 970 968 969 969 969 971 974 972 977 978 986 987 992 993 999 1003 1012 1013 1020 1024 1026 1028 1028 1030 1036 1035 1039 1039 1042 1042 1048 1049 1051 1053 1058 1058 1057 1060 1065 1065 1070 1071 1080 1084 1091 1095 1104 1107 1119 1123 1138 1142 1155 1160 1178 1185 1205 1205 1219 1225 1231 1237 1246 1249 1258 1257 1265 1268 1268 1266 1264 1264 1271 1272 1279 1278 1278 1280 1284 1286 1289 1289 1294 1295 1296 1296 1300 1303 1308 1311 1317 1319 1323 1324 1329 1331 1340 1340 1346 1350 1352 1354 1358 1360 1364 1366 1374 1376 1379 1381 1387 1392 1401 1402 1413 1416 1421 1420 1424 1428 1438 1438 1447 1452 1453 1457 1463 1466 1476 1474 1480 1480 1480 1481 1480 1480 1480 1480 1478 1478 1477 1475 1476 1478 1480 1482 1486 1488 1490 1493 1499 1501 1510 1509 1516 1520 1523 1523 1528 1529 1536 1536 1541 1545 1545 1545 1542 1541 1544 1546 1552 1552 1560 1559 1565 1571 1581 1581 1588 1591 1598 1602 1611 1611 1621 1625 1639 1642 1650 1651 1660 1663 1674 1674 1682 1684 1684 1685 1686 1687 1692 1692 1693 1695 1698 1698 1701 1706 1716 1717 1725 1727 1731 1734 1740 1741 1747 1749 1754 1753 1755 1757 1761 1763 1768 1768 1770 1772 1777 1779 1786 1789 1793 1794 1798 1801 1809 1811 1819 1820 1830 1830 1842 1844 1849 1854 1866 1869 1883 1889 1906 1912 1925 1929 1945 1948 1960 1961 1974 1978 1983 1985 1992 1993 2004 2003 2011 2015 2024 2029 2046 2052 2073 2078 2100 2109 2122 2133 2156 2166 2194 2195 2219 2227 2236 2239 2247 2249 2259 2256 2261 2262 2264 2265 2266 2265 2271 2273 2280 2284 2296 2297 2312 2320 2338 2345 2369 2374 2385 2393 2411 2418 2444 2447 2472 2480 2495 2502 2518 2525 2544 2542 2556 2559 2561 2563 2566 2569 2581 2581 2589 2595 2602 2601 2607 2610 2617 2620 2631 2633 2636 2639 2646 2646 2655 2656 2664 2668 2672 2674 2679 2678 2679 2677 2677 2679 2682 2680 2680 2679 2680 2680 2680 2679 2673 2673 2671 2670 2669 2672 2675 2677 2683 2682 2686 2688 2689 2690 2690 2690 2693 2695 2701 2703 2712 2713 2724 2727 2728 2729 2733 2733 2740 2740 2747 2749 2753 2756 2762 2762 2768 2768 2774 2778 2783 2788 2797 2800 2809 2808 2814 2817 2824 2824 2832 2834 2840 2841 2846 2845 2849 2852 2858 2860 2869 2872 2881 2885 2893 2894 2904 2908 2920 2924 2937 2941 2946 2951 2964 2967 2982 2982 2996 3002 3005 3010 3018 3020 3026 3024 3028 3031 3037 3039 3046 3051 3062 3060 3066 3070 3075 3077 3085 3088 3097 3101 3114 3118 3125 3130 3141 3146 3160 3162 3174 3177 3179 3183 3188 3189 3198 3196 3203 3206 3210 3213 3221 3223 3233 3231 3237 3238 3237 3237
902 902 903 909 913 920 925 928 932 940 949 949 947 956 964 970 975 977 980 978 976 976 979 979 981 982 982 983 982 988 992 995 997 1005 1013 1015 1016 1023 1028 1032 1035 1035 1037 1037 1035 1039 1041 1041 1041 1046 1050 1052 1055 1060 1065 1064 1066 1068 1072 1074 1075 1084 1093 1097 1103 1110 1119 1124 1127 1141 1154 1161 1168 1186 1205 1209 1210 1225 1237 1245 1254 1261 1268 1267 1267 1274 1282 1279 1279 1276 1274 1277 1278 1283 1286 1286 1288 1291 1295 1295 1294 1299 1302 1304 1306 1310 1315 1318 1323 1329 1337 1336 1335 1339 1343 1345 1345 1352 1358 1362 1366 1368 1373 1372 1373 1380 1388 1388 1389 1395 1402 1405 1407 1418 1428 1429 1430 1433 1439 1443 1444 1453 1462 1465 1471 1475 1482 1480 1476 1482 1484 1485 1487 1488 1491 1486 1484 1482 1483 1475 1471 1473 1477 1481 1485 1489 1495 1493 1495 1501 1507 1508 1505 1514 1520 1523 1525 1529 1531 1534 1533 1541 1548 1547 1548 1545 1544 1545 1545 1550 1554 1556 1557 1564 1573 1578 1581 1587 1592 1600 1606 1612 1620 1623 1626 1637 1647 1650 1651 1660 1666 1671 1672 1678 1682 1683 1684 1685 1686 1689 1690 1689 1689 1691 1693 1698 1707 1712 1715 1723 1728 1731 1735 1740 1747 1745 1744 1746 1746 1748 1750 1755 1760 1763 1765 1767 1768 1774 1779 1786 1795 1795 1798 1801 1806 1811 1814 1821 1827 1829 1827 1838 1844 1851 1858 1869 1879 1887 1893 1909 1924 1930 1934 1948 1957 1961 1962 1976 1986 1986 1987 1993 2000 1998 1994 2003 2009 2014 2019 2034 2050 2061 2066 2090 2108 2121 2133 2155 2179 2184 2185 2210 2232 2237 2244 2248 2251 2252 2250 2254 2253 2257 2260 2261 2263 2263 2264 2270 2276 2279 2282 2297 2314 2325 2334 2355 2373 2379 2388 2405 2424 2433 2436 2462 2481 2494 2505 2519 2533 2534 2532 2546 2555 2557 2560 2562 2566 2571 2572 2582 2593 2594 2595 2600 2605 2611 2615 2625 2633 2635 2638 2643 2647 2652 2653 2661 2668 2672 2677 2678 2679 2677 2676 2676 2675 2678 2678 2676 2673 2673 2675 2675 2676 2671 2671 2667 2664 2666 2671 2673 2678 2679 2680 2684 2690 2689 2692 2691 2692 2694 2697 2701 2705 2708 2711 2720 2729 2727 2728 2731 2733 2736 2735 2742 2745 2750 2755 2759 2763 2765 2766 2773 2778 2782 2787 2796 2803 2804 2804 2810 2817 2819 2820 2827 2834 2835 2836 2839 2839 2845 2850 2855 2860 2865 2869 2877 2885 2888 2891 2901 2911 2916 2920 2931 2943 2944 2946 2957 2967 2971 2971 2987 2997 3004 3013 3017 3024 3022 3022 3025 3031 3034 3038 3045 3053 3054 3052 3058 3062 3069 3076 3082 3091 3094 3098 3110 3122 3125 3131 3142 3155 3156 3157 3169 3176 3181 3185 3189 3192 3193 3191 3199 3205 3209 3212 3219 3226 3225 3224 3227 3227 3230 3232
904 905 911 919 921 930 930 938 941 946 948 957 960 966 970 984 988 989 986 986 986 983 984 987 988 991 989 991 991 995 994 1000 1002 1011 1012 1021 1025 1030 1031 1039 1039 1040 1040 1040 1040 1041 1041 1042 1042 1048 1048 1052 1055 1063 1063 1069 1069 1071 1075 1082 1083 1090 1092 1104 1108 1117 1120 1132 1136 1148 1153 1170 1177 1194 1197 1216 1224 1237 1241 1261 1268 1278 1273 1278 1281 1285 1284 1288 1290 1288 1287 1286 1286 1291 1290 1295 1294 1298 1299 1303 1305 1309 1309 1314 1316 1322 1322 1328 1331 1339 1342 1351 1352 1351 1350 1353 1356 1361 1363 1372 1372 1378 1377 1380 1381 1385 1388 1397 1398 1403 1405 1413 1417 1424 1426 1438 1439 1441 1444 1452 1454 1462 1465 1477 1480 1484 1484 1487 1488 1488 1487 1491 1492 1495 1492 1489 1489 1483 1480 1471 1470 1468 1474 1482 1485 1493 1491 1495 1499 1504 1505 1511 1512 1516 1517 1526 1529 1532 1532 1537 1538 1543 1542 1549 1548 1548 1547 1548 1548 1551 1551 1553 1556 1562 1566 1577 1581 1590 1592 1604 1606 1614 1617 1626 1630 1639 1642 1655 1657 1663 1663 1672 1674 1679 1679 1685 1686 1687 1687 1691 1689 1687 1687 1686 1686 1694 1699 1710 1714 1724 1725 1733 1735 1740 1739 1744 1745 1743 1744 1743 1744 1749 1753 1760 1762 1767 1767 1773 1776 1786 1789 1797 1799 1802 1807 1817 1819 1824 1825 1832 1835 1842 1843 1854 1860 1874 1877 1894 1900 1916 1918 1937 1945 1956 1955 1966 1971 1982 1981 1991 1993 1994 1993 1997 1997 1998 1999 2007 2008 2024 2035 2058 2067 2088 2094 2121 2130 2154 2158 2181 2190 2207 2212 2238 2247 2253 2247 2249 2250 2252 2251 2254 2254 2255 2255 2256 2259 2263 2261 2262 2266 2282 2291 2315 2325 2347 2351 2373 2382 2400 2405 2429 2438 2459 2466 2498 2507 2523 2520 2530 2535 2543 2543 2555 2556 2558 2561 2567 2570 2577 2578 2588 2590 2594 2599 2608 2612 2622 2625 2636 2639 2642 2644 2653 2654 2659 2662 2672 2675 2677 2676 2676 2677 2677 2676 2677 2677 2675 2672 2667 2667 2670 2668 2666 2665 2662 2663 2663 2666 2671 2671 2675 2676 2681 2683 2687 2690 2692 2693 2697 2700 2704 2703 2707 2711 2719 2719 2726 2727 2730 2732 2738 2739 2741 2742 2750 2751 2759 2759 2763 2766 2774 2775 2783 2789 2797 2795 2802 2804 2807 2808 2815 2818 2825 2825 2832 2834 2836 2837 2842 2844 2852 2855 2863 2866 2875 2876 2885 2890 2900 2902 2915 2917 2926 2929 2943 2946 2952 2955 2967 2973 2985 2987 3004 3007 3015 3013 3017 3019 3022 3024 3032 3036 3045 3044 3052 3053 3055 3056 3064 3066 3076 3081 3092 3098 3109 3111 3125 3132 3141 3142 3154 3162 3171 3172 3184 3187 3191 3188 3191 3194 3198 3200 3209 3213 3220 3217 3220 3221 3221 3221 3225 3226
905 913 921 926 933 936 941 946 956 953 957 961 970 973 984 993 1015 998 996 994 995 992 992 994 997 996 996 996 998 999 1001 1003 1005 1013 1022 1027 1036 1036 1041 1044 1052 1046 1046 1044 1043 1045 1046 1045 1040 1049 1054 1056 1058 1062 1066 1070 1074 1076 1082 1086 1091 1095 1102 1109 1120 1122 1128 1136 1147 1154 1167 1176 1192 1198 1212 1222 1238 1243 1257 1271 1299 1286 1285 1288 1294 1294 1298 1299 1304 1299 1298 1297 1296 1298 1299 1300 1300 1304 1309 1311 1314 1317 1321 1324 1328 1330 1334 1336 1342 1348 1356 1360 1371 1363 1364 1364 1369 1370 1375 1377 1382 1382 1386 1386 1389 1392 1398 1401 1406 1409 1415 1420 1429 1430 1435 1442 1451 1450 1454 1459 1465 1470 1479 1484 1497 1493 1494 1494 1497 1494 1496 1496 1500 1498 1497 1495 1493 1487 1482 1473 1458 1470 1476 1483 1491 1492 1494 1497 1505 1506 1510 1512 1515 1518 1524 1528 1538 1534 1535 1537 1541 1542 1545 1546 1547 1545 1545 1548 1551 1552 1556 1554 1556 1562 1570 1576 1586 1590 1596 1604 1617 1617 1622 1627 1637 1640 1648 1654 1666 1665 1669 1673 1681 1680 1683 1684 1691 1686 1687 1689 1693 1688 1687 1684 1677 1691 1701 1709 1717 1722 1728 1733 1741 1737 1739 1741 1746 1746 1747 1744 1740 1749 1756 1758 1762 1764 1766 1772 1779 1786 1794 1797 1804 1804 1811 1818 1831 1827 1833 1835 1841 1843 1849 1856 1868 1874 1884 1894 1912 1917 1929 1940 1963 1959 1965 1970 1982 1984 1990 1992 2001 1996 1996 1994 1993 1995 1997 1999 1995 2020 2041 2055 2075 2086 2104 2117 2140 2149 2166 2177 2194 2202 2219 2235 2267 2248 2245 2245 2250 2247 2248 2250 2255 2251 2251 2252 2257 2256 2256 2253 2244 2269 2288 2304 2324 2334 2350 2363 2384 2391 2406 2421 2443 2453 2471 2491 2527 2516 2522 2525 2536 2537 2542 2548 2556 2555 2560 2564 2573 2573 2578 2582 2587 2591 2599 2606 2614 2620 2627 2634 2648 2643 2646 2651 2659 2659 2666 2671 2685 2676 2675 2674 2676 2674 2674 2675 2681 2673 2670 2665 2661 2663 2663 2660 2656 2657 2659 2661 2667 2668 2670 2671 2672 2679 2685 2687 2691 2691 2694 2698 2707 2705 2707 2709 2716 2717 2721 2723 2726 2728 2733 2737 2744 2740 2742 2745 2752 2754 2759 2761 2767 2771 2777 2785 2801 2796 2797 2800 2806 2806 2809 2813 2817 2821 2824 2828 2834 2834 2837 2840 2845 2850 2855 2861 2869 2872 2877 2882 2890 2895 2903 2910 2919 2922 2930 2936 2946 2948 2958 2963 2974 2981 2991 2999 3015 3008 3008 3010 3015 3017 3022 3029 3039 3040 3044 3046 3053 3051 3053 3059 3065 3071 3080 3089 3102 3106 3115 3124 3143 3139 3145 3152 3168 3169 3178 3184 3200 3190 3188 3190 3196 3197 3203 3208 3219 3216 3218 3217 3220 3215 3214 3216 3221
919 921 923 931 932 942 944 949 948 954 957 962 964 975 978 989 985 993 1000 1000 1001 999 1000 1000 999 1001 1001 1000 1002 1004 1005 1009 1010 1016 1019 1030 1029 1037 1040 1046 1044 1048 1049 1047 1050 1050 1051 1053 1053 1055 1053 1060 1059 1064 1067 1072 1072 1078 1083 1092 1092 1098 1101 1110 1111 1123 1129 1139 1142 1155 1161 1176 1179 1197 1207 1223 1225 1242 1251 1269 1267 1284 1291 1295 1297 1302 1303 1306 1306 1308 1310 1308 1308 1309 1306 1306 1309 1312 1313 1318 1320 1326 1329 1334 1332 1337 1337 1342 1346 1356 1357 1365 1364 1369 1371 1371 1373 1378 1378 1381 1380 1384 1387 1391 1393 1398 1400 1404 1406 1412 1417 1425 1426 1434 1437 1446 1446 1456 1461 1466 1468 1476 1477 1484 1486 1497 1498 1499 1498 1498 1499 1499 1500 1501 1501 1501 1498 1493 1491 1484 1486 1478 1477 1485 1484 1491 1493 1497 1499 1505 1509 1515 1515 1520 1521 1525 1526 1533 1535 1537 1536 1541 1541 1545 1543 1543 1544 1548 1549 1553 1554 1554 1557 1562 1564 1572 1577 1590 1593 1602 1603 1617 1620 1625 1627 1638 1642 1650 1651 1662 1665 1671 1671 1679 1680 1680 1679 1681 1685 1688 1686 1686 1689 1688 1692 1695 1697 1710 1710 1720 1723 1731 1728 1731 1735 1738 1742 1748 1747 1746 1748 1752 1750 1755 1757 1762 1765 1773 1775 1787 1788 1794 1795 1801 1806 1816 1814 1822 1828 1834 1836 1841 1845 1853 1856 1872 1877 1889 1894 1914 1919 1933 1934 1952 1960 1968 1971 1983 1984 1988 1988 1993 1994 1993 1994 1995 1994 1998 2006 2021 2025 2047 2052 2079 2086 2105 2109 2137 2147 2167 2169 2190 2197 2216 2212 2228 2236 2236 2237 2238 2241 2243 2242 2243 2245 2245 2246 2250 2252 2253 2256 2262 2266 2290 2293 2318 2327 2348 2351 2376 2387 2408 2412 2439 2448 2470 2470 2495 2505 2512 2516 2528 2532 2540 2540 2549 2552 2558 2559 2566 2569 2576 2577 2585 2592 2604 2606 2619 2621 2627 2628 2638 2643 2647 2648 2655 2657 2662 2662 2668 2670 2669 2670 2670 2670 2670 2668 2668 2667 2662 2662 2660 2657 2656 2656 2653 2654 2658 2659 2666 2666 2667 2671 2679 2680 2688 2687 2690 2693 2695 2696 2703 2704 2708 2710 2715 2717 2722 2721 2725 2727 2733 2730 2734 2736 2738 2740 2746 2750 2758 2759 2768 2772 2782 2780 2791 2794 2798 2799 2804 2807 2812 2812 2818 2819 2823 2825 2831 2834 2838 2840 2848 2852 2859 2860 2870 2871 2876 2879 2890 2894 2903 2905 2916 2920 2926 2928 2939 2944 2956 2960 2974 2979 2989 2987 2997 3000 3002 3005 3010 3015 3024 3024 3034 3035 3038 3039 3044 3047 3054 3055 3065 3071 3083 3085 3100 3105 3116 3115 3128 3134 3144 3146 3159 3165 3174 3173 3182 3185 3186 3189 3193 3196 3203 3202 3209 3212 3213 3210 3208 3207 3207 3209
932 932 936 936 936 945 952 950 948 953 956 961 965 973 981 980 977 986 995 1000 1009 1006 1008 1006 1006 1006 1007 1006 1008 1009 1011 1013 1014 1020 1026 1029 1028 1036 1043 1043 1042 1048 1052 1053 1058 1058 1061 1059 1058 1059 1060 1060 1060 1067 1075 1074 1075 1083 1091 1095 1096 1101 1106 1110 1112 1123 1134 1141 1147 1158 1167 1175 1178 1198 1216 1222 1226 1241 1255 1260 1258 1276 1288 1298 1306 1309 1313 1312 1312 1316 1320 1318 1320 1317 1314 1317 1319 1321 1322 1326 1327 1335 1343 1340 1336 1341 1343 1348 1352 1360 1368 1368 1368 1371 1373 1376 1379 1381 1384 1384 1383 1388 1393 1394 1397 1402 1410 1408 1410 1416 1426 1429 1432 1438 1442 1447 1450 1460 1471 1473 1476 1480 1484 1485 1487 1495 1502 1502 1503 1503 1504 1503 1504 1504 1504 1503 1503 1499 1496 1497 1500 1492 1489 1490 1486 1493 1496 1498 1502 1507 1513 1515 1516 1521 1525 1523 1522 1527 1532 1533 1533 1536 1539 1541 1541 1540 1541 1546 1550 1552 1558 1555 1557 1561 1567 1571 1576 1587 1597 1598 1600 1612 1624 1623 1625 1634 1643 1644 1644 1655 1663 1664 1666 1674 1680 1677 1675 1677 1680 1684 1684 1686 1690 1692 1698 1700 1706 1709 1709 1719 1727 1725 1723 1728 1732 1737 1743 1747 1751 1749 1749 1752 1755 1755 1756 1761 1765 1771 1776 1785 1792 1794 1794 1801 1806 1808 1808 1816 1825 1830 1837 1841 1846 1848 1850 1866 1879 1885 1891 1906 1917 1922 1924 1941 1958 1963 1969 1978 1986 1984 1984 1988 1991 1990 1992 1993 1992 2001 2010 2023 2039 2043 2043 2068 2087 2090 2092 2120 2145 2152 2156 2175 2191 2192 2188 2203 2213 2221 2230 2230 2234 2234 2235 2236 2240 2239 2240 2244 2248 2251 2256 2262 2271 2279 2279 2303 2320 2327 2331 2357 2383 2390 2395 2419 2441 2443 2444 2467 2487 2496 2505 2514 2524 2527 2530 2538 2545 2550 2554 2558 2561 2567 2571 2582 2593 2599 2604 2615 2624 2622 2620 2629 2639 2641 2644 2648 2653 2653 2652 2657 2660 2663 2667 2665 2665 2664 2663 2662 2660 2658 2657 2654 2652 2653 2654 2653 2651 2654 2656 2662 2666 2668 2670 2677 2682 2685 2687 2691 2696 2694 2692 2697 2701 2706 2710 2713 2715 2717 2718 2720 2724 2725 2723 2727 2730 2732 2737 2740 2747 2750 2752 2761 2771 2772 2771 2781 2787 2793 2797 2801 2806 2808 2810 2815 2821 2821 2822 2828 2833 2835 2838 2845 2857 2857 2857 2865 2872 2872 2875 2883 2893 2895 2898 2909 2920 2918 2918 2928 2937 2947 2955 2966 2979 2976 2973 2982 2986 2994 3001 3005 3013 3015 3016 3024 3032 3032 3033 3037 3040 3046 3050 3061 3073 3077 3080 3092 3103 3104 3103 3114 3124 3133 3139 3149 3160 3160 3159 3167 3174 3181 3189 3190 3195 3196 3195 3200 3207 3204 3202 3199 3196 3198 3200
941 942 942 943 947 952 950 951 953 955 957 963 965 974 972 975 976 981 986 999 1003 1011 1010 1010 1010 1011 1011 1011 1013 1015 1016 1019 1022 1026 1027 1034 1034 1038 1038 1042 1045 1050 1052 1057 1060 1065 1065 1065 1064 1063 1062 1062 1064 1069 1070 1076 1081 1088 1091 1102 1103 1107 1107 1112 1115 1126 1131 1145 1151 1165 1168 1181 1185 1202 1207 1226 1231 1242 1246 1259 1262 1274 1281 1304 1307 1315 1316 1320 1322 1326 1325 1327 1326 1325 1329 1331 1330 1333 1334 1337 1339 1345 1343 1347 1348 1349 1351 1357 1359 1367 1367 1373 1374 1377 1378 1382 1382 1385 1387 1389 1390 1392 1392 1396 1400 1405 1405 1411 1414 1419 1424 1436 1440 1444 1446 1452 1454 1466 1469 1481 1483 1487 1484 1485 1488 1495 1497 1506 1508 1509 1507 1506 1507 1507 1507 1507 1507 1507 1508 1508 1507 1503 1503 1501 1500 1500 1498 1500 1502 1510 1511 1518 1518 1523 1520 1520 1521 1524 1525 1531 1532 1534 1534 1539 1537 1537 1540 1546 1546 1549 1550 1554 1556 1560 1563 1571 1575 1587 1587 1595 1598 1608 1611 1620 1625 1633 1632 1639 1642 1651 1651 1659 1664 1671 1669 1673 1674 1675 1678 1684 1684 1686 1689 1694 1698 1704 1707 1712 1717 1723 1718 1720 1722 1728 1730 1737 1741 1748 1747 1750 1751 1753 1753 1756 1759 1763 1766 1773 1775 1785 1787 1796 1799 1804 1801 1802 1804 1811 1814 1826 1832 1840 1841 1845 1849 1863 1866 1883 1891 1903 1903 1914 1918 1933 1939 1958 1966 1977 1975 1979 1981 1984 1984 1986 1989 1995 1999 2007 2010 2025 2031 2046 2053 2066 2065 2079 2086 2109 2115 2141 2150 2166 2163 2173 2175 2184 2190 2207 2212 2221 2223 2227 2228 2229 2230 2234 2234 2238 2241 2248 2252 2261 2264 2276 2283 2297 2296 2312 2318 2341 2350 2377 2386 2402 2403 2420 2425 2444 2454 2481 2487 2500 2503 2514 2518 2528 2532 2543 2547 2554 2556 2563 2567 2580 2582 2595 2602 2613 2611 2617 2619 2622 2625 2636 2638 2642 2642 2647 2647 2649 2651 2659 2659 2659 2660 2659 2658 2657 2656 2653 2651 2649 2653 2653 2654 2656 2654 2651 2653 2661 2662 2669 2670 2677 2678 2685 2689 2693 2692 2694 2693 2694 2697 2707 2708 2712 2712 2715 2713 2716 2717 2720 2721 2721 2722 2725 2727 2732 2736 2744 2748 2755 2757 2765 2768 2775 2779 2791 2795 2800 2801 2806 2808 2814 2815 2821 2823 2827 2827 2834 2834 2840 2844 2855 2859 2862 2861 2866 2868 2876 2879 2889 2895 2904 2902 2908 2912 2919 2926 2940 2946 2957 2957 2964 2967 2973 2976 2987 2988 2997 3001 3010 3011 3017 3020 3027 3029 3033 3036 3042 3046 3058 3062 3075 3079 3088 3087 3094 3096 3103 3109 3125 3127 3138 3139 3148 3149 3154 3161 3175 3179 3185 3187 3191 3190 3191 3191 3194 3195 3192 3191 3189 3189
950 950 952 953 959 959 961 957 954 959 963 966 969 972 975 973 970 980 990 998 1010 1010 1012 1011 1014 1014 1018 1017 1020 1020 1022 1025 1032 1032 1035 1037 1039 1042 1045 1046 1046 1055 1061 1064 1068 1071 1073 1071 1070 1068 1066 1065 1065 1071 1076 1080 1087 1092 1100 1106 1113 1112 1115 1116 1118 1129 1142 1150 1160 1170 1180 1186 1193 1208 1222 1231 1241 1247 1257 1260 1260 1277 1291 1306 1324 1321 1326 1327 1331 1332 1335 1335 1335 1336 1340 1341 1344 1345 1348 1349 1354 1353 1356 1355 1355 1359 1363 1366 1372 1374 1378 1379 1381 1383 1387 1388 1390 1392 1396 1395 1396 1396 1399 1401 1406 1406 1409 1412 1417 1424 1433 1440 1454 1452 1457 1458 1459 1469 1479 1484 1493 1489 1488 1488 1491 1496 1503 1508 1518 1513 1513 1511 1511 1511 1511 1511 1513 1513 1516 1517 1522 1514 1510 1510 1512 1509 1508 1505 1503 1511 1515 1517 1521 1522 1523 1520 1518 1522 1525 1528 1534 1532 1533 1534 1536 1535 1538 1542 1549 1547 1550 1550 1552 1557 1564 1569 1577 1584 1591 1593 1594 1606 1616 1619 1625 1628 1633 1635 1636 1645 1653 1657 1664 1666 1669 1671 1669 1675 1679 1683 1686 1688 1692 1697 1704 1708 1716 1718 1727 1723 1722 1720 1716 1726 1735 1739 1749 1748 1749 1749 1753 1752 1756 1759 1765 1768 1775 1776 1778 1786 1794 1798 1807 1803 1804 1801 1798 1807 1814 1823 1838 1837 1842 1842 1845 1857 1870 1882 1900 1899 1905 1908 1910 1927 1943 1954 1971 1972 1977 1976 1977 1981 1985 1985 1986 1994 2002 2008 2018 2029 2043 2050 2062 2066 2073 2075 2072 2099 2121 2134 2151 2153 2159 2158 2154 2168 2181 2193 2207 2209 2214 2218 2225 2222 2224 2225 2226 2232 2239 2244 2251 2256 2266 2274 2291 2293 2299 2302 2300 2328 2351 2365 2382 2388 2398 2400 2397 2426 2450 2465 2483 2487 2496 2502 2507 2520 2530 2537 2546 2549 2555 2560 2565 2575 2585 2593 2607 2608 2612 2612 2613 2618 2625 2629 2637 2635 2636 2638 2639 2641 2645 2651 2658 2655 2656 2655 2654 2652 2651 2649 2645 2648 2653 2653 2655 2656 2657 2654 2651 2659 2664 2666 2668 2674 2681 2687 2698 2694 2694 2692 2688 2693 2698 2704 2712 2710 2712 2711 2709 2711 2714 2716 2720 2718 2719 2721 2722 2727 2733 2739 2747 2750 2758 2760 2762 2770 2780 2789 2803 2799 2802 2804 2809 2811 2818 2820 2825 2826 2828 2830 2831 2837 2845 2851 2862 2858 2859 2860 2859 2868 2878 2884 2897 2897 2901 2901 2904 2915 2928 2936 2950 2948 2953 2954 2954 2963 2971 2978 2985 2991 2999 3003 3007 3013 3022 3023 3024 3029 3036 3040 3045 3055 3066 3072 3082 3084 3088 3087 3085 3096 3108 3115 3124 3126 3131 3133 3135 3144 3158 3166 3182 3179 3183 3184 3185 3185 3186 3187 3189 3184 3181 3179 3179
956 956 957 961 960 964 964 963 965 964 965 969 969 973 971 973 976 982 983 994 995 1007 1009 1011 1014 1016 1018 1020 1020 1024 1024 1028 1030 1036 1038 1042 1043 1047 1048 1052 1056 1064 1065 1072 1071 1078 1077 1076 1076 1074 1073 1070 1073 1077 1077 1083 1086 1095 1100 1109 1110 1115 1118 1121 1125 1133 1138 1153 1158 1176 1182 1193 1199 1216 1221 1236 1237 1250 1256 1266 1269 1283 1288 1306 1306 1321 1329 1334 1335 1339 1340 1343 1344 1345 1347 1349 1352 1358 1358 1360 1359 1360 1362 1364 1365 1370 1370 1373 1376 1382 1383 1386 1386 1389 1392 1396 1396 1399 1399 1401 1399 1398 1399 1403 1404 1407 1409 1412 1416 1428 1430 1440 1443 1456 1460 1464 1467 1472 1475 1483 1483 1488 1491 1491 1493 1498 1500 1508 1508 1515 1517 1516 1516 1515 1514 1514 1516 1519 1520 1522 1521 1522 1522 1519 1518 1517 1515 1511 1514 1516 1515 1517 1518 1523 1521 1520 1520 1522 1520 1522 1524 1529 1528 1528 1530 1530 1532 1535 1537 1541 1544 1544 1547 1553 1556 1567 1570 1583 1586 1595 1598 1608 1608 1617 1617 1623 1627 1634 1634 1640 1642 1654 1655 1663 1668 1674 1674 1677 1678 1685 1684 1690 1693 1699 1701 1710 1713 1720 1718 1720 1723 1724 1725 1727 1729 1738 1738 1746 1745 1745 1746 1749 1753 1760 1762 1771 1774 1779 1782 1788 1788 1796 1795 1800 1801 1800 1803 1807 1806 1816 1818 1829 1834 1839 1843 1853 1857 1875 1875 1891 1897 1905 1909 1925 1929 1945 1948 1966 1969 1972 1975 1978 1982 1986 1988 1993 1998 2008 2013 2030 2036 2052 2052 2065 2068 2077 2083 2097 2100 2123 2121 2138 2141 2146 2148 2156 2162 2180 2181 2197 2203 2209 2209 2213 2217 2218 2221 2225 2228 2238 2239 2249 2254 2266 2271 2286 2293 2300 2306 2322 2326 2352 2353 2372 2378 2386 2396 2414 2421 2448 2451 2471 2481 2493 2499 2516 2520 2532 2533 2544 2549 2557 2559 2572 2575 2588 2589 2601 2604 2606 2609 2612 2614 2620 2621 2627 2628 2630 2630 2634 2637 2643 2643 2648 2651 2651 2650 2648 2650 2650 2649 2648 2649 2654 2655 2656 2657 2657 2658 2660 2660 2665 2666 2672 2675 2684 2685 2694 2695 2694 2693 2692 2692 2699 2699 2705 2708 2708 2707 2706 2708 2713 2711 2713 2714 2718 2719 2724 2726 2734 2735 2743 2747 2756 2758 2764 2769 2782 2782 2793 2797 2800 2801 2806 2810 2816 2818 2825 2825 2827 2828 2833 2835 2845 2843 2850 2855 2857 2858 2862 2864 2874 2877 2888 2891 2894 2899 2910 2913 2926 2925 2935 2940 2946 2948 2954 2957 2969 2973 2984 2990 2999 3001 3009 3013 3019 3021 3026 3030 3037 3040 3052 3055 3066 3067 3078 3081 3083 3087 3091 3093 3105 3105 3114 3115 3119 3123 3132 3138 3152 3155 3168 3173 3178 3178 3179 3179 3179 3177 3175 3173 3170 3169
962 961 963 963 964 967 972 971 973 973 976 974 971 973 972 974 976 981 987 991 991 1002 1009 1013 1018 1020 1024 1021 1021 1025 1026 1031 1035 1040 1045 1048 1051 1054 1055 1061 1065 1072 1079 1078 1075 1083 1088 1085 1084 1081 1078 1079 1082 1083 1085 1089 1092 1101 1110 1114 1116 1121 1126 1128 1134 1140 1148 1158 1164 1183 1201 1205 1209 1225 1240 1243 1243 1257 1267 1269 1272 1288 1303 1308 1308 1325 1337 1341 1344 1347 1348 1352 1356 1356 1360 1360 1363 1368 1372 1370 1369 1370 1372 1372 1373 1378 1382 1383 1386 1390 1392 1392 1393 1397 1405 1403 1402 1405 1409 1406 1403 1403 1402 1405 1408 1410 1413 1415 1417 1428 1438 1443 1446 1458 1467 1471 1475 1480 1486 1485 1482 1489 1492 1492 1495 1498 1504 1507 1508 1515 1521 1521 1521 1520 1519 1520 1523 1524 1527 1526 1524 1526 1527 1527 1529 1525 1522 1521 1522 1522 1525 1521 1518 1521 1522 1518 1518 1518 1519 1520 1520 1523 1524 1526 1529 1528 1528 1531 1534 1538 1542 1542 1543 1549 1553 1562 1568 1579 1589 1595 1600 1608 1615 1615 1614 1622 1629 1630 1631 1637 1641 1648 1650 1662 1672 1675 1678 1680 1683 1685 1685 1691 1697 1701 1704 1711 1719 1719 1719 1721 1721 1725 1729 1731 1736 1736 1735 1740 1743 1742 1744 1746 1751 1757 1762 1772 1784 1784 1788 1791 1793 1793 1791 1796 1798 1799 1802 1803 1806 1811 1814 1824 1831 1836 1840 1849 1857 1864 1867 1883 1894 1898 1903 1919 1936 1939 1940 1956 1968 1971 1974 1980 1987 1987 1989 1997 2006 2011 2014 2030 2046 2050 2049 2062 2071 2080 2087 2098 2110 2110 2104 2122 2132 2132 2134 2145 2158 2165 2168 2184 2199 2200 2201 2206 2213 2214 2218 2221 2226 2228 2230 2241 2251 2259 2266 2280 2296 2298 2305 2318 2332 2338 2337 2359 2372 2378 2386 2404 2425 2434 2435 2459 2478 2487 2494 2511 2525 2528 2528 2539 2549 2551 2554 2566 2578 2581 2582 2594 2604 2604 2606 2609 2614 2613 2612 2616 2618 2619 2621 2626 2633 2634 2637 2643 2649 2648 2648 2647 2648 2648 2650 2650 2652 2654 2657 2659 2663 2659 2659 2662 2666 2665 2664 2671 2677 2681 2682 2690 2695 2692 2693 2692 2692 2696 2697 2702 2707 2705 2705 2704 2706 2707 2707 2708 2707 2711 2716 2721 2726 2729 2732 2738 2744 2751 2755 2763 2770 2774 2775 2785 2793 2795 2798 2803 2810 2811 2814 2820 2826 2825 2826 2829 2831 2835 2835 2844 2853 2854 2857 2859 2863 2868 2869 2879 2885 2888 2894 2903 2914 2916 2914 2924 2931 2936 2939 2947 2954 2962 2969 2981 2993 2996 2998 3008 3018 3019 3020 3026 3035 3033 3035 3046 3057 3059 3061 3072 3082 3083 3087 3090 3093 3096 3096 3103 3105 3109 3113 3123 3133 3139 3143 3155 3165 3169 3172 3172 3173 3170 3169 3165 3161 3160 3159
965 965 965 967 968 970 973 979 978 979 979 980 978 976 975 975 974 981 983 992 995 1003 1004 1016 1017 1023 1021 1022 1025 1029 1030 1036 1039 1046 1047 1056 1057 1063 1065 1072 1074 1081 1081 1088 1089 1091 1089 1093 1091 1088 1089 1088 1088 1090 1093 1099 1100 1108 1111 1122 1123 1127 1129 1133 1136 1147 1154 1169 1174 1192 1197 1219 1225 1237 1238 1254 1259 1268 1266 1274 1280 1294 1299 1315 1323 1335 1337 1352 1355 1359 1359 1363 1363 1366 1368 1370 1373 1379 1377 1379 1379 1380 1380 1380 1383 1387 1388 1393 1395 1400 1397 1398 1401 1403 1404 1409 1410 1410 1411 1411 1412 1410 1409 1409 1409 1413 1414 1418 1420 1431 1435 1450 1453 1463 1466 1479 1481 1487 1487 1491 1492 1495 1492 1493 1494 1498 1502 1510 1511 1517 1519 1527 1527 1526 1525 1525 1525 1527 1528 1532 1533 1534 1532 1533 1532 1533 1532 1530 1529 1526 1526 1526 1524 1522 1517 1515 1513 1514 1517 1519 1520 1522 1522 1523 1523 1525 1526 1529 1530 1535 1536 1541 1542 1547 1551 1561 1565 1577 1583 1598 1602 1609 1610 1616 1620 1622 1622 1627 1628 1636 1639 1648 1653 1663 1666 1679 1680 1684 1685 1688 1689 1692 1695 1704 1705 1714 1714 1720 1724 1725 1725 1726 1729 1734 1734 1735 1736 1738 1736 1737 1738 1742 1748 1756 1762 1772 1776 1787 1792 1796 1792 1793 1794 1796 1794 1796 1796 1799 1804 1811 1815 1824 1825 1836 1837 1847 1850 1860 1868 1882 1881 1892 1898 1915 1918 1935 1942 1953 1956 1972 1975 1982 1983 1988 1993 2001 2005 2017 2020 2031 2036 2053 2058 2065 2070 2086 2090 2099 2099 2106 2111 2115 2112 2118 2119 2133 2140 2156 2163 2175 2178 2191 2196 2199 2201 2207 2211 2216 2216 2220 2224 2234 2239 2255 2262 2275 2279 2294 2301 2315 2318 2332 2341 2355 2354 2370 2375 2393 2403 2428 2437 2455 2460 2484 2492 2510 2511 2527 2531 2538 2538 2545 2549 2560 2563 2578 2581 2589 2590 2600 2602 2605 2604 2606 2606 2609 2607 2608 2610 2617 2619 2626 2631 2638 2639 2645 2644 2647 2646 2646 2649 2653 2653 2656 2657 2661 2659 2659 2661 2663 2664 2668 2669 2672 2673 2681 2682 2689 2687 2689 2691 2693 2693 2696 2698 2702 2701 2703 2702 2701 2703 2704 2705 2706 2706 2706 2709 2719 2720 2725 2729 2736 2739 2750 2752 2763 2763 2771 2774 2781 2781 2789 2792 2800 2800 2806 2808 2815 2817 2823 2824 2827 2828 2832 2834 2841 2842 2851 2852 2857 2860 2867 2868 2874 2874 2881 2885 2894 2898 2910 2912 2918 2920 2930 2933 2942 2947 2959 2967 2980 2982 2995 3000 3008 3009 3020 3021 3025 3024 3028 3032 3040 3042 3053 3059 3068 3070 3083 3087 3091 3088 3090 3093 3097 3096 3101 3103 3115 3118 3130 3134 3144 3148 3161 3163 3165 3163 3161 3162 3157 3157 3153 3152
969 968 968 970 974 975 979 981 985 983 984 984 983 981 978 976 969 981 986 992 999 1003 1008 1014 1021 1022 1024 1025 1028 1030 1034 1040 1051 1051 1054 1059 1066 1068 1074 1079 1088 1089 1093 1094 1098 1097 1098 1097 1095 1095 1097 1096 1098 1099 1104 1105 1109 1114 1122 1127 1134 1136 1141 1141 1141 1154 1167 1177 1189 1201 1215 1227 1246 1246 1254 1261 1274 1275 1282 1283 1286 1302 1318 1327 1342 1345 1353 1360 1375 1369 1371 1373 1377 1378 1381 1382 1386 1386 1387 1387 1388 1390 1392 1392 1394 1396 1400 1402 1407 1407 1407 1408 1411 1412 1414 1414 1416 1417 1421 1419 1420 1416 1416 1415 1413 1416 1418 1420 1419 1432 1444 1453 1464 1468 1476 1482 1493 1493 1497 1496 1499 1499 1501 1498 1494 1501 1507 1512 1516 1520 1524 1528 1534 1530 1531 1529 1529 1530 1532 1535 1539 1538 1539 1537 1537 1537 1538 1536 1538 1532 1530 1527 1524 1521 1516 1513 1504 1513 1517 1519 1522 1522 1524 1524 1523 1523 1523 1527 1531 1533 1536 1537 1538 1545 1554 1561 1572 1579 1590 1598 1613 1611 1618 1621 1628 1627 1627 1627 1622 1635 1643 1650 1660 1666 1673 1678 1687 1687 1691 1691 1693 1696 1702 1705 1707 1714 1720 1724 1733 1729 1730 1730 1735 1735 1739 1737 1738 1736 1737 1736 1733 1742 1751 1758 1770 1773 1783 1789 1802 1795 1794 1793 1795 1793 1793 1792 1792 1798 1805 1811 1822 1824 1829 1832 1837 1844 1854 1861 1873 1878 1886 1889 1893 1907 1920 1931 1946 1951 1961 1968 1980 1982 1988 1991 1997 2005 2014 2020 2026 2035 2048 2057 2070 2071 2081 2089 2105 2101 2105 2107 2113 2112 2111 2109 2095 2122 2137 2149 2163 2167 2178 2183 2195 2193 2197 2200 2208 2209 2213 2214 2219 2227 2238 2249 2267 2271 2281 2289 2302 2309 2321 2330 2346 2350 2357 2362 2366 2386 2406 2420 2440 2450 2467 2480 2499 2504 2514 2522 2534 2535 2542 2542 2545 2554 2563 2571 2582 2584 2590 2593 2600 2599 2600 2600 2598 2601 2602 2601 2599 2608 2615 2621 2630 2632 2637 2638 2638 2642 2646 2647 2649 2651 2655 2657 2662 2660 2662 2660 2660 2664 2667 2668 2670 2672 2677 2680 2683 2686 2690 2689 2689 2691 2693 2696 2703 2702 2703 2700 2697 2700 2704 2705 2707 2704 2705 2705 2706 2715 2720 2724 2730 2734 2740 2746 2754 2759 2765 2769 2777 2777 2780 2782 2786 2793 2799 2801 2804 2810 2818 2819 2823 2824 2828 2831 2834 2839 2844 2847 2850 2855 2861 2865 2870 2871 2875 2877 2880 2888 2897 2903 2909 2914 2921 2924 2929 2937 2949 2959 2975 2979 2986 2993 3005 3006 3012 3015 3022 3021 3023 3025 3027 3034 3042 3048 3060 3063 3070 3079 3094 3086 3085 3086 3095 3093 3093 3094 3093 3106 3115 3122 3131 3137 3146 3152 3163 3155 3154 3154 3158 3152 3149 3146 3145
971 971 972 973 973 977 977 982 983 985 988 990 988 988 986 983 986 989 987 993 994 1002 1004 1011 1012 1020 1023 1027 1028 1031 1035 1042 1043 1053 1057 1063 1064 1072 1075 1083 1086 1097 1098 1100 1101 1104 1104 1104 1104 1102 1103 1104 1105 1107 1108 1110 1113 1120 1122 1131 1133 1142 1145 1149 1153 1163 1167 1183 1188 1208 1213 1231 1231 1249 1254 1265 1268 1279 1284 1290 1297 1311 1316 1333 1335 1350 1355 1363 1363 1374 1377 1381 1383 1388 1390 1393 1393 1395 1395 1396 1398 1402 1402 1404 1404 1406 1407 1411 1412 1416 1417 1418 1417 1421 1419 1420 1420 1421 1423 1424 1424 1421 1423 1422 1421 1421 1422 1427 1429 1436 1439 1455 1456 1469 1472 1481 1483 1496 1498 1499 1501 1504 1504 1505 1506 1505 1507 1516 1516 1523 1524 1527 1527 1531 1533 1533 1534 1534 1534 1537 1538 1541 1542 1542 1543 1543 1542 1539 1538 1536 1534 1530 1529 1524 1522 1519 1520 1518 1516 1520 1519 1521 1524 1526 1523 1522 1522 1525 1525 1532 1532 1534 1537 1543 1548 1559 1562 1577 1582 1594 1594 1606 1614 1624 1625 1632 1633 1635 1636 1640 1641 1652 1654 1668 1669 1675 1677 1686 1690 1694 1696 1699 1703 1709 1711 1718 1720 1726 1725 1728 1730 1730 1732 1735 1737 1738 1736 1734 1736 1737 1740 1744 1745 1756 1758 1769 1775 1785 1782 1791 1793 1792 1791 1790 1791 1790 1793 1798 1800 1808 1810 1822 1824 1828 1832 1841 1847 1859 1861 1874 1877 1885 1888 1900 1906 1925 1927 1945 1951 1961 1965 1979 1986 1994 1998 2010 2014 2024 2026 2038 2043 2058 2058 2071 2076 2086 2086 2096 2100 2105 2105 2109 2111 2112 2117 2123 2123 2143 2141 2155 2161 2171 2171 2182 2184 2190 2193 2200 2202 2207 2210 2219 2225 2239 2244 2264 2270 2282 2285 2301 2307 2322 2326 2343 2347 2357 2364 2382 2388 2409 2415 2441 2451 2471 2472 2493 2502 2515 2517 2528 2533 2539 2542 2550 2553 2562 2565 2578 2580 2583 2585 2593 2595 2597 2597 2598 2596 2598 2600 2602 2605 2616 2617 2626 2628 2632 2634 2638 2641 2647 2647 2649 2653 2657 2656 2657 2659 2660 2662 2667 2667 2670 2670 2672 2675 2680 2681 2685 2686 2690 2690 2692 2693 2695 2696 2700 2700 2700 2701 2700 2702 2706 2703 2701 2703 2703 2708 2715 2717 2723 2725 2733 2734 2742 2743 2756 2758 2765 2765 2771 2772 2775 2779 2787 2791 2797 2800 2806 2809 2815 2816 2821 2825 2831 2831 2839 2840 2845 2846 2854 2855 2863 2863 2868 2869 2872 2876 2882 2886 2896 2899 2910 2913 2918 2921 2930 2937 2953 2957 2975 2979 2986 2988 3000 3002 3009 3010 3016 3019 3023 3023 3027 3029 3038 3041 3054 3059 3069 3066 3074 3078 3077 3080 3087 3088 3091 3093 3102 3102 3113 3117 3129 3132 3140 3137 3140 3144 3145 3145 3145 3144 3139 3138
973 973 976 976 977 978 978 983 987 990 994 993 992 993 991 991 994 995 1000 998 995 1001 1006 1009 1011 1019 1025 1028 1031 1036 1040 1043 1046 1054 1064 1067 1070 1075 1080 1085 1090 1100 1109 1107 1109 1110 1112 1111 1113 1111 1112 1112 1112 1115 1117 1119 1120 1126 1130 1135 1140 1148 1155 1157 1162 1172 1183 1191 1195 1212 1225 1229 1230 1247 1259 1269 1275 1286 1296 1300 1307 1320 1334 1339 1339 1354 1367 1366 1365 1374 1379 1386 1392 1397 1402 1404 1404 1404 1404 1406 1407 1411 1414 1415 1416 1416 1417 1420 1422 1425 1429 1427 1425 1426 1427 1426 1425 1427 1433 1430 1430 1428 1429 1425 1425 1425 1430 1431 1435 1441 1449 1455 1456 1469 1475 1479 1482 1493 1504 1504 1506 1509 1511 1512 1514 1515 1515 1519 1519 1526 1533 1530 1528 1532 1534 1537 1540 1537 1536 1539 1542 1544 1546 1547 1548 1547 1550 1544 1541 1538 1535 1534 1534 1528 1523 1524 1528 1525 1525 1522 1519 1523 1527 1525 1523 1521 1520 1521 1521 1527 1533 1533 1537 1543 1553 1556 1560 1572 1587 1588 1588 1602 1616 1622 1626 1633 1640 1640 1643 1647 1652 1655 1656 1666 1675 1675 1674 1684 1694 1697 1700 1704 1711 1713 1716 1722 1731 1730 1729 1731 1731 1731 1734 1736 1741 1737 1736 1734 1735 1740 1745 1747 1750 1754 1756 1767 1778 1776 1772 1781 1788 1789 1791 1789 1790 1790 1794 1797 1802 1804 1806 1817 1826 1827 1830 1840 1851 1856 1859 1870 1878 1881 1883 1895 1907 1917 1921 1938 1952 1956 1959 1975 1991 1997 2003 2015 2027 2028 2030 2041 2051 2057 2058 2069 2078 2080 2081 2089 2094 2099 2103 2108 2112 2116 2122 2127 2133 2135 2132 2146 2158 2157 2156 2166 2172 2179 2185 2189 2194 2197 2203 2212 2224 2232 2238 2255 2270 2272 2276 2290 2305 2312 2318 2333 2344 2352 2361 2378 2396 2402 2404 2430 2453 2457 2460 2481 2501 2508 2512 2523 2533 2536 2537 2546 2556 2557 2558 2570 2577 2576 2576 2584 2591 2591 2593 2593 2593 2595 2598 2601 2606 2611 2614 2621 2626 2629 2629 2635 2641 2645 2646 2651 2657 2656 2655 2656 2658 2659 2661 2666 2673 2673 2673 2675 2679 2682 2683 2686 2686 2689 2690 2693 2697 2697 2696 2698 2698 2700 2702 2703 2707 2704 2701 2702 2702 2705 2710 2716 2726 2725 2724 2730 2732 2736 2737 2749 2760 2760 2760 2764 2767 2771 2775 2785 2796 2797 2798 2805 2812 2811 2810 2817 2826 2827 2829 2835 2842 2842 2844 2849 2854 2859 2860 2865 2868 2871 2875 2880 2886 2891 2894 2905 2916 2914 2915 2926 2938 2947 2951 2968 2982 2980 2980 2989 2997 3003 3005 3011 3016 3018 3020 3022 3027 3030 3032 3043 3055 3054 3051 3059 3067 3068 3072 3077 3082 3085 3089 3096 3103 3107 3111 3120 3128 3127 3124 3127 3130 3135 3139 3136 3135 3132 3130
973 973 976 981 981 982 983 985 987 994 994 997 1000 1001 998 998 998 999 1001 1004 1003 1002 1004 1008 1012 1021 1023 1032 1036 1043 1041 1046 1048 1056 1061 1074 1075 1078 1081 1090 1093 1105 1105 1112 1116 1117 1116 1117 1117 1119 1121 1122 1123 1125 1127 1132 1132 1136 1137 1142 1146 1156 1157 1164 1170 1182 1189 1206 1211 1223 1222 1232 1237 1251 1259 1278 1283 1296 1297 1309 1315 1331 1334 1350 1356 1363 1362 1372 1373 1378 1383 1395 1398 1407 1410 1418 1417 1416 1417 1420 1420 1424 1423 1428 1427 1428 1428 1432 1434 1436 1434 1436 1433 1431 1432 1432 1431 1431 1432 1436 1434 1432 1431 1426 1426 1426 1430 1435 1438 1445 1449 1461 1467 1477 1475 1480 1483 1492 1496 1507 1510 1515 1517 1521 1523 1526 1525 1528 1527 1530 1529 1534 1536 1537 1538 1542 1541 1541 1543 1544 1545 1550 1550 1554 1552 1550 1549 1546 1545 1542 1541 1538 1535 1533 1532 1529 1528 1530 1528 1527 1526 1526 1525 1526 1525 1522 1521 1519 1519 1523 1524 1530 1532 1542 1545 1555 1557 1567 1572 1586 1590 1600 1606 1624 1628 1637 1638 1645 1647 1653 1655 1660 1663 1668 1669 1677 1678 1685 1688 1701 1703 1709 1710 1718 1718 1725 1728 1737 1738 1736 1734 1732 1732 1735 1735 1736 1736 1734 1738 1744 1744 1749 1750 1757 1759 1765 1764 1770 1770 1774 1777 1786 1787 1788 1788 1789 1791 1797 1797 1801 1806 1814 1815 1826 1828 1838 1842 1855 1860 1869 1870 1879 1881 1893 1898 1915 1920 1935 1939 1955 1959 1972 1980 2001 2008 2020 2020 2031 2035 2045 2048 2061 2065 2072 2070 2075 2078 2085 2088 2095 2100 2109 2111 2120 2121 2130 2130 2135 2138 2142 2139 2144 2147 2156 2159 2171 2173 2179 2180 2185 2190 2204 2211 2228 2236 2251 2250 2262 2266 2279 2287 2304 2312 2329 2332 2348 2355 2376 2382 2402 2408 2425 2426 2445 2451 2471 2480 2506 2513 2522 2524 2535 2536 2543 2547 2555 2560 2567 2564 2571 2572 2578 2578 2583 2586 2590 2590 2593 2595 2601 2603 2609 2613 2620 2621 2629 2629 2634 2636 2646 2648 2654 2652 2656 2657 2657 2656 2657 2659 2665 2667 2676 2677 2679 2681 2689 2689 2691 2690 2692 2692 2694 2697 2703 2702 2701 2700 2703 2701 2703 2703 2704 2705 2704 2704 2706 2709 2715 2718 2727 2729 2732 2730 2734 2736 2744 2747 2757 2757 2760 2763 2770 2772 2783 2787 2800 2801 2804 2804 2807 2809 2813 2816 2825 2828 2833 2834 2840 2842 2845 2850 2859 2862 2865 2867 2871 2871 2878 2881 2891 2894 2903 2901 2907 2913 2922 2928 2946 2952 2966 2964 2975 2976 2982 2987 3001 3004 3009 3008 3013 3013 3017 3019 3026 3026 3032 3033 3041 3043 3047 3050 3058 3062 3068 3070 3078 3082 3090 3093 3102 3107 3113 3112 3117 3115 3117 3120 3126 3126 3127 3127 3125 3123
975 976 979 982 986 987 989 991 994 996 1001 1002 1009 1004 1004 1003 1005 1005 1007 1006 1006 1008 1011 1012 1014 1022 1029 1036 1046 1046 1047 1050 1053 1061 1071 1077 1086 1084 1086 1091 1099 1106 1114 1118 1127 1123 1123 1123 1122 1126 1130 1131 1134 1136 1140 1141 1145 1146 1150 1153 1159 1164 1170 1174 1179 1192 1206 1216 1233 1234 1241 1242 1241 1261 1277 1288 1302 1305 1311 1317 1324 1337 1351 1362 1378 1374 1376 1377 1375 1385 1396 1403 1413 1417 1424 1429 1434 1431 1430 1432 1434 1434 1434 1436 1440 1438 1439 1442 1451 1445 1444 1442 1439 1440 1441 1438 1437 1438 1439 1439 1436 1436 1436 1430 1423 1429 1434 1437 1442 1448 1457 1466 1482 1482 1487 1487 1486 1496 1504 1511 1517 1522 1527 1529 1534 1534 1535 1534 1535 1535 1536 1538 1540 1544 1548 1548 1549 1547 1548 1549 1551 1553 1556 1556 1559 1555 1553 1548 1543 1543 1543 1540 1535 1534 1533 1532 1532 1530 1528 1529 1529 1528 1529 1528 1526 1523 1521 1520 1516 1521 1524 1525 1526 1537 1546 1550 1555 1566 1576 1583 1587 1601 1612 1623 1636 1639 1647 1649 1653 1658 1665 1667 1675 1672 1676 1677 1678 1685 1694 1701 1710 1712 1716 1719 1721 1728 1735 1739 1748 1741 1739 1736 1732 1735 1735 1735 1735 1737 1739 1744 1750 1750 1752 1756 1764 1763 1765 1763 1760 1770 1778 1781 1787 1785 1786 1787 1789 1793 1797 1801 1807 1811 1817 1821 1824 1836 1847 1855 1865 1869 1874 1876 1875 1889 1901 1911 1924 1934 1945 1953 1958 1973 1990 2003 2022 2023 2029 2034 2040 2048 2059 2066 2079 2076 2076 2075 2074 2084 2091 2095 2102 2107 2114 2118 2124 2129 2134 2136 2142 2139 2138 2137 2132 2147 2156 2163 2171 2171 2174 2176 2178 2195 2211 2223 2241 2244 2250 2253 2254 2273 2290 2301 2313 2325 2335 2345 2352 2372 2389 2399 2412 2421 2431 2437 2438 2464 2486 2502 2525 2522 2528 2533 2536 2543 2553 2555 2563 2562 2562 2563 2564 2571 2575 2578 2581 2584 2587 2591 2596 2601 2607 2611 2617 2620 2624 2627 2629 2634 2638 2645 2651 2652 2655 2656 2659 2658 2658 2657 2659 2664 2669 2673 2681 2682 2686 2691 2700 2696 2696 2696 2697 2699 2703 2705 2709 2703 2702 2702 2702 2703 2704 2703 2706 2704 2707 2707 2714 2716 2721 2726 2732 2731 2733 2734 2737 2742 2750 2752 2751 2757 2762 2767 2771 2781 2791 2798 2807 2805 2808 2807 2806 2812 2818 2822 2828 2830 2835 2837 2841 2844 2852 2859 2871 2868 2872 2871 2870 2877 2882 2889 2896 2898 2900 2903 2907 2919 2931 2943 2958 2961 2965 2967 2967 2977 2987 2997 3010 3006 3008 3007 3008 3011 3015 3019 3022 3025 3029 3032 3031 3040 3047 3051 3056 3060 3064 3070 3078 3083 3092 3099 3112 3108 3110 3108 3101 3109 3114 3117 3122 3120 3120 3117 3116
976 978 979 982 986 993 994 996 995 998 1000 1003 1002 1003 1006 1008 1008 1010 1010 1009 1012 1015 1014 1018 1020 1026 1030 1040 1040 1048 1051 1055 1058 1066 1070 1079 1078 1086 1088 1092 1097 1109 1112 1121 1121 1128 1132 1133 1133 1135 1135 1139 1140 1146 1146 1149 1150 1155 1158 1163 1165 1173 1176 1184 1187 1202 1205 1220 1224 1242 1247 1254 1261 1275 1278 1296 1296 1311 1316 1327 1331 1345 1352 1370 1368 1380 1384 1385 1389 1394 1397 1410 1413 1425 1432 1440 1440 1444 1445 1445 1442 1444 1442 1443 1443 1445 1446 1449 1449 1452 1452 1451 1452 1449 1446 1444 1446 1445 1445 1447 1445 1443 1441 1438 1439 1436 1435 1440 1441 1450 1456 1467 1470 1483 1490 1496 1497 1503 1505 1516 1519 1531 1533 1537 1539 1543 1543 1541 1541 1541 1541 1543 1545 1552 1552 1554 1553 1553 1553 1553 1554 1558 1557 1557 1558 1560 1558 1553 1552 1546 1546 1545 1542 1537 1536 1536 1534 1533 1533 1534 1532 1530 1531 1531 1529 1526 1525 1524 1523 1524 1521 1523 1525 1535 1537 1546 1552 1566 1572 1586 1590 1605 1608 1620 1623 1637 1643 1651 1653 1661 1664 1670 1669 1672 1676 1679 1681 1685 1689 1700 1702 1713 1717 1721 1725 1732 1733 1738 1738 1743 1745 1743 1741 1738 1737 1737 1738 1742 1741 1743 1744 1750 1751 1753 1754 1760 1761 1760 1764 1768 1768 1774 1775 1780 1783 1786 1786 1791 1792 1799 1800 1808 1811 1817 1823 1835 1840 1853 1855 1868 1872 1876 1881 1890 1893 1907 1913 1932 1939 1954 1957 1975 1980 2001 2002 2021 2028 2036 2039 2050 2053 2065 2065 2077 2079 2077 2081 2088 2087 2095 2096 2106 2109 2116 2120 2129 2130 2133 2132 2134 2134 2134 2139 2146 2146 2155 2154 2162 2163 2167 2172 2188 2194 2215 2217 2237 2243 2249 2256 2272 2278 2298 2303 2325 2332 2348 2353 2373 2377 2394 2399 2419 2423 2435 2442 2462 2468 2492 2494 2516 2525 2533 2535 2542 2545 2552 2551 2557 2557 2557 2561 2568 2567 2573 2574 2579 2582 2589 2592 2601 2605 2613 2612 2619 2622 2628 2630 2637 2638 2645 2644 2650 2652 2655 2655 2659 2658 2657 2660 2665 2664 2669 2673 2683 2685 2690 2690 2698 2699 2699 2700 2703 2703 2705 2704 2702 2703 2701 2701 2703 2701 2701 2702 2701 2702 2704 2707 2715 2718 2724 2724 2730 2732 2734 2735 2739 2742 2750 2751 2756 2759 2767 2769 2780 2784 2796 2794 2803 2804 2807 2807 2811 2812 2819 2820 2827 2829 2832 2835 2841 2845 2855 2856 2865 2869 2871 2875 2879 2880 2887 2886 2894 2895 2900 2905 2919 2923 2938 2939 2955 2957 2962 2966 2975 2977 2990 2988 2997 3000 3000 3004 3007 3008 3013 3014 3020 3022 3028 3030 3035 3036 3044 3046 3054 3055 3063 3064 3075 3082 3093 3093 3100 3104 3105 3106 3105 3104 3107 3108 3113 3111 3108 3109
977 979 982 984 990 995 1001 999 1000 1002 1008 1004 1002 1004 1005 1010 1013 1014 1017 1017 1017 1018 1019 1023 1028 1033 1042 1044 1043 1050 1057 1060 1065 1073 1084 1081 1077 1085 1090 1095 1101 1112 1122 1123 1123 1131 1140 1140 1142 1143 1147 1145 1146 1151 1156 1156 1157 1162 1169 1172 1176 1182 1188 1191 1194 1207 1221 1226 1229 1246 1260 1266 1276 1287 1300 1301 1300 1315 1325 1335 1342 1355 1371 1373 1373 1384 1395 1397 1402 1406 1411 1418 1423 1435 1450 1452 1455 1456 1458 1454 1451 1451 1449 1450 1451 1451 1450 1454 1456 1457 1457 1460 1464 1460 1455 1454 1454 1452 1452 1452 1453 1451 1448 1446 1446 1443 1441 1442 1443 1454 1466 1471 1474 1487 1500 1502 1505 1511 1518 1521 1525 1536 1547 1546 1549 1551 1556 1550 1549 1547 1545 1549 1552 1557 1562 1559 1557 1557 1558 1557 1558 1560 1562 1561 1560 1560 1561 1558 1558 1553 1551 1548 1544 1541 1537 1537 1536 1535 1536 1535 1536 1534 1537 1533 1532 1528 1525 1524 1526 1524 1523 1521 1521 1531 1542 1546 1551 1567 1583 1589 1593 1607 1620 1622 1623 1638 1651 1653 1655 1663 1672 1670 1669 1673 1679 1681 1684 1688 1694 1700 1703 1714 1724 1727 1731 1736 1741 1739 1739 1742 1747 1745 1746 1742 1741 1741 1740 1744 1746 1746 1746 1750 1754 1752 1752 1757 1760 1760 1764 1766 1770 1771 1770 1776 1780 1781 1781 1786 1791 1794 1796 1806 1812 1818 1823 1836 1848 1851 1854 1868 1880 1882 1886 1893 1901 1908 1913 1930 1949 1953 1956 1973 1989 1994 1997 2017 2036 2038 2041 2050 2060 2061 2062 2072 2083 2082 2086 2089 2094 2094 2095 2105 2113 2118 2123 2130 2137 2133 2130 2130 2129 2133 2139 2143 2151 2148 2143 2151 2155 2157 2162 2178 2195 2203 2205 2227 2245 2249 2256 2272 2289 2296 2302 2323 2342 2350 2356 2374 2390 2393 2396 2414 2429 2437 2443 2462 2482 2486 2485 2509 2529 2534 2540 2544 2550 2547 2545 2550 2553 2555 2560 2562 2566 2568 2570 2576 2581 2586 2592 2599 2610 2610 2611 2619 2627 2630 2634 2637 2641 2642 2643 2648 2653 2654 2654 2658 2659 2660 2661 2664 2666 2669 2671 2680 2687 2689 2689 2696 2701 2703 2705 2706 2710 2707 2706 2702 2700 2699 2700 2700 2701 2701 2702 2699 2700 2702 2704 2711 2721 2721 2723 2728 2733 2734 2734 2739 2744 2748 2749 2756 2762 2765 2767 2779 2791 2790 2788 2796 2801 2803 2805 2810 2815 2816 2818 2824 2829 2832 2834 2840 2845 2850 2854 2863 2871 2873 2879 2882 2887 2885 2883 2888 2892 2896 2901 2915 2930 2933 2934 2947 2956 2959 2963 2970 2977 2980 2980 2988 2993 2997 3001 3003 3006 3009 3011 3016 3018 3024 3028 3032 3035 3038 3040 3046 3048 3053 3055 3069 3084 3085 3087 3093 3099 3101 3104 3103 3103 3102 3100 3103 3102 3102 3104
977 979 981 985 989 998 997 1001 1003 1005 1004 1005 1007 1007 1009 1014 1015 1018 1021 1026 1025 1024 1026 1030 1033 1039 1042 1051 1052 1055 1058 1066 1071 1079 1079 1086 1087 1089 1091 1100 1103 1116 1118 1129 1131 1135 1138 1146 1149 1150 1150 1151 1154 1159 1158 1162 1164 1169 1172 1181 1184 1191 1192 1198 1204 1213 1218 1236 1242 1254 1258 1276 1284 1298 1298 1308 1315 1324 1328 1347 1351 1363 1365 1379 1384 1390 1394 1408 1411 1417 1421 1431 1433 1445 1448 1464 1469 1470 1465 1462 1464 1462 1459 1458 1457 1458 1459 1462 1461 1464 1466 1470 1473 1474 1469 1464 1462 1460 1460 1459 1459 1460 1457 1454 1453 1452 1450 1447 1447 1458 1462 1477 1481 1493 1495 1508 1514 1520 1520 1526 1532 1541 1544 1553 1556 1557 1556 1556 1557 1555 1556 1557 1558 1564 1561 1563 1564 1563 1560 1560 1561 1564 1563 1565 1563 1562 1561 1561 1561 1559 1557 1554 1551 1547 1544 1541 1540 1537 1537 1537 1536 1535 1534 1532 1532 1530 1527 1524 1523 1523 1521 1517 1519 1526 1533 1548 1555 1570 1575 1594 1600 1612 1613 1625 1630 1641 1642 1657 1661 1667 1665 1669 1672 1675 1676 1682 1685 1692 1696 1706 1708 1716 1720 1733 1736 1740 1738 1740 1740 1742 1743 1746 1746 1745 1746 1746 1746 1748 1746 1749 1749 1752 1750 1752 1754 1757 1756 1759 1760 1764 1767 1773 1774 1776 1775 1778 1779 1783 1785 1792 1798 1809 1811 1823 1826 1838 1840 1851 1858 1870 1873 1887 1891 1897 1899 1911 1915 1929 1935 1956 1962 1974 1976 1991 2000 2017 2020 2041 2046 2052 2051 2060 2063 2069 2072 2083 2086 2090 2090 2095 2099 2106 2109 2121 2127 2134 2131 2133 2133 2130 2130 2131 2133 2139 2140 2144 2145 2146 2145 2147 2149 2168 2176 2199 2206 2222 2228 2249 2256 2272 2277 2295 2306 2326 2330 2355 2364 2378 2378 2394 2403 2415 2420 2442 2448 2463 2466 2485 2493 2506 2511 2534 2541 2544 2541 2542 2545 2545 2547 2553 2553 2557 2560 2566 2568 2574 2576 2584 2587 2596 2599 2607 2612 2619 2622 2634 2635 2636 2636 2640 2642 2647 2649 2655 2658 2660 2660 2663 2664 2664 2666 2673 2674 2679 2681 2691 2693 2699 2699 2707 2709 2709 2708 2708 2707 2703 2700 2695 2695 2697 2698 2701 2699 2696 2698 2701 2701 2707 2710 2718 2723 2728 2730 2736 2736 2740 2742 2749 2750 2757 2758 2765 2770 2781 2779 2787 2792 2794 2795 2802 2804 2811 2810 2814 2818 2822 2825 2833 2834 2841 2842 2849 2854 2864 2865 2873 2877 2883 2880 2883 2885 2886 2887 2893 2897 2910 2914 2931 2935 2943 2944 2957 2958 2965 2966 2974 2977 2985 2986 2994 2996 3000 3001 3007 3010 3015 3016 3023 3025 3030 3030 3036 3039 3044 3043 3047 3050 3063 3064 3076 3082 3089 3090 3096 3099 3101 3099 3098 3098 3097 3096 3096 3098
976 979 984 987 994 997 1000 1002 1006 1007 1009 1008 1009 1011 1015 1018 1023 1024 1029 1030 1036 1032 1035 1038 1046 1046 1050 1055 1062 1062 1069 1073 1083 1083 1087 1089 1091 1094 1100 1103 1109 1116 1126 1131 1140 1140 1148 1152 1163 1157 1158 1158 1162 1163 1166 1168 1170 1175 1182 1188 1197 1199 1203 1207 1217 1221 1231 1242 1257 1261 1273 1284 1304 1305 1312 1317 1329 1332 1342 1353 1372 1369 1376 1383 1396 1396 1406 1413 1424 1425 1434 1439 1448 1451 1460 1471 1492 1479 1475 1472 1474 1470 1468 1466 1466 1466 1465 1467 1469 1471 1476 1480 1493 1482 1477 1472 1470 1467 1467 1465 1467 1466 1464 1460 1459 1457 1456 1452 1443 1462 1473 1482 1490 1498 1508 1515 1528 1526 1529 1533 1543 1548 1557 1559 1570 1564 1564 1562 1564 1562 1563 1564 1568 1566 1566 1565 1568 1565 1563 1563 1564 1565 1565 1566 1566 1565 1564 1564 1563 1561 1559 1557 1555 1550 1546 1545 1545 1541 1540 1539 1539 1536 1536 1533 1531 1529 1525 1524 1522 1522 1521 1518 1512 1528 1540 1550 1562 1574 1587 1597 1614 1614 1622 1627 1635 1641 1650 1657 1672 1667 1669 1670 1675 1675 1678 1682 1689 1694 1703 1709 1718 1720 1728 1734 1749 1741 1741 1738 1739 1741 1745 1746 1748 1747 1748 1748 1749 1749 1749 1750 1750 1751 1752 1752 1753 1755 1757 1758 1757 1762 1768 1772 1778 1776 1777 1776 1776 1782 1787 1793 1803 1808 1817 1824 1833 1839 1848 1853 1864 1871 1882 1888 1900 1899 1903 1911 1921 1930 1942 1954 1971 1973 1983 1991 2005 2012 2025 2036 2056 2050 2054 2057 2066 2067 2074 2079 2091 2087 2090 2092 2101 2105 2115 2122 2142 2133 2134 2130 2132 2129 2131 2131 2136 2137 2141 2142 2142 2143 2144 2140 2129 2158 2178 2194 2211 2222 2237 2246 2259 2270 2285 2296 2315 2325 2340 2354 2382 2377 2387 2395 2414 2417 2429 2440 2460 2462 2475 2482 2499 2504 2520 2531 2557 2541 2540 2539 2544 2543 2547 2548 2552 2554 2559 2563 2569 2571 2577 2582 2589 2594 2603 2606 2614 2617 2624 2632 2643 2636 2636 2638 2641 2646 2652 2655 2664 2661 2664 2664 2670 2667 2668 2673 2681 2680 2686 2689 2697 2698 2702 2707 2720 2710 2710 2707 2709 2702 2697 2695 2691 2694 2697 2698 2698 2696 2695 2697 2698 2705 2713 2717 2725 2728 2733 2735 2738 2741 2745 2749 2753 2757 2764 2767 2775 2779 2783 2788 2797 2795 2799 2801 2805 2808 2811 2814 2823 2822 2827 2829 2834 2838 2844 2850 2861 2863 2870 2872 2882 2878 2878 2880 2885 2884 2886 2890 2896 2906 2916 2925 2937 2939 2945 2950 2956 2959 2964 2968 2975 2979 2986 2989 2997 2995 2999 3004 3014 3013 3018 3021 3029 3027 3029 3033 3041 3040 3042 3042 3043 3054 3062 3070 3081 3084 3089 3092 3103 3096 3094 3093 3095 3093 3094 3093 3094
980 980 981 986 990 998 1000 1004 1004 1008 1009 1012 1013 1016 1018 1023 1021 1026 1028 1032 1032 1036 1038 1041 1042 1050 1053 1058 1058 1064 1069 1075 1075 1084 1087 1093 1093 1099 1099 1103 1105 1114 1119 1130 1131 1140 1144 1152 1151 1159 1161 1162 1163 1168 1170 1176 1176 1181 1186 1193 1195 1205 1208 1213 1215 1225 1231 1245 1246 1262 1270 1285 1287 1306 1312 1322 1323 1333 1339 1351 1352 1367 1373 1382 1384 1395 1402 1414 1416 1428 1435 1443 1444 1452 1457 1470 1467 1479 1482 1480 1479 1478 1475 1474 1474 1475 1474 1472 1473 1477 1479 1483 1481 1484 1485 1480 1478 1473 1473 1470 1471 1473 1470 1466 1467 1464 1465 1465 1470 1474 1475 1490 1490 1502 1505 1516 1517 1529 1533 1537 1542 1554 1553 1558 1558 1565 1566 1564 1566 1566 1568 1569 1567 1569 1567 1566 1565 1566 1565 1566 1566 1569 1568 1570 1568 1569 1569 1568 1566 1563 1563 1562 1559 1555 1554 1550 1548 1543 1542 1540 1539 1536 1537 1535 1535 1533 1530 1525 1526 1523 1524 1525 1530 1536 1538 1552 1557 1577 1581 1594 1594 1611 1616 1626 1627 1638 1642 1652 1651 1661 1665 1667 1669 1674 1675 1680 1684 1695 1700 1710 1709 1718 1721 1726 1726 1735 1736 1735 1737 1739 1740 1745 1745 1749 1751 1752 1751 1751 1751 1752 1750 1751 1751 1753 1754 1756 1756 1760 1760 1762 1764 1771 1771 1776 1775 1773 1776 1782 1783 1791 1793 1806 1811 1823 1824 1837 1842 1852 1855 1870 1873 1884 1883 1896 1901 1911 1914 1928 1933 1947 1949 1967 1974 1985 1987 2003 2009 2025 2024 2038 2045 2050 2053 2061 2064 2071 2071 2077 2081 2085 2089 2100 2102 2113 2112 2123 2126 2124 2126 2124 2126 2128 2130 2135 2137 2141 2141 2142 2142 2142 2149 2159 2163 2189 2194 2218 2225 2239 2244 2264 2272 2290 2296 2319 2324 2341 2342 2362 2373 2388 2392 2410 2417 2429 2433 2452 2459 2471 2476 2493 2500 2513 2511 2524 2530 2531 2534 2538 2539 2542 2543 2549 2550 2558 2559 2567 2571 2578 2580 2591 2595 2603 2606 2614 2619 2628 2625 2631 2634 2637 2638 2645 2645 2651 2651 2657 2660 2662 2662 2666 2667 2671 2670 2676 2678 2685 2686 2694 2695 2701 2698 2701 2704 2703 2704 2702 2701 2697 2696 2694 2695 2696 2696 2696 2696 2696 2697 2702 2706 2715 2717 2727 2728 2733 2734 2742 2744 2749 2748 2755 2758 2767 2768 2777 2779 2785 2785 2791 2796 2801 2801 2806 2808 2811 2812 2817 2820 2825 2827 2834 2838 2849 2849 2857 2860 2865 2866 2872 2874 2876 2877 2881 2883 2887 2890 2902 2904 2917 2919 2932 2936 2943 2943 2952 2954 2960 2962 2971 2974 2981 2981 2986 2992 2998 2998 3006 3010 3017 3016 3020 3024 3028 3028 3033 3037 3038 3042 3050 3050 3061 3063 3077 3079 3083 3083 3089 3089 3088 3087 3086 3088 3089 3089
