14 18 24 27 33 32 33 34 38 37 39 39 41 36 34 33 36 27 24 21 19 19 21 21 24 28 33 36 42 41 45 47 51 51 51 48 48 45 43 42 42 41 40 39 38 33 30 29 27 31 33 36 40 46 52 54 58 61 66 69 75 77 80 82 83 
16 17 18 24 25 30 32 32 33 35 35 37 36 34 34 30 28 22 22 20 20 18 17 19 21 27 27 33 33 38 41 45 46 51 49 47 48 46 45 41 41 42 40 39 35 31 31 31 32 33 31 35 38 48 48 53 53 59 62 66 69 78 80 84 83 
18 20 20 22 22 28 34 32 32 33 33 34 36 34 33 28 26 20 13 15 18 15 14 16 19 23 27 30 31 36 42 42 44 48 50 49 49 48 47 43 41 40 40 35 32 29 27 32 35 33 32 35 38 47 54 52 50 57 65 67 69 76 83 83 82 
23 25 22 22 25 27 27 31 31 33 31 31 32 34 30 26 24 19 16 9 9 11 13 15 17 22 23 30 33 35 36 40 43 47 47 51 52 51 48 44 42 39 36 31 31 29 32 36 35 35 36 36 39 48 47 51 53 57 59 68 72 77 77 83 82 
28 27 26 27 31 30 30 30 29 30 31 31 32 29 27 24 18 16 11 8 4 7 10 13 19 19 23 30 40 36 38 41 45 45 49 51 58 52 51 45 40 38 36 31 27 30 31 36 43 39 41 41 42 47 51 51 52 57 63 68 78 77 80 80 82 
28 29 28 30 28 32 32 31 31 29 30 32 29 26 27 25 22 17 14 11 9 5 6 9 9 15 19 27 26 33 37 41 40 42 44 48 47 50 51 46 46 39 37 32 35 35 33 36 35 38 42 45 45 47 47 50 52 58 58 64 65 73 76 78 78 
29 28 28 28 27 31 34 33 34 32 31 29 29 26 26 23 21 15 10 10 11 6 6 5 3 9 16 19 22 28 34 37 40 41 44 43 42 46 52 49 51 42 37 35 37 36 37 36 35 38 42 44 47 48 49 51 51 56 58 60 60 68 77 74 74 
27 26 28 30 29 31 31 35 36 36 31 26 26 25 24 21 19 14 13 8 6 3 4 2 2 4 7 14 18 26 26 35 35 38 38 39 40 42 44 49 48 44 42 36 36 38 37 36 37 38 39 44 46 49 51 54 56 59 58 61 62 65 66 70 71 
27 27 28 28 29 31 34 35 40 34 31 26 24 23 22 20 17 13 9 7 4 3 2 1 -3 3 9 12 19 21 24 29 35 34 35 37 38 39 45 45 50 42 39 36 34 36 37 36 37 37 39 43 49 50 54 57 64 62 63 63 64 66 69 69 69 
27 28 28 27 28 30 29 31 30 31 31 25 26 23 22 21 19 14 13 8 6 3 3 3 2 3 3 7 9 16 18 24 25 31 34 36 34 34 36 39 39 38 41 38 38 36 34 34 36 37 38 43 43 48 52 56 56 62 62 65 65 66 68 71 71 
28 28 31 30 30 29 27 28 26 28 29 26 26 22 21 20 19 15 14 8 6 3 2 3 3 4 5 6 6 11 16 19 21 27 34 32 31 33 33 35 36 37 38 39 42 37 34 34 37 36 36 39 43 48 55 54 54 57 59 62 67 69 74 72 73 
29 28 29 33 32 30 29 29 28 27 25 25 24 20 21 19 19 16 11 6 3 1 3 4 5 8 6 6 6 7 9 15 17 22 24 29 32 35 33 33 35 38 38 39 40 39 37 33 34 36 36 36 39 46 47 51 51 54 56 60 63 70 71 72 73 
33 30 30 32 35 31 29 29 29 26 24 23 23 20 19 18 20 12 6 0 -8 0 4 5 9 8 8 7 6 8 11 12 15 20 26 29 33 33 35 36 38 38 40 41 46 39 35 34 36 36 36 37 38 44 49 48 47 53 58 60 64 70 75 75 76 
32 31 32 33 30 31 30 29 27 25 24 20 21 21 18 15 12 6 5 -1 3 0 0 5 4 7 9 8 7 8 6 9 12 20 21 29 28 32 34 38 36 36 38 40 39 38 37 32 34 37 37 39 41 45 45 48 52 55 56 60 64 71 73 77 79 
32 32 32 31 29 28 25 25 25 23 25 21 19 17 15 11 9 3 -2 2 8 5 5 4 2 7 12 9 6 6 2 6 10 16 23 25 27 31 36 36 36 38 39 38 38 36 33 32 33 34 37 42 46 48 50 53 56 58 62 64 67 74 81 81 84 
30 33 32 30 31 29 27 24 21 20 22 22 19 13 12 7 6 1 4 5 3 8 7 5 6 8 7 11 10 8 6 5 5 12 16 24 26 30 33 37 40 42 38 37 36 36 34 31 30 32 37 46 47 52 53 58 59 62 65 70 72 77 79 85 88 
27 31 33 32 35 31 29 23 17 19 21 19 16 13 11 7 3 4 4 5 4 7 8 7 8 8 10 10 10 9 7 6 3 12 20 24 28 32 39 40 47 41 38 36 34 34 33 31 26 34 40 47 56 55 58 61 68 68 73 76 80 82 88 89 96 
29 32 30 31 31 31 30 25 26 20 18 18 17 13 12 9 11 10 10 10 8 8 6 7 7 9 10 12 13 14 12 10 12 15 18 27 26 33 34 39 37 38 38 36 37 36 36 36 38 39 40 49 49 56 60 63 65 71 75 81 80 85 86 90 94 
30 31 30 30 29 31 32 29 30 24 20 19 17 14 10 13 15 15 19 15 13 11 8 8 7 10 12 14 17 16 14 15 19 22 28 28 27 33 38 36 34 35 34 37 39 39 41 42 44 45 49 51 53 60 67 67 70 75 82 82 83 86 89 92 96 
30 32 31 32 33 33 32 32 31 28 27 22 21 19 18 18 17 17 18 21 19 15 13 11 11 13 14 17 19 22 20 20 21 26 27 30 31 35 33 36 36 36 37 39 39 42 43 48 48 50 50 54 60 67 64 69 70 78 79 85 87 89 91 94 98 
29 32 33 34 37 35 35 34 34 31 29 26 24 21 18 21 23 22 22 23 23 19 16 15 14 18 22 22 26 24 24 25 26 30 34 33 32 36 37 38 37 39 40 41 43 44 46 48 53 52 55 59 70 69 70 70 69 77 83 87 95 94 98 100 104 
33 34 33 34 34 36 37 38 36 36 34 31 29 25 25 25 24 26 27 27 25 22 21 20 21 24 22 24 25 26 29 32 32 34 36 39 40 43 42 45 44 45 45 45 45 47 46 48 48 51 54 58 61 69 71 73 75 79 80 88 88 96 100 105 105 
36 36 38 36 36 37 39 38 38 38 38 35 34 29 26 27 28 31 34 31 29 25 20 22 25 26 28 28 29 31 33 37 40 41 45 45 47 48 50 50 49 51 54 51 51 49 48 48 48 53 56 60 62 68 74 77 81 83 86 88 88 97 105 107 108 
37 36 36 37 37 38 38 39 39 40 39 39 37 33 32 29 32 36 34 35 34 29 28 26 25 28 29 31 35 38 39 44 45 47 48 52 53 55 56 58 59 59 57 57 55 51 51 51 52 58 59 64 65 70 73 82 84 88 88 90 94 101 103 111 113 
41 38 38 38 38 39 41 40 40 39 39 38 38 36 35 35 37 38 39 39 40 33 30 30 29 32 33 37 43 44 47 49 56 54 56 57 61 61 65 65 71 65 63 61 60 57 54 54 54 61 67 69 73 75 81 86 95 92 93 95 101 105 112 115 121 
37 37 38 39 39 41 40 40 39 38 37 38 39 39 39 39 40 43 42 42 40 36 37 36 36 38 37 41 42 49 48 50 52 57 59 61 62 66 66 67 67 68 68 65 64 63 61 60 62 66 68 75 73 76 80 88 86 94 96 97 101 108 110 117 119 
35 35 37 37 38 39 41 39 39 37 35 39 43 41 41 42 43 44 48 44 44 40 39 38 41 41 43 45 48 51 51 53 56 59 63 64 67 70 73 69 70 69 70 67 67 65 64 65 69 72 77 77 76 80 85 84 83 91 98 102 107 110 115 117 121 
34 34 34 34 36 37 36 37 37 36 38 41 42 43 44 45 43 43 43 44 45 43 42 39 41 44 46 50 52 56 54 56 57 62 63 67 70 74 70 68 69 68 67 67 67 66 68 70 71 76 77 80 82 83 82 83 85 91 94 106 106 111 113 118 122 
33 33 33 34 36 35 35 35 35 37 38 43 51 46 45 45 46 45 45 45 47 44 43 41 42 46 51 54 61 59 57 59 60 65 69 71 77 73 71 68 69 67 66 67 66 66 70 72 77 78 84 84 91 88 88 86 84 92 99 105 112 113 118 122 129 
32 34 34 35 33 33 33 33 35 39 39 42 42 47 47 47 46 46 46 46 44 43 44 43 44 48 49 56 56 62 63 63 64 69 67 71 69 71 70 67 68 68 68 69 67 65 67 74 74 78 81 84 86 91 91 89 91 94 96 106 105 113 117 125 127 
30 32 35 33 31 31 30 33 35 37 40 39 41 43 45 46 47 46 47 45 45 44 46 44 43 46 50 54 56 62 67 67 70 70 71 71 68 69 68 66 68 67 69 68 69 66 66 72 76 80 85 84 85 89 94 92 93 96 102 105 105 113 118 124 128 
29 31 32 34 34 31 32 34 34 36 35 36 39 41 41 46 45 46 45 43 44 43 43 44 43 44 49 57 59 64 65 71 72 72 72 74 72 69 66 63 64 65 65 66 66 65 69 73 75 81 80 82 84 87 89 95 95 98 100 109 111 117 118 127 131 
28 32 34 35 37 34 35 34 36 35 35 36 39 39 39 42 46 45 46 45 43 42 41 41 39 46 55 59 67 66 69 73 81 75 74 74 76 69 65 63 61 63 63 64 64 67 72 75 81 82 84 84 85 88 92 93 95 99 103 111 119 121 126 130 138 
31 35 34 35 33 33 32 31 33 33 35 35 35 37 37 38 40 43 46 48 46 44 44 43 45 49 50 58 59 66 69 74 71 75 75 74 71 68 68 65 64 64 62 63 64 67 68 74 76 82 84 88 87 90 89 92 94 100 103 113 113 122 125 131 134 
32 35 38 35 32 31 30 31 33 33 36 33 33 35 37 38 41 44 50 47 46 46 46 46 49 52 56 58 57 65 71 70 68 69 71 70 68 66 65 63 64 62 61 62 64 67 69 73 77 81 86 87 89 90 89 92 95 102 107 113 116 123 130 131 133 
34 35 34 35 34 30 31 33 31 32 31 29 31 34 34 37 39 45 44 45 48 48 47 47 51 57 57 62 64 68 64 67 66 65 67 69 66 64 64 61 62 62 63 63 67 70 70 73 75 80 82 87 89 93 93 95 97 106 108 119 121 127 126 131 132 
37 37 36 35 34 32 32 31 29 30 30 29 26 31 35 36 38 42 45 45 50 49 50 50 54 57 62 65 73 68 65 64 64 65 66 66 63 62 63 60 62 61 63 66 75 73 73 75 81 81 84 87 92 93 95 97 101 107 114 122 132 130 131 131 133 
40 42 40 36 35 32 33 32 32 30 30 32 31 31 30 34 36 40 40 43 45 49 50 52 53 57 60 65 63 66 65 63 64 65 66 67 64 61 59 57 59 59 62 65 68 74 75 75 76 80 83 86 89 94 95 99 102 109 112 123 122 130 131 132 133 
42 44 46 40 37 35 35 34 34 32 30 33 34 34 31 34 35 39 42 44 46 49 50 53 56 60 66 63 60 61 60 61 63 65 68 66 63 60 56 56 58 59 62 66 71 74 78 77 79 82 86 88 93 95 98 101 105 111 117 120 121 127 130 132 134 
46 48 45 42 41 38 37 35 35 35 36 37 38 40 38 37 37 42 42 47 48 51 51 54 56 62 60 64 63 61 61 61 61 64 63 66 65 62 59 54 55 57 62 68 70 76 75 77 79 83 85 90 93 96 99 105 108 114 114 119 122 127 127 132 133 
50 49 49 44 39 41 41 39 38 38 40 42 46 43 43 42 41 43 45 48 55 53 53 56 58 60 61 62 63 62 63 61 59 61 61 63 64 61 58 56 54 60 65 70 76 76 79 78 80 82 88 92 101 99 103 107 115 116 119 121 128 128 129 132 135 
51 51 50 47 49 47 45 45 44 41 42 45 45 46 47 47 46 46 47 48 49 54 56 59 58 62 62 63 62 64 63 63 62 60 60 63 63 62 61 60 63 66 65 71 69 76 75 77 78 80 84 91 92 99 101 106 107 116 117 120 123 128 130 132 133 
52 53 55 53 56 52 52 51 51 47 46 48 49 49 49 48 48 49 53 50 50 53 58 58 61 63 68 65 63 63 62 62 62 62 61 65 67 65 61 64 68 68 69 69 67 71 74 75 77 81 86 89 92 97 101 104 105 112 119 121 125 129 133 133 134 
54 55 54 56 55 53 55 56 54 52 52 53 52 52 52 51 51 51 50 52 50 50 52 57 58 62 63 66 67 64 65 64 64 65 68 72 71 71 70 70 68 71 69 69 69 69 71 74 75 81 82 89 91 96 98 104 104 110 112 122 126 130 129 133 132 
57 56 56 57 59 55 55 55 59 55 53 54 57 54 56 54 54 52 52 51 48 52 54 54 55 60 64 66 72 69 70 67 65 68 73 75 82 77 74 72 70 71 70 71 71 72 75 74 72 78 84 88 94 96 100 102 102 107 114 121 133 130 130 131 130 
56 56 56 58 56 56 55 53 55 57 58 56 55 54 56 57 57 54 54 52 55 56 53 53 55 59 60 65 66 70 72 71 71 72 72 75 76 81 81 77 77 75 75 75 75 75 75 78 78 78 80 88 89 96 99 102 102 105 108 117 118 127 131 132 132 
57 56 54 56 57 56 53 54 56 58 60 58 57 56 56 59 62 59 56 57 60 58 57 56 57 60 62 65 65 71 75 73 74 74 76 76 77 81 84 81 83 80 80 80 80 79 77 80 82 83 85 87 89 96 104 103 104 106 110 114 114 124 133 133 136 
59 59 57 56 56 58 57 57 58 60 60 61 61 60 61 62 63 64 63 60 60 61 60 59 62 64 65 68 70 75 72 74 74 75 76 78 80 83 82 83 84 84 85 87 86 85 85 84 86 90 87 88 91 97 97 104 104 108 109 116 118 124 124 132 136 
62 59 56 57 57 59 58 60 62 62 64 64 64 65 66 68 73 68 67 64 65 62 63 64 69 68 71 72 76 76 77 76 73 76 78 80 84 86 88 86 87 86 88 90 93 90 92 91 96 91 90 92 97 97 100 101 102 105 110 115 122 123 128 132 140 
63 61 61 59 60 64 64 64 63 64 66 69 70 71 71 72 69 69 68 66 65 62 63 65 66 71 71 75 75 78 79 80 78 78 78 81 84 90 87 86 87 88 89 92 90 92 93 94 92 90 92 93 93 97 98 101 100 102 106 113 114 121 124 130 135 
66 63 62 62 64 67 71 68 67 69 72 74 76 77 79 75 72 69 66 66 66 64 62 64 66 69 71 74 76 80 84 82 80 81 81 86 89 91 91 88 88 90 92 91 90 93 96 94 93 92 91 93 95 96 97 98 97 102 108 110 112 119 125 129 135 
67 66 66 66 64 69 69 72 74 76 76 82 82 85 81 79 77 72 70 67 66 66 65 65 66 70 72 76 78 84 82 84 85 85 87 93 93 95 92 90 91 92 92 91 93 94 93 94 96 97 95 94 94 96 96 98 98 104 104 110 112 118 121 129 132 
70 68 68 66 62 68 72 74 79 79 81 85 91 88 87 82 80 75 72 69 65 65 65 65 67 71 77 78 83 84 86 86 88 88 91 95 103 98 97 94 93 95 97 95 96 94 96 96 100 97 97 96 96 96 97 97 96 102 108 110 113 119 125 129 134 
70 68 69 69 71 70 71 76 76 81 82 87 86 91 89 85 83 78 77 74 71 67 66 66 68 73 74 78 80 86 86 89 87 88 91 96 95 99 100 98 99 100 98 99 95 93 94 96 96 96 98 98 97 96 97 100 100 103 104 111 113 120 123 131 134 
73 71 70 73 77 76 79 78 77 81 82 85 87 89 91 86 83 79 78 74 73 69 66 67 69 74 81 81 81 85 89 89 88 91 94 97 97 100 102 101 103 100 101 98 94 94 94 96 97 98 101 99 100 99 99 100 100 105 109 113 116 123 129 133 138 
75 73 76 79 78 80 80 81 84 85 84 87 87 89 87 87 84 79 78 73 73 73 72 68 70 76 78 85 85 87 87 91 93 95 96 101 100 102 102 103 101 99 100 100 99 98 96 97 98 101 99 100 101 103 102 102 104 110 111 117 121 129 130 137 140 
80 77 79 81 84 82 83 86 93 90 89 89 91 89 88 85 80 79 78 75 71 73 75 72 72 77 82 85 88 89 92 93 97 98 102 104 106 106 106 103 101 100 100 100 99 98 97 99 100 100 99 100 102 103 104 105 105 113 119 124 132 134 139 140 145 
77 78 80 83 81 83 84 87 88 93 92 89 89 88 89 86 85 81 79 79 78 76 77 76 78 79 81 88 87 91 92 94 96 101 105 110 108 110 107 105 105 103 101 101 100 98 100 102 100 102 101 101 101 103 104 109 112 119 120 128 129 138 138 141 144 
74 77 82 81 81 82 84 86 89 91 93 92 92 91 91 88 88 83 78 81 82 83 86 83 82 84 88 89 87 93 97 97 100 105 113 112 112 111 108 107 106 104 99 101 101 101 104 102 101 101 101 101 103 103 104 111 117 123 130 130 132 139 144 144 146 
73 77 76 79 80 82 83 86 87 90 91 94 96 95 93 90 90 86 86 85 86 88 88 90 89 89 90 93 95 97 96 98 100 106 107 113 116 117 113 110 109 108 106 104 103 103 103 101 102 101 100 99 101 105 109 117 118 126 126 132 137 144 143 147 147 
68 72 76 77 80 81 85 86 88 90 92 95 102 97 96 93 94 89 87 89 94 93 93 93 91 93 96 98 102 101 103 102 102 107 112 117 124 118 116 112 111 109 109 107 109 107 108 104 102 102 101 101 101 108 114 119 127 128 132 137 143 145 149 149 150 
67 69 70 75 77 80 83 86 86 90 91 95 94 98 98 94 94 92 93 93 94 97 98 98 98 98 100 103 101 103 106 108 108 109 112 119 116 116 117 114 114 111 110 109 110 110 109 107 107 107 106 106 108 113 115 121 122 128 133 141 141 147 148 152 154 
66 66 68 73 77 81 88 86 86 89 94 93 94 95 100 96 95 93 93 95 99 100 104 103 105 106 111 106 105 108 113 113 115 115 118 119 117 116 115 115 115 111 109 110 112 111 111 108 107 107 111 110 114 118 126 124 125 132 139 142 145 149 151 156 160 
62 64 67 72 74 81 81 86 86 87 88 92 91 91 93 96 96 94 95 98 97 101 102 106 108 112 109 108 111 113 114 119 120 119 120 122 121 119 118 117 114 112 112 113 111 111 110 110 108 106 108 111 113 119 121 127 133 139 138 146 148 153 155 163 165 
56 62 67 72 77 80 82 83 83 86 88 89 87 90 94 95 96 95 95 96 97 100 104 107 113 112 112 111 114 115 120 122 129 124 125 125 128 122 119 116 114 112 111 112 112 111 110 109 107 107 108 110 112 119 126 131 142 142 145 148 155 156 162 166 174 
