26 31 32 41 40 43 48 52 52 53 53 55 53 53 54 56 58 62 62 66 65 69 69 68 69 67 69 66 66 63 60 59 54 47 48 46 44 41 42 40 40 36 35 25 24 15 16 12 14 15 13 10 11 9 5 0 0 0 0 0 0 0 0 0 0 0 0 0 0 0 0 0 0 0 0 0 0 0 0 0 0 4 6 7 4 2 0 0 0 0 0 0 0 0 0 0 0 0 0 0 0 0 0 0 0 0 0 0 0 0 0 0 0 0 0 0 0 0 0 0 0 2 1 1 1 0 0 0 0 0 0 0 0 0 0 0 0 0 0 0 0 0 0 0 0 0 0 0 0 0 0 0 0 0 0 0 0 0 0 0 0 0 0 0 0 10 9 12 14 23 26 32 36 44 43 43 45 50 51 55 58 67 69 73 71 75 78 84 82 85 90 101 99 108 112 110 112 114 117 122 123 129 131 132 130 129 129 125 122 118 114 102 102 95 91 87 85 80 78 77 73 68 64 53 57 49 44 40 42 41 39 35 32 26 22 21 20 19 17 14 14 9 6 6 8 9 12 16 13 11 8 0 2 0 0 0 0 0 0 7 6 12 13 18 16 19 19 20 19 20 23 22 22 21 19 23 26 35 36 45 42 46 52 60 61 67 70 77 74 81 83 82 87 90 91 95 98 106 107 115 116 122 123 128 129 138 142 144 144 143 146 151 153 162 162 164 167 173 174 181 181 186 187 183 183 181 183 184 183 183 183 183 184 185 184 182 186 187 185 189 189 192 197 203 203 208 208 211 212 215 216 217 220 228 229 237 239 250 254 255 255 255 255 255 255 255 255 255 255 255 255 255 255 255 255 255 255 255 255 255 255 255 255 255 255 255 255 255 255 255 255 255 255 255 255 255 255 255 255 255 255 255 255 255 255 255 255 255 255 255 255 255 255 255 255 255 255 255 255 255 255 255 255 255 255 255 255 255 255 255 255 255 255 255 255 255 255 255 255 255 255 255 255 255 255 255 255 255 255 255 255 255 255 255 255 255 255 255 255 255 255 255 255 255 255 255 255 255 255 255 255 255 255 255 255 255 255 255 255 255 255 255 255 255 255 255 255 255 255 255 255 255 255 255 255 255 255 255 255 255 255 255 255 255 255 255 255 255 255 255 255 255 255
43 47 54 51 44 50 53 55 57 55 53 56 57 57 56 61 65 66 67 70 70 75 77 74 72 74 78 72 72 68 65 62 58 53 48 48 48 44 43 41 41 36 31 28 30 24 25 23 23 23 23 19 19 15 11 11 13 5 0 0 0 0 0 0 0 0 0 0 0 0 0 0 0 0 0 0 0 0 1 2 6 10 16 12 12 7 1 1 3 0 0 0 0 1 3 2 4 0 0 0 0 0 0 0 0 0 0 0 0 0 0 0 0 0 0 0 0 0 2 0 0 1 5 5 6 3 0 1 5 5 8 5 5 3 2 0 0 0 0 0 0 0 0 0 0 0 0 0 0 0 0 0 0 0 0 0 0 0 0 0 0 0 0 1 0 7 9 9 8 17 21 29 37 43 49 45 45 48 54 56 60 66 72 70 68 73 79 82 82 84 89 92 94 104 114 113 116 115 116 118 121 126 132 131 129 129 130 125 120 115 112 105 104 94 85 87 90 83 76 75 73 68 62 61 64 55 48 47 47 45 44 39 39 31 25 26 26 25 22 23 24 19 18 15 15 16 20 17 15 13 10 6 8 4 0 3 9 10 13 12 11 15 15 16 16 18 18 18 18 21 26 24 23 21 18 22 27 33 41 38 37 43 50 57 62 66 70 70 68 73 75 81 89 90 92 94 99 104 109 114 116 121 128 126 124 134 142 145 149 147 147 149 151 158 164 166 169 171 172 174 176 181 187 185 188 186 190 188 188 185 186 187 190 190 192 192 196 194 193 195 197 200 205 209 210 215 218 217 215 218 217 220 223 229 235 238 238 250 255 255 255 255 255 255 255 255 255 255 255 255 255 255 255 255 255 255 255 255 255 255 255 255 255 255 255 255 255 255 255 255 255 255 255 255 255 255 255 255 255 255 255 255 255 255 255 255 255 255 255 255 255 255 255 255 255 255 255 255 255 255 255 255 255 255 255 255 255 255 255 255 255 255 255 255 255 255 255 255 255 255 255 255 255 255 255 255 255 255 255 255 255 255 255 255 255 255 255 255 255 255 255 255 255 255 255 255 255 255 255 255 255 255 255 255 255 255 255 255 255 255 255 255 255 255 255 255 255 255 255 255 255 255 255 255 255 255 255 255 255 255 255 255 255 255 255 255 255 255 255 255 255 255 255
58 60 60 65 64 61 58 59 60 59 62 62 62 64 66 69 68 71 75 79 81 85 82 82 80 79 76 74 75 72 72 69 68 60 56 51 48 44 45 42 43 39 36 29 29 28 30 33 34 34 30 25 26 21 23 23 22 17 17 10 11 8 6 5 6 3 1 0 0 0 0 0 0 3 3 4 6 6 5 5 9 15 15 16 18 15 14 8 9 11 10 10 8 10 9 8 9 7 5 2 0 0 0 0 0 0 0 0 0 0 0 0 0 0 0 0 0 1 0 1 2 4 5 11 10 10 8 5 7 10 9 11 9 6 4 0 0 0 0 0 0 0 0 0 0 0 0 0 0 0 0 0 0 0 0 0 0 0 0 2 1 3 4 7 7 11 8 9 10 17 20 29 33 42 41 45 44 46 48 55 58 65 64 70 71 73 75 83 82 83 82 86 90 100 102 113 114 116 116 116 119 123 126 131 131 129 127 125 121 112 108 102 98 92 93 87 88 86 84 77 74 70 70 68 65 60 59 55 53 50 46 40 40 34 37 33 33 34 33 33 31 26 25 21 23 22 22 20 21 19 15 8 9 9 11 11 15 20 19 20 23 23 20 18 19 20 18 16 19 22 20 25 24 22 22 23 25 32 31 32 36 41 45 58 61 68 64 65 66 71 72 78 82 91 90 93 98 104 108 117 119 121 122 127 128 133 134 145 148 150 149 149 151 157 160 168 169 171 169 167 170 175 177 183 185 187 188 191 189 186 189 191 192 195 196 198 201 202 202 204 205 206 210 218 219 225 223 224 227 225 223 225 224 230 232 242 246 254 253 255 255 255 255 255 255 255 255 255 255 255 255 255 255 255 255 255 255 255 255 255 255 255 255 255 255 255 255 255 255 255 255 255 255 255 255 255 255 255 255 255 255 255 255 255 255 255 255 255 255 255 255 255 255 255 255 255 255 255 255 255 255 255 255 255 255 255 255 255 255 255 255 255 255 255 255 255 255 255 255 255 255 255 255 255 255 255 255 255 255 255 255 255 255 255 255 255 255 255 255 255 255 255 255 255 255 255 255 255 255 255 255 255 255 255 255 255 255 255 255 255 255 255 255 255 255 255 255 255 255 255 255 255 255 255 255 255 255 255 255 255 255 255 255 255 255 255 255 255 255 255 255 255 255
71 73 75 76 79 74 70 70 70 71 71 71 70 74 76 78 79 82 86 89 93 93 94 90 85 84 82 81 77 78 77 75 79 67 58 54 51 49 49 47 49 42 38 33 29 31 31 37 45 40 38 34 35 31 31 32 38 31 29 26 26 20 16 17 22 16 14 12 13 11 7 7 2 11 15 15 17 13 11 12 16 19 23 23 26 23 23 20 18 19 18 17 17 18 20 18 20 14 9 5 0 3 4 4 1 1 2 3 8 2 0 0 0 0 0 0 0 3 5 4 4 8 12 12 14 14 14 13 17 14 12 14 14 10 5 3 0 0 0 0 0 0 0 0 0 0 0 0 0 0 0 0 0 0 0 0 2 1 1 3 6 6 8 10 13 14 15 12 7 17 27 33 43 40 42 41 39 42 47 52 59 60 64 67 70 73 78 81 86 79 78 81 85 94 101 107 116 116 119 118 121 124 130 129 134 128 125 122 120 108 99 95 87 91 92 91 95 88 84 80 76 73 71 70 70 64 58 59 60 54 50 46 42 41 42 40 40 40 42 42 45 36 31 31 32 30 33 29 27 24 18 16 11 15 18 22 30 27 30 31 39 32 29 25 25 24 21 20 20 19 18 22 26 22 22 22 28 30 33 32 32 40 47 56 68 65 64 62 61 68 74 77 86 88 90 95 106 107 114 119 130 123 125 124 125 130 135 143 156 151 150 151 151 158 165 167 175 169 169 166 166 169 174 178 183 185 189 189 191 190 193 194 196 199 204 206 214 209 208 212 218 216 219 225 231 232 235 236 243 233 227 228 227 232 235 243 253 255 255 255 255 255 255 255 255 255 255 255 255 255 255 255 255 255 255 255 255 255 255 255 255 255 255 255 255 255 255 255 255 255 255 255 255 255 255 255 255 255 255 255 255 255 255 255 255 255 255 255 255 255 255 255 255 255 255 255 255 255 255 255 255 255 255 255 255 255 255 255 255 255 255 255 255 255 255 255 255 255 255 255 255 255 255 255 255 255 255 255 255 255 255 255 255 255 255 255 255 255 255 255 255 255 255 255 255 255 255 255 255 255 255 255 255 255 255 255 255 255 255 255 255 255 255 255 255 255 255 255 255 255 255 255 255 255 255 255 255 255 255 255 255 255 255 255 255 255 255 255 255 255 255 255 255
84 86 85 88 86 86 85 82 83 85 82 82 84 88 87 90 89 94 94 99 98 102 102 100 98 93 92 91 89 86 82 78 76 71 69 58 59 53 52 51 49 45 44 39 39 36 35 40 38 44 45 41 40 39 37 36 38 41 43 40 35 30 29 27 26 26 27 26 27 26 25 22 22 24 21 24 21 20 19 18 18 22 23 27 28 31 32 33 33 32 28 25 26 27 26 26 25 22 19 14 16 14 12 12 11 10 9 8 9 10 11 9 8 8 6 6 5 7 6 6 9 14 12 14 17 20 20 19 20 20 19 19 17 17 15 10 10 9 6 0 0 0 0 0 0 0 0 0 0 0 0 0 0 0 0 0 0 2 3 4 5 9 11 14 15 18 18 19 19 19 22 33 30 35 37 38 37 39 40 47 48 53 58 64 66 73 75 80 74 71 75 78 80 90 91 101 102 113 117 119 121 123 124 124 123 125 124 120 114 101 101 94 95 93 91 93 92 90 89 83 82 77 76 74 73 69 67 63 61 58 56 52 51 49 48 48 46 46 47 48 46 45 43 40 38 36 37 37 36 32 30 28 27 25 24 30 27 29 33 35 34 37 35 29 31 31 29 26 21 18 17 19 16 18 19 18 22 29 31 33 35 43 44 51 51 61 62 61 63 66 66 72 76 85 88 94 95 105 109 116 114 118 122 120 124 128 130 138 139 149 151 154 155 159 158 162 162 164 167 165 164 162 166 173 173 181 184 185 188 193 193 197 199 202 205 209 210 214 216 219 218 224 227 232 233 239 241 245 241 238 238 235 236 238 237 244 246 255 255 255 255 255 255 255 255 255 255 255 255 255 255 255 255 255 255 255 255 255 255 255 255 255 255 255 255 255 255 255 255 255 255 255 255 255 255 255 255 255 255 255 255 255 255 255 255 255 255 255 255 255 255 255 255 255 255 255 255 255 255 255 255 255 255 255 255 255 255 255 255 255 255 255 255 255 255 255 255 255 255 255 255 255 255 255 255 255 255 255 255 255 255 255 255 255 255 255 255 255 255 255 255 255 255 255 255 255 255 255 255 255 255 255 255 255 255 255 255 255 255 255 255 255 255 255 255 255 255 255 255 255 255 255 255 255 255 255 255 255 255 255 255 255 255 255 255 255 255 255 255 255 255 255 255
95 96 98 96 95 94 93 95 98 96 93 94 97 99 101 100 99 102 105 107 107 110 114 110 108 102 100 98 98 93 87 84 81 75 68 65 68 60 56 53 51 47 44 44 46 42 38 40 38 44 50 46 44 43 41 43 46 48 53 47 44 40 35 37 36 36 35 37 42 39 42 38 38 36 36 32 28 26 24 24 24 27 28 31 34 37 41 42 45 42 40 36 37 34 35 34 32 28 22 25 30 26 25 21 19 17 19 16 17 16 18 17 19 16 16 14 12 14 14 14 14 18 19 22 25 27 29 28 29 26 22 22 22 21 19 19 19 16 16 11 10 1 0 0 0 0 0 0 0 0 0 0 0 0 1 1 1 3 4 6 7 12 17 17 21 22 24 22 24 24 32 30 25 29 32 32 32 34 38 42 46 52 58 62 66 71 79 73 69 67 66 71 76 83 91 94 96 109 123 122 126 125 128 121 116 117 117 113 110 100 90 92 95 92 93 93 95 92 89 86 85 81 78 79 79 74 69 68 67 60 57 53 54 52 53 51 50 51 55 53 52 47 44 45 48 44 46 43 42 38 36 36 39 34 33 35 32 36 38 37 34 37 38 35 36 34 34 28 22 18 13 14 11 14 16 17 21 27 34 33 34 43 53 50 48 55 59 60 63 65 68 70 74 81 90 91 91 100 111 111 111 116 120 121 124 126 129 132 134 143 148 153 159 160 162 159 160 162 165 160 160 160 163 165 167 176 187 186 188 191 193 199 206 210 216 215 215 219 219 221 223 229 236 238 243 246 250 249 246 241 236 240 244 242 240 246 251 255 255 255 255 255 255 255 255 255 255 255 255 255 255 255 255 255 255 255 255 255 255 255 255 255 255 255 255 255 255 255 255 255 255 255 255 255 255 255 255 255 255 255 255 255 255 255 255 255 255 255 255 255 255 255 255 255 255 255 255 255 255 255 255 255 255 255 255 255 255 255 255 255 255 255 255 255 255 255 255 255 255 255 255 255 255 255 255 255 255 255 255 255 255 255 255 255 255 255 255 255 255 255 255 255 255 255 255 255 255 255 255 255 255 255 255 255 255 255 255 255 255 255 255 255 255 255 255 255 255 255 255 255 255 255 255 255 255 255 255 255 255 255 255 255 255 255 255 255 255 255 255 255 255 255 255
105 105 104 103 106 105 105 108 109 108 109 107 109 110 111 112 111 112 113 118 117 117 118 119 117 110 110 104 104 101 97 90 87 80 77 68 67 64 62 54 51 50 51 49 48 48 47 45 44 46 46 51 51 49 48 49 50 54 52 52 55 51 51 50 48 48 47 46 48 48 49 50 50 47 44 41 39 35 33 33 32 34 35 37 40 43 45 49 52 53 48 42 42 39 41 44 43 39 38 36 35 36 35 31 28 23 23 22 21 21 22 23 22 23 24 24 25 25 24 25 26 27 27 31 31 36 34 36 36 35 32 28 27 27 28 28 28 23 22 20 16 9 8 3 3 4 1 2 0 0 0 0 0 0 0 2 2 5 7 10 12 18 16 19 23 26 25 24 22 23 26 31 30 26 27 27 26 30 34 39 45 53 54 62 63 66 65 66 68 65 65 64 67 77 80 91 97 107 108 122 124 124 120 117 116 112 110 108 106 100 99 92 90 90 93 93 96 97 93 87 88 86 86 87 85 81 78 74 69 61 60 52 52 52 53 54 54 56 56 59 56 49 50 50 48 49 49 48 47 42 44 44 43 41 45 47 46 45 41 41 40 39 37 37 37 37 35 30 28 21 19 13 12 13 13 15 19 26 26 32 36 43 42 48 51 54 53 58 59 63 64 68 70 78 80 90 91 96 99 108 111 116 116 121 120 124 125 128 134 142 144 151 155 161 157 155 157 159 156 153 153 156 158 160 164 171 176 186 189 193 195 203 207 217 216 220 226 229 225 225 229 236 236 243 248 253 252 255 252 245 247 245 244 247 249 252 254 255 255 255 255 255 255 255 255 255 255 255 255 255 255 255 255 255 255 255 255 255 255 255 255 255 255 255 255 255 255 255 255 255 255 255 255 255 255 255 255 255 255 255 255 255 255 255 255 255 255 255 255 255 255 255 255 255 255 255 255 255 255 255 255 255 255 255 255 255 255 255 255 255 255 255 255 255 255 255 255 255 255 255 255 255 255 255 255 255 255 255 255 255 255 255 255 255 255 255 255 255 255 255 255 255 255 255 255 255 255 255 255 255 255 255 255 255 255 255 255 255 255 255 255 255 255 255 255 255 255 255 255 255 255 255 255 255 255 255 255 255 255 255 255 255 255 255 255 255 255 255 255 255 255 255 255
116 114 113 114 118 115 115 120 127 124 126 125 127 126 127 124 121 123 123 127 130 127 129 128 128 121 119 113 112 106 100 96 92 86 79 75 70 69 64 57 46 52 54 53 53 51 49 49 48 48 51 51 54 52 52 53 58 56 59 59 64 60 61 59 62 58 59 58 63 59 59 59 64 56 50 48 44 41 39 39 39 42 47 47 54 53 57 58 67 57 53 49 50 47 47 50 56 49 48 46 46 44 44 39 36 32 31 28 24 26 28 27 27 30 33 34 35 34 34 34 38 37 39 38 41 40 42 42 45 41 38 35 33 33 35 35 42 30 28 24 21 16 12 10 10 8 6 5 1 0 0 0 0 0 0 1 3 8 14 15 18 19 22 24 31 28 29 26 20 24 28 29 32 28 30 24 17 28 36 41 50 52 58 60 68 63 64 62 64 63 63 62 64 73 79 88 100 103 110 117 130 120 115 113 110 108 107 104 99 97 95 93 89 91 95 97 104 98 95 92 93 90 88 91 96 87 81 77 72 65 61 55 49 52 53 54 53 56 59 60 62 55 52 52 51 51 52 52 55 50 50 51 52 51 54 55 61 52 49 45 44 42 41 38 36 38 37 34 30 25 20 16 9 13 16 17 22 23 27 30 36 39 44 45 49 51 55 56 58 59 64 66 69 75 81 86 91 94 103 106 110 112 116 117 118 122 126 130 137 141 149 152 162 157 156 154 154 154 152 148 138 151 157 161 165 171 180 183 192 193 199 206 216 218 223 228 241 235 234 233 236 239 243 249 255 255 255 255 255 253 252 250 250 251 255 255 255 255 255 255 255 255 255 255 255 255 255 255 255 255 255 255 255 255 255 255 255 255 255 255 255 255 255 255 255 255 255 255 255 255 255 255 255 255 255 255 255 255 255 255 255 255 255 255 255 255 255 255 255 255 255 255 255 255 255 255 255 255 255 255 255 255 255 255 255 255 255 255 255 255 255 255 255 255 255 255 255 255 255 255 255 255 255 255 255 255 255 255 255 255 255 255 255 255 255 255 255 255 255 255 255 255 255 255 255 255 255 255 255 255 255 255 255 255 255 255 255 255 255 255 255 255 255 255 255 255 255 255 255 255 255 255 255 255 255 255 255 255 255 255 255 255 255 255 255 255 255 255 255 255 255 255 255
124 125 124 122 123 123 127 132 131 136 138 140 139 140 138 137 137 136 136 138 136 135 137 138 134 129 126 120 117 112 109 105 102 95 93 86 85 81 75 66 67 61 57 57 55 54 55 55 53 50 50 49 51 53 54 53 55 56 59 63 64 67 67 64 66 66 66 67 67 66 69 66 65 63 63 57 55 49 47 48 48 50 50 53 53 60 60 62 58 56 57 52 55 54 55 56 55 56 57 55 55 51 51 46 46 40 37 35 35 34 33 33 36 37 41 44 43 44 41 39 41 44 43 41 42 41 43 46 46 46 46 44 43 39 39 37 34 30 32 28 27 23 21 17 17 14 13 11 9 6 4 0 2 0 0 4 5 10 14 19 18 21 22 26 25 27 30 31 30 27 25 28 27 27 29 24 29 31 32 42 42 48 52 55 55 57 59 57 59 60 60 59 64 72 74 85 86 95 100 108 105 111 114 111 109 104 102 102 101 94 96 96 95 92 93 97 96 99 98 95 94 93 94 96 93 92 89 81 78 67 66 61 61 54 54 57 57 59 60 63 59 60 60 55 54 54 52 55 55 55 57 59 58 57 59 60 56 55 53 46 48 46 45 41 44 43 42 41 38 31 28 22 22 15 14 18 17 18 21 26 28 36 38 42 42 47 49 53 51 53 57 63 65 73 74 83 82 88 94 103 103 108 110 114 116 120 122 129 131 137 141 147 145 149 152 154 154 153 152 149 152 153 153 162 161 168 169 176 180 190 196 206 206 216 220 228 230 239 240 240 241 244 245 250 250 255 255 255 255 255 255 253 254 253 255 255 255 255 255 255 255 255 255 255 255 255 255 255 255 255 255 255 255 255 255 255 255 255 255 255 255 255 255 255 255 255 255 255 255 255 255 255 255 255 255 255 255 255 255 255 255 255 255 255 255 255 255 255 255 255 255 255 255 255 255 255 255 255 255 255 255 255 255 255 255 255 255 255 255 255 255 255 255 255 255 255 255 255 255 255 255 255 255 255 255 255 255 255 255 255 255 255 255 255 255 255 255 255 255 255 255 255 255 255 255 255 255 255 255 255 255 255 255 255 255 255 255 255 255 255 255 255 255 255 255 255 255 255 255 255 255 255 255 255 255 255 255 255 255 255 255 255 255 255 255 255 255 255 255 255 255 255 255
133 134 133 134 136 135 136 140 143 147 151 152 150 151 151 150 151 150 151 150 149 147 147 144 141 135 129 124 120 115 110 109 111 104 101 97 97 90 86 80 80 72 65 61 58 57 59 58 59 55 54 52 52 54 57 57 60 60 62 66 69 72 75 72 73 71 70 74 76 76 81 74 72 68 69 65 65 57 50 52 56 57 59 55 55 60 66 62 60 58 56 57 61 59 61 60 61 60 61 63 66 63 61 57 55 47 39 41 41 42 44 44 47 49 56 53 52 51 49 46 48 49 51 48 48 47 47 50 51 51 52 52 54 48 48 42 37 33 28 30 30 26 23 22 25 20 17 16 15 11 9 12 16 12 8 12 11 17 24 23 21 23 24 27 27 31 34 33 33 30 28 26 25 28 33 29 31 35 41 43 42 50 56 54 53 54 57 56 57 58 58 60 63 70 76 82 85 91 100 98 93 100 106 106 107 100 95 99 101 97 95 96 99 96 97 96 95 97 97 95 95 95 97 97 96 92 89 85 83 72 66 67 69 61 58 59 59 60 66 61 57 59 63 58 57 54 50 55 58 58 60 64 66 66 70 62 57 55 53 51 53 50 49 49 51 48 48 45 44 36 30 29 31 23 17 18 18 19 19 22 25 32 39 37 37 41 47 47 46 50 56 59 63 68 74 77 79 85 94 97 99 105 110 112 115 118 123 128 132 137 143 140 135 142 146 149 153 151 153 152 156 156 162 161 159 166 169 173 175 187 197 202 205 214 221 227 230 237 243 245 247 247 251 249 247 255 255 255 255 255 255 255 255 255 255 255 255 255 255 255 255 255 255 255 255 255 255 255 255 255 255 255 255 255 255 255 255 255 255 255 255 255 255 255 255 255 255 255 255 255 255 255 255 255 255 255 255 255 255 255 255 255 255 255 255 255 255 255 255 255 255 255 255 255 255 255 255 255 255 255 255 255 255 255 255 255 255 255 255 255 255 255 255 255 255 255 255 255 255 255 255 255 255 255 255 255 255 255 255 255 255 255 255 255 255 255 255 255 255 255 255 255 255 255 255 255 255 255 255 255 255 255 255 255 255 255 255 255 255 255 255 255 255 255 255 255 255 255 255 255 255 255 255 255 255 255 255 255 255 255 255 255 255 255 255 255 255 255 255 255 255 255 255
146 145 144 145 143 145 147 151 153 159 161 167 166 165 163 163 163 163 163 165 163 159 156 153 148 142 138 130 125 118 117 112 114 112 110 106 104 99 97 89 89 82 76 66 63 60 60 62 61 60 57 53 53 55 57 61 62 63 67 72 73 77 76 76 78 78 80 83 82 84 81 79 77 70 71 70 68 64 62 56 58 63 60 56 58 62 60 63 64 62 61 62 60 62 63 65 66 65 68 72 73 74 69 66 63 56 55 50 49 51 51 54 56 59 59 63 64 60 56 51 52 53 52 53 57 54 55 56 56 55 57 59 57 54 54 49 47 39 38 34 30 31 30 25 26 26 25 22 20 17 22 25 24 24 25 26 25 24 24 30 28 26 29 33 35 38 35 36 35 33 30 24 25 28 29 29 33 38 41 47 49 54 51 53 52 50 53 56 57 60 60 62 64 70 73 84 85 87 87 91 90 92 94 100 99 95 99 99 99 100 97 96 97 98 97 96 97 97 96 93 95 96 97 99 96 92 90 87 83 75 78 74 71 66 68 65 61 58 58 59 60 58 57 59 58 55 58 60 61 62 66 72 71 73 69 64 64 57 57 52 53 55 56 58 55 51 51 47 48 42 40 35 33 29 27 20 22 22 21 20 22 28 27 30 33 36 37 42 42 45 48 57 60 64 67 74 75 80 85 95 98 103 104 110 112 117 123 130 134 139 135 135 136 139 139 145 144 145 148 150 151 153 157 162 165 168 169 175 179 189 191 200 205 215 219 229 231 237 241 250 249 248 249 250 251 253 255 255 255 255 255 255 255 255 255 255 255 255 255 255 255 255 255 255 255 255 255 255 255 255 255 255 255 255 255 255 255 255 255 255 255 255 255 255 255 255 255 255 255 255 255 255 255 255 255 255 255 255 255 255 255 255 255 255 255 255 255 255 255 255 255 255 255 255 255 255 255 255 255 255 255 255 255 255 255 255 255 255 255 255 255 255 255 255 255 255 255 255 255 255 255 255 255 255 255 255 255 255 255 255 255 255 255 255 255 255 255 255 255 255 255 255 255 255 255 255 255 255 255 255 255 255 255 255 255 255 255 255 255 255 255 255 255 255 255 255 255 255 255 255 255 255 255 255 255 255 255 255 255 255 255 255 255 255 255 255 255 255 255 255 255 255 255
161 157 154 154 151 155 157 162 169 171 176 177 183 178 177 176 176 175 176 177 179 170 163 160 153 147 139 133 125 122 118 119 123 116 114 112 112 106 104 100 99 89 79 73 63 64 61 62 64 61 56 55 50 58 62 64 67 69 75 77 82 81 85 84 85 85 87 88 93 89 86 83 78 75 75 74 71 67 64 64 66 66 66 62 58 61 62 65 66 64 61 63 63 65 66 70 75 73 75 79 88 79 73 71 69 64 61 60 59 59 60 61 67 67 67 70 78 69 64 59 58 57 57 61 70 65 63 63 66 63 64 64 66 62 62 57 52 47 42 38 29 34 34 33 33 31 30 28 27 28 31 34 38 34 36 37 42 35 33 34 35 35 38 39 46 42 40 39 40 35 33 27 22 29 34 34 33 41 48 51 57 55 55 54 50 52 55 55 58 58 61 62 69 69 75 80 93 86 85 82 78 86 91 94 98 95 95 99 105 98 93 95 99 97 97 96 98 97 99 96 96 97 98 99 97 93 88 87 83 80 81 80 80 73 72 67 64 59 57 57 59 56 55 54 55 57 61 65 72 70 73 76 82 76 76 70 68 66 65 58 52 58 60 62 64 57 56 52 55 46 42 39 40 35 31 28 29 26 25 23 23 25 28 27 28 32 33 35 35 40 46 54 64 64 70 71 74 81 88 94 101 102 104 108 112 120 131 135 147 138 135 133 128 135 140 142 143 141 144 145 150 152 158 161 169 170 175 179 184 191 200 204 210 217 227 233 240 242 248 251 255 253 254 253 251 255 255 255 255 255 255 255 255 255 255 255 255 255 255 255 255 255 255 255 255 255 255 255 255 255 255 255 255 255 255 255 255 255 255 255 255 255 255 255 255 255 255 255 255 255 255 255 255 255 255 255 255 255 255 255 255 255 255 255 255 255 255 255 255 255 255 255 255 255 255 255 255 255 255 255 255 255 255 255 255 255 255 255 255 255 255 255 255 255 255 255 255 255 255 255 255 255 255 255 255 255 255 255 255 255 255 255 255 255 255 255 255 255 255 255 255 255 255 255 255 255 255 255 255 255 255 255 255 255 255 255 255 255 255 255 255 255 255 255 255 255 255 255 255 255 255 255 255 255 255 255 255 255 255 255 255 255 255 255 255 255 255 255 255 255 255 255 255
173 171 171 169 169 169 169 171 174 181 182 183 185 190 190 189 188 188 188 189 184 180 179 171 166 154 149 138 139 130 126 123 120 117 119 117 117 112 113 110 107 99 96 87 84 73 67 63 64 64 64 61 63 65 65 69 68 71 75 82 81 83 87 91 91 92 92 92 92 93 92 90 87 79 80 80 76 69 70 71 70 72 70 68 67 65 66 70 68 67 67 67 69 72 72 76 74 79 81 84 82 84 84 79 78 71 72 71 69 67 66 66 69 75 74 75 73 75 72 63 64 62 62 65 67 74 74 70 69 67 68 70 68 66 68 67 63 56 54 49 48 43 41 41 39 38 37 34 38 39 40 43 39 39 43 45 41 41 41 38 38 41 40 42 41 44 42 40 39 36 37 32 35 32 34 40 41 45 46 52 52 56 57 58 56 53 51 53 53 55 55 58 58 64 66 71 73 80 79 77 80 83 84 90 90 95 96 98 94 94 94 93 94 97 96 96 96 97 97 99 98 98 99 102 99 96 95 91 88 83 85 86 82 76 76 70 67 60 57 55 54 53 52 50 54 57 62 67 67 75 75 77 75 75 77 74 77 74 71 66 66 65 63 66 61 59 58 53 52 46 46 42 42 40 38 34 33 31 29 26 25 22 23 25 29 31 30 30 32 35 40 51 51 60 63 69 74 85 87 95 94 101 103 106 111 120 124 132 131 133 137 136 136 135 136 140 137 135 137 139 143 150 152 157 162 171 176 183 184 193 196 207 208 218 223 237 237 243 247 253 252 255 255 255 255 255 255 255 255 255 255 255 255 255 255 255 255 255 255 255 255 255 255 255 255 255 255 255 255 255 255 255 255 255 255 255 255 255 255 255 255 255 255 255 255 255 255 255 255 255 255 255 255 255 255 255 255 255 255 255 255 255 255 255 255 255 255 255 255 255 255 255 255 255 255 255 255 255 255 255 255 255 255 255 255 255 255 255 255 255 255 255 255 255 255 255 255 255 255 255 255 255 255 255 255 255 255 255 255 255 255 255 255 255 255 255 255 255 255 255 255 255 255 255 255 255 255 255 255 255 255 255 255 255 255 255 255 255 255 255 255 255 255 255 255 255 255 255 255 255 255 255 255 255 255 255 255 255 255 255 255 255 255 255 255 255 255 255 255 255 255 255 255
187 185 185 185 186 185 185 186 187 191 195 194 193 197 199 199 199 198 201 196 192 187 186 179 176 163 151 148 149 138 128 127 125 123 120 123 125 121 121 118 118 108 101 98 97 83 71 70 70 68 68 67 72 71 76 74 73 77 81 85 85 89 92 94 96 99 102 99 98 97 95 93 93 86 85 83 83 76 72 74 75 75 76 72 72 70 71 73 73 72 71 74 76 77 78 80 78 84 89 88 87 88 88 87 89 82 79 77 78 75 73 76 77 80 81 80 77 76 73 70 70 67 64 69 72 77 84 80 79 75 72 73 72 72 76 71 70 63 60 57 59 53 53 49 45 45 45 45 49 49 52 46 44 46 51 48 45 44 44 42 42 43 42 43 42 43 41 42 41 41 42 41 45 42 42 44 45 49 54 53 52 56 60 60 59 54 49 52 52 52 52 51 51 56 63 63 66 70 69 74 78 80 85 86 86 91 96 93 91 89 87 89 93 93 94 96 97 97 97 97 98 99 103 102 103 99 96 92 92 88 90 88 87 80 78 73 69 60 52 52 52 50 46 51 57 61 69 68 68 74 79 77 76 78 79 81 85 82 79 73 70 69 70 66 62 60 57 55 56 48 43 43 46 41 38 38 38 34 32 28 27 24 24 28 32 33 34 32 33 36 41 46 47 56 61 68 74 85 96 95 95 102 107 110 116 124 134 131 129 132 135 136 141 138 143 138 134 133 133 136 141 146 153 157 162 170 181 183 186 193 202 206 209 221 229 239 244 250 255 255 254 255 255 255 255 255 255 255 255 255 255 255 255 255 255 255 255 255 255 255 255 255 255 255 255 255 255 255 255 255 255 255 255 255 255 255 255 255 255 255 255 255 255 255 255 255 255 255 255 255 255 255 255 255 255 255 255 255 255 255 255 255 255 255 255 255 255 255 255 255 255 255 255 255 255 255 255 255 255 255 255 255 255 255 255 255 255 255 255 255 255 255 255 255 255 255 255 255 255 255 255 255 255 255 255 255 255 255 255 255 255 255 255 255 255 255 255 255 255 255 255 255 255 255 255 255 255 255 255 255 255 255 255 255 255 255 255 255 255 255 255 255 255 255 255 255 255 255 255 255 255 255 255 255 255 255 255 255 255 255 255 255 255 255 255 255 255 255 255 255 255 255 255
200 197 199 201 200 202 201 203 202 203 202 208 208 208 208 211 211 207 206 205 200 191 190 184 180 172 169 157 152 145 143 132 133 131 132 132 129 129 128 123 123 117 115 107 103 93 90 78 74 70 70 68 69 71 75 80 82 86 87 93 93 96 96 100 105 107 104 105 105 103 98 94 94 89 89 87 86 82 82 78 78 80 77 73 75 75 77 79 78 78 80 83 82 84 85 88 88 92 90 95 94 94 92 92 91 91 88 82 84 85 86 89 90 90 86 87 84 80 79 76 76 75 75 75 75 81 82 87 85 82 82 80 79 75 74 73 71 67 66 62 60 57 60 58 58 55 53 52 55 57 53 48 49 50 49 51 49 47 47 45 47 48 46 47 46 48 47 46 45 47 46 46 46 50 50 49 52 55 54 57 58 59 59 65 63 58 57 54 50 49 47 44 44 48 50 55 60 67 69 75 75 77 79 85 85 88 87 89 91 86 86 83 85 89 92 97 97 99 96 96 97 99 100 103 106 102 98 92 90 87 89 89 87 80 79 75 70 60 60 50 49 49 51 54 53 61 63 70 70 74 74 77 81 82 83 88 90 91 86 80 76 72 71 69 68 65 61 54 53 50 49 41 41 41 42 42 40 38 36 30 28 24 29 32 33 35 33 31 31 37 39 46 49 56 58 68 72 86 87 97 101 106 105 111 116 126 124 131 133 131 133 135 136 136 137 137 136 130 132 133 133 142 146 157 159 167 173 184 187 192 197 209 215 228 231 247 253 255 255 255 255 255 255 255 255 255 255 255 255 255 255 255 255 255 255 255 255 255 255 255 255 255 255 255 255 255 255 255 255 255 255 255 255 255 255 255 255 255 255 255 255 255 255 255 255 255 255 255 255 255 255 255 255 255 255 255 255 255 255 255 255 255 255 255 255 255 255 255 255 255 255 255 255 255 255 255 255 255 255 255 255 255 255 255 255 255 255 255 255 255 255 255 255 255 255 255 255 255 255 255 255 255 255 255 255 255 255 255 255 255 255 255 255 255 255 255 255 255 255 255 255 255 255 255 255 255 255 255 255 255 255 255 255 255 255 255 255 255 255 255 255 255 255 255 255 255 255 255 255 255 255 255 255 255 255 255 255 255 255 255 255 255 255 255 255 255 255 255 255 255 255 255 255
217 213 214 213 214 213 215 216 219 214 213 217 223 218 220 221 227 217 214 210 205 199 195 188 180 177 173 167 158 155 148 144 141 141 140 140 137 137 136 133 131 125 118 115 112 104 94 88 79 78 75 73 72 75 77 82 88 91 97 97 102 101 106 108 121 111 110 108 111 104 100 96 100 92 90 89 91 86 85 84 83 82 81 79 77 80 82 83 85 85 86 87 91 91 94 95 97 96 97 97 99 97 95 95 96 94 92 91 92 92 92 98 109 98 93 91 90 86 83 82 80 81 81 82 83 85 88 89 90 88 90 88 89 81 76 74 70 70 68 66 64 64 66 65 68 64 62 63 67 64 61 54 48 52 52 52 48 50 54 51 52 50 49 49 50 51 53 51 49 49 50 49 49 52 56 57 65 60 59 61 64 63 63 66 70 62 57 54 50 47 44 40 32 41 46 51 58 63 68 72 80 77 78 81 85 85 86 89 96 88 85 82 81 85 90 93 99 95 95 95 96 98 102 105 117 102 95 92 88 89 90 89 92 82 77 73 69 65 62 56 48 51 52 54 54 61 66 69 70 75 80 82 86 85 88 93 103 95 89 83 76 76 75 72 70 66 63 57 52 51 49 44 40 42 42 42 44 41 38 33 26 30 33 36 41 38 36 31 24 37 43 48 54 58 62 68 75 83 91 97 106 106 111 114 122 123 125 130 138 135 137 136 139 135 136 135 135 133 133 130 127 139 147 153 159 169 180 185 192 195 203 211 224 230 242 252 255 255 255 255 255 255 255 255 255 255 255 255 255 255 255 255 255 255 255 255 255 255 255 255 255 255 255 255 255 255 255 255 255 255 255 255 255 255 255 255 255 255 255 255 255 255 255 255 255 255 255 255 255 255 255 255 255 255 255 255 255 255 255 255 255 255 255 255 255 255 255 255 255 255 255 255 255 255 255 255 255 255 255 255 255 255 255 255 255 255 255 255 255 255 255 255 255 255 255 255 255 255 255 255 255 255 255 255 255 255 255 255 255 255 255 255 255 255 255 255 255 255 255 255 255 255 255 255 255 255 255 255 255 255 255 255 255 255 255 255 255 255 255 255 255 255 255 255 255 255 255 255 255 255 255 255 255 255 255 255 255 255 255 255 255 255 255 255 255 255 255 255 255 255 255 255 255
227 225 226 223 223 222 224 227 224 223 224 226 223 223 226 227 224 220 221 216 214 206 202 196 196 186 186 183 180 171 166 158 158 152 152 151 150 147 145 144 140 136 133 124 124 119 115 103 100 90 85 79 81 81 81 85 87 96 98 99 100 103 103 105 105 107 110 108 106 102 100 93 93 89 91 90 90 88 91 90 89 85 84 85 85 86 86 87 89 93 91 90 93 96 100 102 99 100 98 99 100 101 102 99 100 97 99 99 99 100 100 103 99 100 103 97 95 91 90 89 89 91 89 89 89 91 89 93 92 91 94 95 90 84 83 78 79 77 74 71 71 71 69 71 72 72 73 74 71 71 68 62 62 59 56 57 55 53 55 56 54 52 52 52 53 55 56 56 54 51 52 51 53 55 55 59 58 64 65 65 65 67 67 67 65 63 62 56 54 46 45 42 42 41 41 48 49 59 62 66 68 76 77 77 77 83 83 85 83 86 85 81 81 82 83 88 87 88 93 95 94 97 96 100 96 95 99 93 94 93 90 88 84 80 79 73 74 71 69 65 64 58 55 57 59 64 65 71 73 78 80 85 85 87 91 95 93 97 97 89 88 82 79 75 75 69 68 62 60 54 52 49 49 47 43 42 45 46 45 38 40 37 36 39 38 41 39 36 40 44 43 49 52 61 63 67 70 82 85 94 94 104 106 113 112 119 122 128 129 135 136 136 134 131 133 132 132 134 132 128 134 140 142 152 155 170 173 184 185 196 200 208 212 226 233 245 245 255 255 255 255 255 255 255 255 255 255 255 255 255 255 255 255 255 255 255 255 255 255 255 255 255 255 255 255 255 255 255 255 255 255 255 255 255 255 255 255 255 255 255 255 255 255 255 255 255 255 255 255 255 255 255 255 255 255 255 255 255 255 255 255 255 255 255 255 255 255 255 255 255 255 255 255 255 255 255 255 255 255 255 255 255 255 255 255 255 255 255 255 255 255 255 255 255 255 255 255 255 255 255 255 255 255 255 255 255 255 255 255 255 255 255 255 255 255 255 255 255 255 255 255 255 255 255 255 255 255 255 255 255 255 255 255 255 255 255 255 255 255 255 255 255 255 255 255 255 255 255 255 255 255 255 255 255 255 255 255 255 255 255 255 255 255 255 255 255 255 255 255 255 255 255 255
239 237 242 236 236 234 236 234 233 231 230 232 231 232 233 232 231 227 223 222 222 213 204 205 208 201 198 194 195 186 178 176 177 170 165 163 163 158 155 151 147 145 143 138 138 130 126 118 115 101 93 89 89 86 86 89 92 100 109 104 101 103 103 102 103 104 107 105 106 100 94 92 93 90 86 90 93 92 97 95 96 89 83 87 91 92 96 95 97 98 97 98 100 105 111 106 100 101 98 102 104 105 109 108 111 106 104 106 108 107 108 105 103 104 107 102 100 94 92 94 96 96 99 95 95 94 90 94 96 96 101 97 93 88 81 84 86 82 78 78 77 75 71 75 79 79 81 81 79 75 72 68 69 63 61 60 61 60 64 59 57 55 53 55 56 59 64 59 59 56 60 56 57 57 60 58 56 63 68 69 72 70 70 68 67 64 59 59 60 51 43 43 43 43 44 45 45 54 65 62 63 68 76 72 71 76 82 79 78 78 79 77 79 78 81 82 82 85 91 89 91 91 94 92 88 91 94 93 96 91 92 86 81 78 72 73 77 73 71 71 73 66 60 62 64 69 73 75 77 83 87 89 88 93 99 95 92 96 99 95 94 88 86 82 82 75 73 66 63 57 55 54 53 51 46 48 50 50 52 48 49 45 43 43 41 42 39 42 45 49 56 54 56 63 73 70 72 80 90 90 89 99 104 106 108 114 121 126 131 135 137 134 132 131 130 130 128 130 132 132 135 141 151 152 152 167 181 182 183 195 207 209 211 225 239 239 237 249 255 255 255 255 255 255 255 255 255 255 255 255 255 255 255 255 255 255 255 255 255 255 255 255 255 255 255 255 255 255 255 255 255 255 255 255 255 255 255 255 255 255 255 255 255 255 255 255 255 255 255 255 255 255 255 255 255 255 255 255 255 255 255 255 255 255 255 255 255 255 255 255 255 255 255 255 255 255 255 255 255 255 255 255 255 255 255 255 255 255 255 255 255 255 255 255 255 255 255 255 255 255 255 255 255 255 255 255 255 255 255 255 255 255 255 255 255 255 255 255 255 255 255 255 255 255 255 255 255 255 255 255 255 255 255 255 255 255 255 255 255 255 255 255 255 255 255 255 255 255 255 255 255 255 255 255 255 255 255 255 255 255 255 255 255 255 255 255 255 255 255 255 255 255 255
247 245 246 245 245 243 243 243 243 240 243 243 243 242 240 240 238 235 234 230 228 223 220 215 212 212 209 203 204 200 200 194 192 187 183 174 173 169 166 161 159 155 153 149 146 140 137 128 123 109 107 96 93 91 92 94 96 104 102 108 110 105 101 100 99 101 101 101 102 99 98 91 93 94 93 93 90 92 95 99 98 94 93 89 93 98 98 102 103 105 106 108 110 113 111 111 110 107 108 110 108 109 112 114 115 114 116 115 114 115 113 109 108 108 105 104 100 96 98 99 98 100 99 97 100 100 99 98 97 97 98 99 99 94 94 91 89 88 88 87 84 81 81 79 82 87 87 90 86 79 78 72 71 66 66 63 62 62 61 62 62 59 59 59 60 63 61 60 61 57 58 58 58 57 56 59 60 64 66 74 75 72 72 71 70 67 66 62 59 55 52 45 45 44 43 43 44 50 50 57 59 60 62 66 67 70 70 74 73 69 70 71 71 73 74 77 79 82 79 79 81 84 85 86 87 87 87 91 88 85 87 85 86 81 77 72 73 75 77 77 77 75 72 68 69 75 76 80 84 90 92 99 99 99 95 96 97 97 97 99 97 90 91 87 85 79 76 69 64 59 62 62 62 60 58 57 55 55 54 56 55 54 53 52 50 48 48 49 49 53 52 58 60 62 63 68 72 77 81 88 95 101 98 100 103 109 115 127 131 138 135 133 134 132 132 130 128 129 131 134 135 139 144 155 159 168 170 182 185 195 199 212 215 224 224 235 236 244 245 254 255 255 255 255 255 255 255 255 255 255 255 255 255 255 255 255 255 255 255 255 255 255 255 255 255 255 255 255 255 255 255 255 255 255 255 255 255 255 255 255 255 255 255 255 255 255 255 255 255 255 255 255 255 255 255 255 255 255 255 255 255 255 255 255 255 255 255 255 255 255 255 255 255 255 255 255 255 255 255 255 255 255 255 255 255 255 255 255 255 255 255 255 255 255 255 255 255 255 255 255 255 255 255 255 255 255 255 255 255 255 255 255 255 255 255 255 255 255 255 255 255 255 255 255 255 255 255 255 255 255 255 255 255 255 255 255 255 255 255 255 255 255 255 255 255 255 255 255 255 255 255 255 255 255 255 255 255 255 255 255 255 255 255 255 255 255 255 255 255 255 255 255 255
255 255 255 252 250 252 253 253 253 253 255 255 255 252 250 246 246 241 240 236 236 229 223 220 218 217 216 215 218 213 211 208 210 202 197 189 185 180 174 171 168 165 163 158 155 148 143 137 130 120 111 104 93 96 97 99 103 104 106 110 118 107 101 97 93 98 102 101 103 99 96 95 95 94 94 93 92 95 99 101 105 99 95 96 102 102 104 106 112 112 115 116 122 120 121 117 114 116 116 116 115 117 122 122 126 125 127 125 124 123 120 115 108 109 106 103 95 98 100 101 103 103 103 102 104 104 104 103 104 103 102 102 102 100 100 98 98 95 93 92 92 87 87 88 94 92 95 94 97 88 83 79 77 72 69 66 63 63 62 64 66 63 62 63 67 65 66 63 65 60 58 58 60 56 54 57 60 65 72 76 86 76 73 73 75 71 68 65 62 56 49 48 48 46 44 42 41 46 49 52 54 57 60 61 59 64 68 68 69 67 65 65 63 68 70 74 76 76 73 74 73 78 81 82 82 82 85 83 82 82 82 83 86 81 77 75 74 77 79 81 85 79 74 74 76 82 88 90 95 98 103 106 111 103 98 97 96 97 101 99 102 94 93 90 88 81 75 68 57 62 64 66 71 66 64 63 62 60 57 59 59 58 58 57 58 55 56 55 56 56 55 59 65 66 68 70 73 80 87 92 101 101 102 102 101 110 119 127 138 137 140 137 135 134 134 130 123 129 133 135 136 140 147 155 163 170 179 183 185 198 206 213 219 224 228 229 229 239 248 252 255 255 255 255 255 255 255 255 255 255 255 255 255 255 255 255 255 255 255 255 255 255 255 255 255 255 255 255 255 255 255 255 255 255 255 255 255 255 255 255 255 255 255 255 255 255 255 255 255 255 255 255 255 255 255 255 255 255 255 255 255 255 255 255 255 255 255 255 255 255 255 255 255 255 255 255 255 255 255 255 255 255 255 255 255 255 255 255 255 255 255 255 255 255 255 255 255 255 255 255 255 255 255 255 255 255 255 255 255 255 255 255 255 255 255 255 255 255 255 255 255 255 255 255 255 255 255 255 255 255 255 255 255 255 255 255 255 255 255 255 255 255 255 255 255 255 255 255 255 255 255 255 255 255 255 255 255 255 255 255 255 255 255 255 255 255 255 255 255 255 255 255 255
255 255 255 255 255 255 255 255 255 255 255 255 255 255 255 251 248 243 243 238 238 234 230 224 224 223 224 224 224 225 223 220 219 216 213 203 200 192 190 184 182 176 172 167 165 156 155 147 143 131 126 116 113 105 102 103 101 104 105 108 105 104 105 96 99 98 97 100 101 101 102 100 97 95 95 95 96 99 98 101 100 102 102 101 101 104 104 107 108 116 117 120 121 126 125 124 126 127 125 125 125 124 126 129 131 135 136 136 135 133 130 123 123 116 112 107 107 104 102 102 104 107 105 104 107 110 109 109 109 109 109 108 107 106 106 106 104 101 100 98 95 90 92 95 93 94 95 95 96 96 93 84 84 79 76 72 70 66 65 66 66 67 65 65 63 64 63 62 61 60 61 59 58 56 56 58 58 64 66 74 73 75 77 75 76 75 74 69 65 58 57 52 51 48 46 42 44 44 46 51 51 54 58 62 60 62 62 64 63 65 64 62 67 69 70 74 71 73 71 72 74 77 76 79 77 76 77 76 79 81 81 80 81 80 83 78 80 81 81 84 82 83 84 81 86 92 94 100 99 105 108 113 108 105 104 101 100 97 97 96 96 94 96 92 89 82 79 73 73 68 67 70 70 72 73 71 70 66 64 64 62 62 62 62 61 61 60 59 59 60 58 58 62 70 69 71 77 85 87 95 94 100 102 105 106 111 117 126 127 135 140 142 139 135 136 134 134 132 132 138 137 140 145 155 159 173 178 188 193 206 208 217 216 225 224 225 229 238 241 248 250 255 255 255 255 255 255 255 255 255 255 255 255 255 255 255 255 255 255 255 255 255 255 255 255 255 255 255 255 255 255 255 255 255 255 255 255 255 255 255 255 255 255 255 255 255 255 255 255 255 255 255 255 255 255 255 255 255 255 255 255 255 255 255 255 255 255 255 255 255 255 255 255 255 255 255 255 255 255 255 255 255 255 255 255 255 255 255 255 255 255 255 255 255 255 255 255 255 255 255 255 255 255 255 255 255 255 255 255 255 255 255 255 255 255 255 255 255 255 255 255 255 255 255 255 255 255 255 255 255 255 255 255 255 255 255 255 255 255 255 255 255 255 255 255 255 255 255 255 255 255 255 255 255 255 255 255 255 255 255 255 255 255 255 255 255 255 255 255 255 255 255 255
255 255 255 255 255 255 255 255 255 255 255 255 255 255 255 254 251 247 248 242 242 235 229 226 228 228 233 231 231 231 232 231 229 226 223 214 210 203 201 195 196 186 179 175 174 167 164 155 154 140 129 124 123 112 109 105 103 104 106 106 105 104 104 100 101 98 97 99 101 102 105 99 97 95 96 96 98 99 102 99 99 101 103 103 105 104 106 106 108 116 123 124 123 128 130 132 134 134 137 134 135 135 139 139 141 144 149 145 146 142 142 136 135 125 117 114 113 109 110 108 107 108 108 110 113 113 113 115 116 116 116 113 112 110 111 110 109 106 106 103 101 96 93 97 99 99 100 99 100 98 98 91 93 84 77 75 74 70 68 68 70 67 62 64 64 63 60 60 59 60 61 60 60 56 51 56 59 62 67 70 71 74 73 78 81 77 78 71 68 60 56 54 55 50 46 46 49 48 51 51 51 57 63 61 58 62 63 61 57 61 63 66 72 72 74 72 69 70 66 72 76 75 78 76 75 75 75 76 77 79 83 81 84 83 88 84 85 83 87 85 85 86 89 92 99 100 108 105 104 110 119 115 111 106 100 102 105 101 100 98 95 95 98 93 89 82 76 75 78 74 73 74 74 76 80 79 80 73 67 67 65 66 67 67 66 65 64 63 63 61 58 63 68 71 73 78 84 90 97 96 95 100 103 106 108 116 130 130 131 137 145 144 142 142 141 139 138 135 135 138 140 145 152 158 161 176 190 195 200 213 225 222 218 225 228 227 228 238 249 249 250 255 255 255 255 255 255 255 255 255 255 255 255 255 255 255 255 255 255 255 255 255 255 255 255 255 255 255 255 255 255 255 255 255 255 255 255 255 255 255 255 255 255 255 255 255 255 255 255 255 255 255 255 255 255 255 255 255 255 255 255 255 255 255 255 255 255 255 255 255 255 255 255 255 255 255 255 255 255 255 255 255 255 255 255 255 255 255 255 255 255 255 255 255 255 255 255 255 255 255 255 255 255 255 255 255 255 255 255 255 255 255 255 255 255 255 255 255 255 255 255 255 255 255 255 255 255 255 255 255 255 255 255 255 255 255 255 255 255 255 255 255 255 255 255 255 255 255 255 255 255 255 255 255 255 255 255 255 255 255 255 255 255 255 255 255 255 255 255 255 255 255 255
255 255 255 255 255 255 255 255 255 255 255 255 255 255 255 255 254 248 248 242 241 236 234 226 228 231 233 236 237 238 239 243 243 239 231 220 218 211 209 202 202 195 191 180 179 174 168 158 158 149 144 130 124 114 113 107 104 103 105 107 107 106 104 99 99 97 100 100 101 101 100 97 95 93 95 97 96 98 98 97 100 103 102 105 103 104 104 105 110 118 121 130 131 133 134 140 139 140 140 142 143 142 145 149 151 154 150 149 151 149 147 144 141 132 129 121 117 112 114 115 113 110 114 118 117 117 120 124 122 123 120 117 115 111 113 114 113 109 109 107 106 102 102 102 102 104 102 101 100 99 97 92 92 87 86 80 77 75 73 70 72 71 70 68 65 65 63 60 61 63 61 60 59 58 58 58 57 61 65 71 73 77 78 83 80 77 75 71 68 58 59 56 53 52 50 47 47 51 51 54 57 61 60 63 64 66 63 61 60 62 63 69 70 73 72 74 73 72 71 74 72 72 73 74 75 76 75 78 77 76 77 79 82 83 85 87 84 81 84 87 87 87 92 100 100 104 106 110 115 115 114 118 116 108 109 105 103 103 104 102 99 94 95 94 89 82 82 75 76 77 79 79 80 80 83 86 85 81 79 74 72 73 71 73 72 72 69 66 65 66 66 68 69 73 78 86 87 94 92 98 99 102 104 110 110 116 121 134 136 140 141 148 150 150 146 144 140 136 139 140 141 148 152 164 169 182 185 202 212 223 221 228 229 229 228 230 231 239 240 251 253 255 255 255 255 255 255 255 255 255 255 255 255 255 255 255 255 255 255 255 255 255 255 255 255 255 255 255 255 255 255 255 255 255 255 255 255 255 255 255 255 255 255 255 255 255 255 255 255 255 255 255 255 255 255 255 255 255 255 255 255 255 255 255 255 255 255 255 255 255 255 255 255 255 255 255 255 255 255 255 255 255 255 255 255 255 255 255 255 255 255 255 255 255 255 255 255 255 255 255 255 255 255 255 255 255 255 255 255 255 255 255 255 255 255 255 255 255 255 255 255 255 255 255 255 255 255 255 255 255 255 255 255 255 255 255 255 255 255 255 255 255 255 255 255 255 255 255 255 255 255 255 255 255 255 255 255 255 255 255 255 255 255 255 255 255 255 255 255 255 255 255 255
255 255 255 255 255 255 255 255 255 255 255 255 255 255 255 255 254 255 254 248 239 239 234 231 226 234 238 240 243 243 247 249 255 246 239 229 221 219 214 212 211 201 195 189 185 176 168 164 161 153 144 136 125 118 111 107 97 105 109 109 109 108 107 104 98 101 105 105 109 105 103 97 86 92 93 94 94 98 101 100 99 103 104 103 100 103 105 108 113 121 130 133 139 138 141 143 147 145 145 148 153 150 154 155 162 157 156 155 159 154 152 148 149 137 129 125 119 119 119 119 117 120 123 125 128 127 129 129 131 127 124 121 119 117 117 119 120 115 113 111 109 107 105 107 112 108 106 103 100 100 99 95 93 89 85 82 77 78 75 76 79 76 73 71 68 67 63 63 61 63 63 61 58 58 57 58 60 64 70 72 77 77 81 83 89 79 73 70 66 60 56 54 51 51 49 47 45 48 52 55 64 63 67 66 67 67 68 64 57 63 65 71 76 73 71 72 74 72 72 73 76 72 71 72 75 72 72 74 81 76 77 79 86 84 86 85 81 83 86 88 90 92 98 103 107 108 114 117 128 121 122 121 122 116 114 110 104 106 106 103 100 98 98 92 83 84 83 80 77 79 82 84 88 88 92 92 94 87 83 80 76 76 76 76 77 75 73 70 67 68 68 72 79 79 85 88 95 93 93 96 100 105 110 111 112 120 129 135 141 142 146 150 159 151 150 146 142 142 143 143 142 151 159 169 179 186 198 210 234 230 235 235 237 235 235 233 229 239 245 249 252 255 255 255 255 255 255 255 255 255 255 255 255 255 255 255 255 255 255 255 255 255 255 255 255 255 255 255 255 255 255 255 255 255 255 255 255 255 255 255 255 255 255 255 255 255 255 255 255 255 255 255 255 255 255 255 255 255 255 255 255 255 255 255 255 255 255 255 255 255 255 255 255 255 255 255 255 255 255 255 255 255 255 255 255 255 255 255 255 255 255 255 255 255 255 255 255 255 255 255 255 255 255 255 255 255 255 255 255 255 255 255 255 255 255 255 255 255 255 255 255 255 255 255 255 255 255 255 255 255 255 255 255 255 255 255 255 255 255 255 255 255 255 255 255 255 255 255 255 255 255 255 255 255 255 255 255 255 255 255 255 255 255 255 255 255 255 255 255 255 255 255 255
255 255 255 255 255 255 255 255 255 255 255 255 255 255 255 255 255 255 255 255 255 248 245 240 243 243 241 245 244 244 246 248 248 248 248 239 240 232 227 223 217 206 204 197 191 178 177 170 167 158 155 145 140 124 122 114 115 114 110 111 110 111 112 112 111 106 106 107 108 109 108 103 104 99 94 95 97 101 100 104 104 107 106 104 106 105 107 110 115 125 127 136 136 139 143 147 147 150 151 152 150 151 154 158 155 157 158 158 158 156 154 150 147 141 138 132 132 129 126 125 127 131 130 133 133 135 135 134 134 132 130 125 127 122 124 125 121 119 119 118 117 114 113 111 111 110 110 105 107 105 102 97 97 91 92 89 87 85 82 81 80 81 79 76 75 72 71 68 67 67 66 64 62 61 59 60 62 67 66 72 73 76 79 80 79 80 78 70 67 60 58 56 55 53 52 49 48 46 48 53 56 63 67 67 68 68 70 70 71 71 69 74 70 72 73 72 71 72 72 72 70 70 71 71 68 67 67 68 69 73 75 76 77 82 84 86 86 86 86 89 90 93 99 107 105 107 111 119 117 121 122 122 122 121 121 117 117 111 110 107 108 103 102 96 97 91 89 86 85 82 85 90 88 92 94 98 96 93 92 89 86 81 78 78 79 81 79 74 76 74 74 74 76 80 83 86 88 92 94 96 99 109 109 112 117 125 127 136 136 144 146 150 147 148 152 151 150 148 148 149 151 158 162 175 175 187 194 208 212 231 237 241 241 241 241 241 242 243 242 249 251 255 255 255 255 255 255 255 255 255 255 255 255 255 255 255 255 255 255 255 255 255 255 255 255 255 255 255 255 255 255 255 255 255 255 255 255 255 255 255 255 255 255 255 255 255 255 255 255 255 255 255 255 255 255 255 255 255 255 255 255 255 255 255 255 255 255 255 255 255 255 255 255 255 255 255 255 255 255 255 255 255 255 255 255 255 255 255 255 255 255 255 255 255 255 255 255 255 255 255 255 255 255 255 255 255 255 255 255 255 255 255 255 255 255 255 255 255 255 255 255 255 255 255 255 255 255 255 255 255 255 255 255 255 255 255 255 255 255 255 255 255 255 255 255 255 255 255 255 255 255 255 255 255 255 255 255 255 255 255 255 255 255 255 255 255 255 255 255 255 255 255 255
255 255 255 255 255 255 255 255 255 255 255 255 255 255 255 255 255 255 255 255 255 255 255 254 255 253 251 251 249 249 250 251 251 250 247 248 252 242 235 230 227 215 205 198 196 184 177 174 174 162 156 149 147 133 125 122 124 119 118 113 110 114 119 117 119 114 116 113 111 112 113 111 113 104 96 99 99 101 102 105 106 109 114 111 112 112 116 118 121 129 137 141 141 145 148 149 152 154 158 156 154 155 157 157 154 156 156 161 163 158 153 150 148 141 133 136 140 135 131 133 135 140 142 141 141 144 145 143 143 138 133 134 137 131 130 127 126 123 120 121 124 121 121 119 120 115 114 113 115 110 107 105 104 99 95 94 92 90 88 86 84 84 83 80 81 76 76 73 73 71 72 66 63 61 59 63 65 68 68 71 74 78 86 81 78 77 74 69 67 60 52 55 58 56 55 51 50 48 50 55 59 65 74 72 73 75 78 77 78 77 77 75 70 73 74 73 71 71 72 70 69 67 67 66 63 61 58 61 64 67 70 71 73 78 83 84 88 87 89 90 92 98 106 109 109 111 113 116 115 118 120 122 125 123 124 124 127 122 120 116 117 112 112 106 105 99 96 93 90 90 93 93 90 95 99 102 101 98 95 94 94 87 79 80 82 84 87 82 83 81 81 80 83 84 88 88 89 92 94 97 100 109 118 119 123 129 136 137 138 145 151 148 145 148 153 152 152 151 155 153 156 162 175 178 181 192 204 208 211 229 244 246 248 247 246 248 249 249 250 252 251 255 255 255 255 255 255 255 255 255 255 255 255 255 255 255 255 255 255 255 255 255 255 255 255 255 255 255 255 255 255 255 255 255 255 255 255 255 255 255 255 255 255 255 255 255 255 255 255 255 255 255 255 255 255 255 255 255 255 255 255 255 255 255 255 255 255 255 255 255 255 255 255 255 255 255 255 255 255 255 255 255 255 255 255 255 255 255 255 255 255 255 255 255 255 255 255 255 255 255 255 255 255 255 255 255 255 255 255 255 255 255 255 255 255 255 255 255 255 255 255 255 255 255 255 255 255 255 255 255 255 255 255 255 255 255 255 255 255 255 255 255 255 255 255 255 255 255 255 255 255 255 255 255 255 255 255 255 255 255 255 255 255 255 255 255 255 255 255 255 255 255 255
255 255 255 255 255 255 255 255 255 255 255 255 255 255 255 255 255 255 255 255 255 255 255 255 255 255 255 255 255 255 255 255 255 255 255 255 253 249 246 237 233 223 214 196 192 185 185 175 173 163 160 150 145 136 135 127 125 122 120 116 117 116 116 118 120 118 120 118 120 116 116 115 116 110 111 106 104 103 105 109 110 112 114 117 117 118 120 125 126 134 138 150 151 152 152 152 153 156 157 162 161 158 159 161 160 160 162 167 164 162 158 149 148 143 144 141 140 141 142 141 146 152 149 151 152 155 152 152 150 145 144 143 139 135 135 130 131 128 127 124 126 127 125 124 123 119 121 118 119 115 116 112 110 106 104 100 99 96 95 93 93 91 86 82 82 78 79 77 79 74 72 65 65 62 64 68 68 72 70 72 73 79 77 81 80 77 73 66 66 62 61 57 57 59 56 53 50 47 52 58 60 65 68 77 81 84 82 84 84 83 82 80 79 76 74 76 73 69 69 68 67 65 65 63 60 56 57 57 57 62 63 66 71 76 76 80 84 88 89 91 93 102 104 115 116 115 117 120 118 117 120 124 124 125 129 130 132 133 129 121 120 117 115 111 110 106 105 101 99 98 99 101 100 102 104 111 109 106 103 98 99 96 92 83 85 89 86 84 86 86 84 82 85 88 87 89 90 93 95 99 102 111 113 123 126 134 134 139 145 150 146 148 149 149 150 155 153 150 151 155 156 162 168 182 188 199 200 212 216 231 234 251 254 255 255 255 255 255 255 255 255 255 255 255 255 255 255 255 255 255 255 255 255 255 255 255 255 255 255 255 255 255 255 255 255 255 255 255 255 255 255 255 255 255 255 255 255 255 255 255 255 255 255 255 255 255 255 255 255 255 255 255 255 255 255 255 255 255 255 255 255 255 255 255 255 255 255 255 255 255 255 255 255 255 255 255 255 255 255 255 255 255 255 255 255 255 255 255 255 255 255 255 255 255 255 255 255 255 255 255 255 255 255 255 255 255 255 255 255 255 255 255 255 255 255 255 255 255 255 255 255 255 255 255 255 255 255 255 255 255 255 255 255 255 255 255 255 255 255 255 255 255 255 255 255 255 255 255 255 255 255 255 255 255 255 255 255 255 255 255 255 255 255 255 255 255 255 255 255 255 255 255 255
255 255 255 255 255 255 255 255 255 255 255 255 255 255 255 255 255 255 255 255 255 255 255 255 255 255 255 255 255 255 255 255 255 255 255 255 255 253 247 242 239 224 213 199 185 186 184 179 180 166 156 150 141 137 132 129 129 124 120 117 118 118 120 121 126 124 125 127 132 125 122 122 126 120 117 115 112 113 112 114 117 120 124 122 120 123 125 130 131 139 149 157 168 162 163 160 158 159 159 163 169 163 164 164 164 163 167 169 174 164 159 153 150 147 144 145 147 145 148 152 163 160 161 161 163 163 163 161 159 153 148 148 146 142 140 136 136 132 131 131 135 130 128 128 129 126 127 126 130 124 122 117 117 112 109 106 106 104 101 101 102 96 90 87 86 83 82 83 89 81 77 70 63 65 65 69 75 72 72 73 75 77 76 77 77 75 72 69 65 61 59 58 60 57 55 52 47 51 56 60 67 68 73 80 90 88 89 90 91 89 89 86 84 80 76 77 75 73 71 68 63 63 63 59 54 53 52 54 54 59 62 66 73 74 77 81 87 88 91 91 93 101 110 117 129 122 124 123 122 123 124 126 128 131 137 139 144 138 135 130 124 121 117 116 113 111 110 106 103 106 107 108 106 110 115 117 122 114 109 107 108 100 95 91 89 90 90 88 88 86 87 87 91 89 90 90 90 95 99 102 105 113 121 126 130 133 140 144 156 151 150 148 148 150 153 153 156 151 150 151 154 163 175 184 197 201 209 214 219 231 244 252 255 255 255 255 255 255 255 255 255 255 255 255 255 255 255 255 255 255 255 255 255 255 255 255 255 255 255 255 255 255 255 255 255 255 255 255 255 255 255 255 255 255 255 255 255 255 255 255 255 255 255 255 255 255 255 255 255 255 255 255 255 255 255 255 255 255 255 255 255 255 255 255 255 255 255 255 255 255 255 255 255 255 255 255 255 255 255 255 255 255 255 255 255 255 255 255 255 255 255 255 255 255 255 255 255 255 255 255 255 255 255 255 255 255 255 255 255 255 255 255 255 255 255 255 255 255 255 255 255 255 255 255 255 255 255 255 255 255 255 255 255 255 255 255 255 255 255 255 255 255 255 255 255 255 255 255 255 255 255 255 255 255 255 255 255 255 255 255 255 255 255 255 255 255 255 255 255 255 255 255 255
255 255 255 255 255 255 255 255 255 255 255 255 255 255 255 255 255 255 255 255 255 255 255 255 255 255 255 255 255 255 255 255 255 255 255 255 255 255 252 245 239 224 220 202 203 190 185 179 177 168 165 153 152 141 136 131 129 126 122 116 119 119 122 122 124 130 131 133 129 131 130 127 129 130 130 128 127 125 122 120 123 128 127 127 130 132 134 139 138 144 149 161 158 165 167 167 166 163 162 165 162 162 166 168 166 163 165 170 166 162 163 155 157 153 153 151 149 147 150 158 158 167 169 170 171 173 173 172 169 163 161 155 152 149 144 140 139 135 135 136 134 132 135 131 132 132 131 131 129 129 126 119 121 117 116 111 114 113 113 111 107 104 99 90 91 88 87 86 84 84 82 77 76 71 70 71 69 72 73 74 75 79 77 75 76 77 75 73 69 61 61 58 56 56 57 54 56 56 56 61 61 69 73 81 82 90 93 96 95 94 93 91 89 84 84 82 80 77 75 72 69 63 63 58 58 52 53 54 55 59 60 63 65 70 75 82 81 86 87 91 94 102 106 116 115 123 126 126 128 129 129 129 132 136 141 148 144 142 145 141 137 129 127 123 122 116 115 112 116 118 117 119 118 120 118 122 120 119 119 114 110 103 104 98 96 92 93 92 89 85 87 90 88 90 91 94 95 100 101 107 108 117 121 130 128 131 135 144 144 150 150 149 150 152 151 151 151 149 150 148 152 162 166 182 184 199 205 216 221 231 236 248 250 255 255 255 255 255 255 255 255 255 255 255 255 255 255 255 255 255 255 255 255 255 255 255 255 255 255 255 255 255 255 255 255 255 255 255 255 255 255 255 255 255 255 255 255 255 255 255 255 255 255 255 255 255 255 255 255 255 255 255 255 255 255 255 255 255 255 255 255 255 255 255 255 255 255 255 255 255 255 255 255 255 255 255 255 255 255 255 255 255 255 255 255 255 255 255 255 255 255 255 255 255 255 255 255 255 255 255 255 255 255 255 255 255 255 255 255 255 255 255 255 255 255 255 255 255 255 255 255 255 255 255 255 255 255 255 255 255 255 255 255 255 255 255 255 255 255 255 255 255 255 255 255 255 255 255 255 255 255 255 255 255 255 255 255 255 255 255 255 255 255 255 255 255 255 255 255 255 255 255 255
255 255 255 255 255 255 255 255 255 255 255 255 255 255 255 255 255 255 255 255 255 255 255 255 255 255 255 255 255 255 255 255 255 255 255 255 255 255 247 244 241 226 216 207 207 194 187 180 177 169 160 156 158 144 133 130 130 123 117 119 122 124 130 127 126 131 138 134 130 132 132 135 140 138 137 136 138 134 132 131 133 135 138 137 139 142 146 146 146 153 162 161 158 165 171 170 171 168 165 165 162 164 167 168 169 166 166 166 166 163 162 159 163 157 158 155 155 151 151 157 162 170 177 177 181 182 186 183 181 173 167 162 159 151 143 142 141 137 133 135 137 138 142 138 139 135 135 132 132 129 126 123 126 120 119 119 123 120 122 117 114 109 103 97 96 93 91 89 85 83 78 79 82 77 75 72 70 71 72 76 78 79 81 78 78 77 75 73 73 64 61 56 53 55 58 56 59 59 63 62 61 70 76 82 86 92 97 100 101 100 98 96 93 89 86 86 86 81 77 73 70 68 69 63 61 56 55 56 57 61 65 64 66 71 77 79 81 83 87 90 94 103 113 113 113 121 127 129 134 134 138 137 140 145 154 152 150 151 153 146 144 136 133 131 132 126 121 122 127 127 128 128 127 127 126 125 125 124 123 119 116 109 107 103 102 98 99 94 91 88 88 89 88 91 92 96 97 102 107 109 110 121 133 132 130 134 138 142 142 147 147 148 152 152 155 152 152 149 150 148 150 158 169 177 182 198 210 220 228 236 247 249 248 255 255 255 255 255 255 255 255 255 255 255 255 255 255 255 255 255 255 255 255 255 255 255 255 255 255 255 255 255 255 255 255 255 255 255 255 255 255 255 255 255 255 255 255 255 255 255 255 255 255 255 255 255 255 255 255 255 255 255 255 255 255 255 255 255 255 255 255 255 255 255 255 255 255 255 255 255 255 255 255 255 255 255 255 255 255 255 255 255 255 255 255 255 255 255 255 255 255 255 255 255 255 255 255 255 255 255 255 255 255 255 255 255 255 255 255 255 255 255 255 255 255 255 255 255 255 255 255 255 255 255 255 255 255 255 255 255 255 255 255 255 255 255 255 255 255 255 255 255 255 255 255 255 255 255 255 255 255 255 255 255 255 255 255 255 255 255 255 255 255 255 255 255 255 255 255 255 255 255 255
255 255 255 255 255 255 255 255 255 255 255 255 255 255 255 255 255 255 255 255 255 255 255 255 255 255 255 255 255 255 255 255 255 255 255 255 255 255 254 245 237 223 221 206 203 192 191 179 179 172 168 156 154 147 143 129 128 122 124 122 122 126 126 130 130 132 132 137 137 137 137 141 143 145 145 144 143 143 143 139 141 142 142 147 148 151 151 153 157 161 159 164 165 167 167 171 174 173 172 168 167 167 167 170 168 169 167 165 166 162 162 159 157 157 158 158 155 151 155 160 164 174 173 181 184 190 190 193 193 184 178 168 163 153 153 146 143 139 138 134 137 143 142 143 142 137 137 133 134 132 130 123 122 119 123 123 123 124 124 124 121 115 110 102 101 99 97 94 93 88 85 79 79 80 77 73 73 73 75 80 79 79 80 81 80 80 78 74 70 63 63 55 52 53 53 54 57 58 61 65 68 74 77 88 92 97 100 107 108 108 104 103 101 96 95 92 90 86 82 73 73 70 68 64 61 56 60 58 61 65 62 63 67 71 72 79 78 80 84 89 96 105 105 111 116 122 123 131 133 138 137 141 144 150 151 157 162 159 153 147 146 139 141 138 137 136 134 130 133 136 137 140 139 137 134 130 131 129 127 123 121 113 113 108 106 101 101 97 93 88 91 93 92 94 96 102 102 105 109 115 118 125 126 137 138 139 140 145 147 149 147 147 149 152 151 151 150 146 147 145 143 154 162 178 186 203 208 228 232 241 244 253 255 255 255 255 255 255 255 255 255 255 255 255 255 255 255 255 255 255 255 255 255 255 255 255 255 255 255 255 255 255 255 255 255 255 255 255 255 255 255 255 255 255 255 255 255 255 255 255 255 255 255 255 255 255 255 255 255 255 255 255 255 255 255 255 255 255 255 255 255 255 255 255 255 255 255 255 255 255 255 255 255 255 255 255 255 255 255 255 255 255 255 255 255 255 255 255 255 255 255 255 255 255 255 255 255 255 255 255 255 255 255 255 255 255 255 255 255 255 255 255 255 255 255 255 255 255 255 255 255 255 255 255 255 255 255 255 255 255 255 255 255 255 255 255 255 255 255 255 255 255 255 255 255 255 255 255 255 255 255 255 255 255 255 255 255 255 255 255 255 255 255 255 255 255 255 255 255 255 255 255 255
255 255 255 255 255 255 255 255 255 255 255 255 255 255 255 255 255 255 255 255 255 255 255 255 255 255 255 255 255 255 255 255 255 255 255 255 255 255 251 244 233 224 215 208 199 194 189 184 178 173 167 159 153 147 138 134 129 127 125 125 126 126 126 129 131 133 135 136 137 139 141 147 154 150 151 149 150 151 152 150 151 149 149 153 157 158 162 163 171 166 166 167 170 169 172 174 182 177 176 172 171 171 171 170 166 168 168 168 172 165 162 159 152 155 157 157 156 154 156 162 173 173 177 183 191 192 197 199 211 191 179 173 167 161 157 152 144 143 141 140 140 144 148 146 146 141 140 139 138 136 133 127 121 124 125 125 127 125 126 125 126 117 109 105 101 102 100 98 100 94 90 85 81 81 76 76 73 76 78 81 85 84 85 83 81 81 80 75 71 66 61 54 40 50 53 54 58 61 65 68 73 79 86 95 107 105 110 112 120 111 107 105 109 102 99 97 97 91 86 80 74 73 70 65 58 62 65 64 67 65 65 66 69 70 72 75 79 81 87 92 103 106 112 114 121 123 128 130 136 137 138 143 149 152 158 163 178 163 156 150 147 145 144 144 143 142 140 142 146 144 146 147 151 146 144 141 139 136 131 129 125 121 117 113 108 109 107 102 91 95 95 96 96 99 100 106 111 114 119 122 125 129 135 138 145 143 146 148 156 151 152 150 151 151 151 150 148 148 147 141 125 150 167 180 195 205 219 231 250 247 254 255 255 255 255 255 255 255 255 255 255 255 255 255 255 255 255 255 255 255 255 255 255 255 255 255 255 255 255 255 255 255 255 255 255 255 255 255 255 255 255 255 255 255 255 255 255 255 255 255 255 255 255 255 255 255 255 255 255 255 255 255 255 255 255 255 255 255 255 255 255 255 255 255 255 255 255 255 255 255 255 255 255 255 255 255 255 255 255 255 255 255 255 255 255 255 255 255 255 255 255 255 255 255 255 255 255 255 255 255 255 255 255 255 255 255 255 255 255 255 255 255 255 255 255 255 255 255 255 255 255 255 255 255 255 255 255 255 255 255 255 255 255 255 255 255 255 255 255 255 255 255 255 255 255 255 255 255 255 255 255 255 255 255 255 255 255 255 255 255 255 255 255 255 255 255 255 255 255 255 255 255 255
255 255 255 255 255 255 255 255 255 255 255 255 255 255 255 255 255 255 255 255 255 255 255 255 255 255 255 255 255 255 255 255 255 255 255 255 255 255 255 247 244 228 224 213 209 198 195 190 186 176 170 160 161 153 149 142 139 133 130 130 129 129 129 131 131 134 134 137 140 144 147 154 151 152 154 153 157 159 159 160 158 154 156 159 160 165 165 166 166 167 171 170 169 170 169 171 174 178 178 174 177 176 175 173 172 170 168 169 167 166 166 163 161 154 154 157 155 153 157 162 162 170 177 185 184 190 194 197 194 192 192 180 178 167 166 161 158 150 147 145 146 148 147 147 147 144 147 146 145 142 139 132 134 132 128 128 126 125 125 126 125 120 118 108 110 108 104 100 101 101 99 93 92 88 85 83 82 81 80 81 83 87 88 87 87 86 83 78 76 72 69 61 62 57 52 54 58 65 65 71 75 86 89 99 98 106 110 111 109 109 108 103 106 106 106 102 100 96 94 87 86 79 76 69 72 71 67 69 68 66 68 70 67 68 68 72 74 80 83 91 94 106 108 112 116 122 123 128 130 136 139 145 145 151 153 160 158 161 162 153 157 153 152 152 151 151 152 152 148 149 150 152 152 153 154 152 149 146 143 137 135 130 126 122 123 120 116 113 112 108 105 103 104 106 107 112 114 122 124 129 130 134 133 136 138 144 145 148 147 150 151 153 153 152 151 151 152 151 152 147 154 156 160 183 184 206 212 229 230 246 252 255 255 255 255 255 255 255 255 255 255 255 255 255 255 255 255 255 255 255 255 255 255 255 255 255 255 255 255 255 255 255 255 255 255 255 255 255 255 255 255 255 255 255 255 255 255 255 255 255 255 255 255 255 255 255 255 255 255 255 255 255 255 255 255 255 255 255 255 255 255 255 255 255 255 255 255 255 255 255 255 255 255 255 255 255 255 255 255 255 255 255 255 255 255 255 255 255 255 255 255 255 255 255 255 255 255 255 255 255 255 255 255 255 255 255 255 255 255 255 255 255 255 255 255 255 255 255 255 255 255 255 255 255 255 255 255 255 255 255 255 255 255 255 255 255 255 255 255 255 255 255 255 255 255 255 255 255 255 255 255 255 255 255 255 255 255 255 255 255 255 255 255 255 255 255 255 255 255 255 255 255 255
255 255 255 255 255 255 255 255 255 255 255 255 255 255 255 255 255 255 255 255 255 255 255 255 255 255 255 255 255 255 255 255 255 255 255 255 255 255 255 250 251 235 225 215 213 201 194 193 192 181 169 166 165 156 150 145 144 136 129 132 134 133 131 133 136 136 134 139 145 149 155 158 158 159 158 162 166 167 170 168 169 165 162 166 168 171 175 172 170 173 176 173 171 169 168 172 175 178 180 179 182 180 180 178 177 172 169 169 167 165 164 165 166 160 155 155 154 155 159 162 163 172 182 184 185 192 201 196 192 189 186 184 189 175 169 168 167 158 149 149 151 152 156 152 152 151 153 153 153 150 147 144 142 137 134 130 126 125 124 127 129 124 119 116 116 112 108 106 104 103 102 99 99 93 89 88 89 87 85 86 88 90 93 91 90 87 87 81 77 74 73 69 71 63 59 59 60 64 69 74 79 88 101 102 102 109 117 111 109 106 102 105 109 107 107 105 106 100 96 94 93 87 82 80 81 77 73 73 73 72 72 69 67 67 65 68 73 77 82 87 92 102 111 114 118 121 121 126 130 135 141 143 146 149 153 154 153 157 158 160 166 161 156 158 158 159 164 158 152 152 154 156 160 159 160 157 157 152 150 145 143 136 129 131 134 129 124 122 122 119 119 115 114 114 114 119 125 131 136 137 139 140 139 139 139 143 146 147 147 148 148 152 155 154 151 154 156 160 165 163 166 171 179 184 183 205 221 226 226 243 255 255 255 255 255 255 255 255 255 255 255 255 255 255 255 255 255 255 255 255 255 255 255 255 255 255 255 255 255 255 255 255 255 255 255 255 255 255 255 255 255 255 255 255 255 255 255 255 255 255 255 255 255 255 255 255 255 255 255 255 255 255 255 255 255 255 255 255 255 255 255 255 255 255 255 255 255 255 255 255 255 255 255 255 255 255 255 255 255 255 255 255 255 255 255 255 255 255 255 255 255 255 255 255 255 255 255 255 255 255 255 255 255 255 255 255 255 255 255 255 255 255 255 255 255 255 255 255 255 255 255 255 255 255 255 255 255 255 255 255 255 255 255 255 255 255 255 255 255 255 255 255 255 255 255 255 255 255 255 255 255 255 255 255 255 255 255 255 255 255 255 255 255 255 255 255 255 255 255 255 255 255 255
255 255 255 255 255 255 255 255 255 255 255 255 255 255 255 255 255 255 255 255 255 255 255 255 255 255 255 255 255 255 255 255 255 255 255 255 255 253 254 249 247 236 230 212 209 199 202 198 194 187 182 171 166 159 154 144 144 139 139 135 135 139 139 137 139 143 142 142 146 154 156 165 166 170 170 174 173 176 174 174 177 177 176 175 175 179 178 177 179 180 176 176 172 168 172 175 176 180 180 183 183 184 184 183 181 174 174 172 169 165 167 168 167 165 163 156 154 156 158 164 166 173 176 186 189 194 192 195 191 186 186 184 182 177 180 175 174 166 162 153 151 153 153 153 156 156 157 160 159 159 157 155 151 142 139 132 129 125 129 131 130 129 127 122 121 118 117 115 112 108 105 102 100 98 97 94 95 96 94 91 93 95 94 94 93 88 87 83 82 77 76 71 71 67 67 65 63 64 68 77 78 88 94 106 109 112 109 110 109 105 107 108 106 107 107 108 107 102 103 100 97 94 92 89 86 84 82 80 79 77 74 70 69 68 66 65 68 73 77 83 88 100 104 117 120 124 124 128 129 136 137 141 144 148 148 151 153 157 158 164 166 170 169 167 167 165 165 164 161 156 156 158 161 163 161 160 159 156 155 151 150 145 145 141 142 140 136 131 130 128 127 124 122 122 123 126 132 142 141 144 147 148 146 144 143 146 147 150 149 148 152 154 156 159 159 158 162 168 169 174 177 184 184 191 198 213 214 229 232 246 249 255 255 255 255 255 255 255 255 255 255 255 255 255 255 255 255 255 255 255 255 255 255 255 255 255 255 255 255 255 255 255 255 255 255 255 255 255 255 255 255 255 255 255 255 255 255 255 255 255 255 255 255 255 255 255 255 255 255 255 255 255 255 255 255 255 255 255 255 255 255 255 255 255 255 255 255 255 255 255 255 255 255 255 255 255 255 255 255 255 255 255 255 255 255 255 255 255 255 255 255 255 255 255 255 255 255 255 255 255 255 255 255 255 255 255 255 255 255 255 255 255 255 255 255 255 255 255 255 255 255 255 255 255 255 255 255 255 255 255 255 255 255 255 255 255 255 255 255 255 255 255 255 255 255 255 255 255 255 255 255 255 255 255 255 255 255 255 255 255 255 255 255 255 255 255 255 255 255 255 255 255 255
255 255 255 255 255 255 255 255 255 255 255 255 255 255 255 255 255 255 255 255 255 255 255 255 255 255 255 255 255 255 255 255 255 255 255 255 244 246 243 244 248 234 222 212 202 201 201 199 200 187 179 170 165 158 150 147 145 141 140 139 139 143 146 145 148 148 148 149 154 158 163 169 176 177 180 181 185 183 183 182 188 184 184 183 187 187 188 186 187 183 179 176 171 173 176 178 182 182 185 186 188 187 188 186 188 179 176 173 171 170 171 172 173 169 166 159 152 157 160 164 168 174 182 187 197 194 195 190 185 183 182 182 182 180 180 179 186 172 163 156 149 155 158 159 161 160 160 163 167 166 164 162 162 151 143 137 128 131 136 136 138 133 130 127 126 123 122 120 120 114 108 105 100 100 99 99 102 99 100 98 103 99 99 96 97 92 90 85 81 81 80 77 74 71 66 67 67 71 74 79 80 91 104 108 117 111 112 107 104 106 107 106 108 108 107 109 114 107 106 102 100 98 95 92 90 88 86 86 89 81 77 71 66 66 66 66 69 74 81 84 90 99 109 117 130 126 129 130 132 138 144 145 148 148 148 150 152 155 160 166 175 173 176 175 180 175 173 168 160 161 161 164 172 166 163 162 161 160 158 156 155 154 154 154 160 150 142 141 139 136 134 131 124 128 130 136 147 149 154 155 162 156 155 150 146 152 155 153 152 155 160 161 166 166 165 168 172 176 180 183 187 193 196 203 209 221 231 234 233 248 255 255 255 255 255 255 255 255 255 255 255 255 255 255 255 255 255 255 255 255 255 255 255 255 255 255 255 255 255 255 255 255 255 255 255 255 255 255 255 255 255 255 255 255 255 255 255 255 255 255 255 255 255 255 255 255 255 255 255 255 255 255 255 255 255 255 255 255 255 255 255 255 255 255 255 255 255 255 255 255 255 255 255 255 255 255 255 255 255 255 255 255 255 255 255 255 255 255 255 255 255 255 255 255 255 255 255 255 255 255 255 255 255 255 255 255 255 255 255 255 255 255 255 255 255 255 255 255 255 255 255 255 255 255 255 255 255 255 255 255 255 255 255 255 255 255 255 255 255 255 255 255 255 255 255 255 255 255 255 255 255 255 255 255 255 255 255 255 255 255 255 255 255 255 255 255 255 255 255 255 255 255 255
255 255 255 255 255 255 255 255 255 255 255 255 255 255 255 255 255 255 255 255 255 255 255 255 255 255 255 255 255 255 255 255 255 255 255 255 255 247 242 239 235 230 226 212 212 204 202 200 194 185 181 168 168 159 156 150 146 141 144 145 147 151 151 151 152 153 153 154 158 163 168 175 176 183 184 187 187 189 187 185 187 189 189 187 191 194 194 192 189 186 184 180 181 180 179 181 180 184 186 188 187 188 187 186 183 180 180 175 176 174 175 177 175 175 171 163 164 160 159 166 166 174 177 186 186 193 191 186 187 180 180 180 181 181 181 178 177 173 172 161 165 162 161 165 165 166 166 166 169 174 173 170 166 159 157 146 145 138 138 140 138 137 136 133 132 128 129 126 124 121 119 112 111 106 104 103 102 101 103 100 100 101 101 97 98 96 94 88 90 87 86 83 82 78 75 73 75 79 82 88 88 95 98 108 105 105 106 103 107 108 105 104 107 110 109 110 108 106 107 103 106 106 102 96 96 93 92 91 86 82 79 72 72 67 66 66 70 74 77 83 88 100 102 114 114 121 128 134 136 141 142 147 145 149 150 152 150 151 156 165 165 174 178 179 181 182 181 176 175 169 167 168 168 168 170 167 167 167 164 163 164 165 164 163 160 158 156 152 151 145 146 144 142 136 137 142 145 155 156 161 160 162 161 156 160 162 158 157 159 162 163 166 169 174 175 177 178 184 187 193 196 205 207 216 219 233 234 243 246 254 255 255 255 255 255 255 255 255 255 255 255 255 255 255 255 255 255 255 255 255 255 255 255 255 255 255 255 255 255 255 255 255 255 255 255 255 255 255 255 255 255 255 255 255 255 255 255 255 255 255 255 255 255 255 255 255 255 255 255 255 255 255 255 255 255 255 255 255 255 255 255 255 255 255 255 255 255 255 255 255 255 255 255 255 255 255 255 255 255 255 255 255 255 255 255 255 255 255 255 255 255 255 255 255 255 255 255 255 255 255 255 255 255 255 255 255 255 255 255 255 255 255 255 255 255 255 255 255 255 255 255 255 255 255 255 255 255 255 255 255 255 255 255 255 255 255 255 255 255 255 255 255 255 255 255 255 255 255 255 255 255 255 255 255 255 255 255 255 255 255 255 255 255 255 255 255 255 255 255 255 255 255 255
255 255 255 255 255 255 255 255 255 255 255 255 255 255 255 255 255 255 255 255 255 255 255 255 255 255 255 255 255 255 255 255 255 255 255 255 255 246 238 233 228 222 215 212 212 204 202 196 190 181 174 169 169 159 153 148 146 145 148 149 153 159 166 161 159 160 159 162 169 173 180 182 184 189 193 192 192 191 190 191 193 192 192 195 199 200 203 198 193 190 185 185 187 185 186 182 180 184 191 189 188 189 188 185 181 179 177 178 179 178 178 179 179 177 176 169 170 164 161 164 167 174 182 183 184 189 190 187 188 182 177 178 181 181 183 179 177 173 169 170 175 170 168 172 173 174 173 175 177 179 182 175 172 165 162 156 154 148 146 144 142 140 138 137 139 136 137 131 128 124 123 119 118 112 108 106 106 105 110 103 101 102 103 101 102 99 98 94 96 91 93 89 87 82 77 80 83 88 94 96 97 104 111 108 103 104 102 104 108 106 107 107 109 110 111 111 110 109 107 108 112 110 109 104 103 98 95 92 88 82 74 72 72 69 66 71 76 80 85 85 88 98 106 111 112 121 128 135 141 145 150 145 141 146 151 148 149 151 158 160 162 172 185 185 187 187 189 183 182 177 173 177 178 176 173 173 174 170 168 169 171 171 174 170 167 163 157 161 165 158 156 155 156 151 149 153 155 161 164 165 165 167 167 166 169 168 170 167 165 170 174 175 176 180 184 184 188 192 199 202 207 214 223 227 231 243 254 255 255 255 255 255 255 255 255 255 255 255 255 255 255 255 255 255 255 255 255 255 255 255 255 255 255 255 255 255 255 255 255 255 255 255 255 255 255 255 255 255 255 255 255 255 255 255 255 255 255 255 255 255 255 255 255 255 255 255 255 255 255 255 255 255 255 255 255 255 255 255 255 255 255 255 255 255 255 255 255 255 255 255 255 255 255 255 255 255 255 255 255 255 255 255 255 255 255 255 255 255 255 255 255 255 255 255 255 255 255 255 255 255 255 255 255 255 255 255 255 255 255 255 255 255 255 255 255 255 255 255 255 255 255 255 255 255 255 255 255 255 255 255 255 255 255 255 255 255 255 255 255 255 255 255 255 255 255 255 255 255 255 255 255 255 255 255 255 255 255 255 255 255 255 255 255 255 255 255 255 255 255 255 255 255 255
255 255 255 255 255 255 255 255 255 255 255 255 255 255 255 255 255 255 255 255 255 255 255 255 255 255 255 255 255 255 255 255 255 255 255 255 252 244 239 228 224 216 214 209 205 200 199 192 188 175 174 167 161 155 154 145 144 145 149 152 158 167 166 171 173 170 169 169 172 181 183 191 194 198 195 197 197 196 196 197 195 196 198 202 201 205 203 205 203 196 194 190 189 189 185 182 180 182 184 189 191 192 189 186 183 178 181 183 182 184 183 183 180 179 176 170 170 167 168 165 168 175 176 183 185 189 188 187 188 184 183 177 179 182 181 179 178 176 176 175 175 177 180 184 185 186 184 184 184 185 181 177 176 168 168 162 159 154 153 148 149 145 143 141 141 141 139 134 134 126 126 123 121 116 114 108 107 106 104 101 104 103 101 104 103 102 99 97 94 90 93 93 93 86 89 90 91 96 97 106 111 116 111 113 112 107 105 104 102 102 106 109 109 113 113 116 117 115 113 113 113 115 112 110 108 104 100 94 91 84 81 72 69 71 74 78 79 85 84 86 91 99 101 112 116 123 125 137 140 148 144 145 146 145 143 143 143 147 150 155 161 169 175 190 192 192 189 188 188 186 187 189 188 187 183 178 177 174 176 177 176 177 176 176 175 171 172 171 169 169 168 166 165 164 166 168 168 171 169 170 173 174 173 174 172 171 174 176 177 180 180 186 186 188 187 190 194 198 203 212 215 222 228 240 245 255 255 255 255 255 255 255 255 255 255 255 255 255 255 255 255 255 255 255 255 255 255 255 255 255 255 255 255 255 255 255 255 255 255 255 255 255 255 255 255 255 255 255 255 255 255 255 255 255 255 255 255 255 255 255 255 255 255 255 255 255 255 255 255 255 255 255 255 255 255 255 255 255 255 255 255 255 255 255 255 255 255 255 255 255 255 255 255 255 255 255 255 255 255 255 255 255 255 255 255 255 255 255 255 255 255 255 255 255 255 255 255 255 255 255 255 255 255 255 255 255 255 255 255 255 255 255 255 255 255 255 255 255 255 255 255 255 255 255 255 255 255 255 255 255 255 255 255 255 255 255 255 255 255 255 255 255 255 255 255 255 255 255 255 255 255 255 255 255 255 255 255 255 255 255 255 255 255 255 255 255 255 255 255 255 255 255 255
255 255 255 255 255 255 255 255 255 255 255 255 255 255 255 255 255 255 255 255 255 255 255 255 255 255 255 255 255 255 255 255 255 255 255 254 244 239 231 225 217 212 206 202 196 195 193 188 183 174 167 160 151 152 148 143 133 145 153 158 167 168 174 175 185 177 179 178 181 186 194 198 209 202 201 202 203 201 201 199 198 199 203 204 207 204 205 205 211 201 197 193 192 188 184 181 173 181 186 190 194 192 192 188 183 183 183 186 187 187 187 186 183 181 178 174 170 170 170 171 174 177 179 183 189 190 193 191 191 187 183 183 182 185 185 181 174 177 176 179 180 183 186 192 204 195 194 193 195 192 188 184 179 176 172 167 160 159 158 155 159 149 144 143 144 143 144 141 141 133 127 126 124 118 114 110 106 104 103 101 102 101 99 101 105 100 98 95 91 92 95 96 100 93 93 97 102 102 105 113 128 120 120 119 119 111 107 106 101 105 106 107 107 113 117 120 128 120 117 117 119 115 113 110 109 106 102 97 93 89 83 76 62 72 76 81 88 89 92 92 94 101 108 114 124 124 131 136 148 144 145 143 146 143 143 138 132 141 149 154 165 169 179 187 202 193 192 190 189 190 192 197 206 196 191 186 186 183 182 181 182 182 182 180 182 180 181 180 182 176 173 174 174 175 177 180 186 181 182 181 184 182 182 181 179 179 181 182 183 187 190 193 196 197 197 200 204 208 215 220 228 233 243 250 255 255 255 255 255 255 255 255 255 255 255 255 255 255 255 255 255 255 255 255 255 255 255 255 255 255 255 255 255 255 255 255 255 255 255 255 255 255 255 255 255 255 255 255 255 255 255 255 255 255 255 255 255 255 255 255 255 255 255 255 255 255 255 255 255 255 255 255 255 255 255 255 255 255 255 255 255 255 255 255 255 255 255 255 255 255 255 255 255 255 255 255 255 255 255 255 255 255 255 255 255 255 255 255 255 255 255 255 255 255 255 255 255 255 255 255 255 255 255 255 255 255 255 255 255 255 255 255 255 255 255 255 255 255 255 255 255 255 255 255 255 255 255 255 255 255 255 255 255 255 255 255 255 255 255 255 255 255 255 255 255 255 255 255 255 255 255 255 255 255 255 255 255 255 255 255 255 255 255 255 255 255 255 255 255 255 255 255 255
255 255 255 255 255 255 255 255 255 255 255 255 255 255 255 255 255 255 255 255 255 255 255 255 255 255 255 255 255 255 255 255 255 255 255 255 251 238 234 226 224 212 209 199 198 192 189 186 182 174 169 158 161 155 152 146 150 149 151 160 159 167 169 172 174 177 183 186 186 189 193 201 200 203 207 207 206 205 204 203 203 202 204 207 203 200 202 201 202 201 200 196 194 189 187 185 186 186 184 191 189 190 193 193 192 189 190 192 192 193 193 191 190 187 183 180 180 173 174 178 177 180 181 184 184 191 192 194 192 190 192 190 190 191 188 188 187 184 184 185 185 189 189 196 194 199 202 200 200 201 199 194 192 185 181 174 171 164 161 158 155 148 150 146 146 146 145 145 142 138 136 131 127 121 118 112 110 104 104 101 102 103 100 98 98 97 99 96 96 92 95 99 97 96 101 103 101 106 107 115 112 118 123 124 120 114 116 113 112 111 107 106 109 116 116 122 120 120 124 122 120 115 114 110 112 110 107 101 102 98 94 87 86 80 78 84 84 91 94 98 98 104 105 115 113 119 124 129 130 136 140 138 139 140 139 135 139 138 141 150 151 163 168 179 179 189 193 193 195 193 196 201 199 200 199 192 194 190 188 184 187 189 186 183 185 187 188 188 186 183 186 185 186 185 187 189 186 186 189 190 190 190 190 189 189 188 188 190 192 198 197 201 202 207 208 211 210 216 218 226 228 240 243 255 255 255 255 255 255 255 255 255 255 255 255 255 255 255 255 255 255 255 255 255 255 255 255 255 255 255 255 255 255 255 255 255 255 255 255 255 255 255 255 255 255 255 255 255 255 255 255 255 255 255 255 255 255 255 255 255 255 255 255 255 255 255 255 255 255 255 255 255 255 255 255 255 255 255 255 255 255 255 255 255 255 255 255 255 255 255 255 255 255 255 255 255 255 255 255 255 255 255 255 255 255 255 255 255 255 255 255 255 255 255 255 255 255 255 255 255 255 255 255 255 255 255 255 255 255 255 255 255 255 255 255 255 255 255 255 255 255 255 255 255 255 255 255 255 255 255 255 255 255 255 255 255 255 255 255 255 255 255 255 255 255 255 255 255 255 255 255 255 255 255 255 255 255 255 255 255 255 255 255 255 255 255 255 255 255 255 255 255 255
255 255 255 255 255 255 255 255 255 255 255 255 255 255 255 255 255 255 255 255 255 255 255 255 255 255 255 255 255 255 255 255 255 255 255 254 250 238 228 228 229 216 210 201 198 189 183 180 178 170 162 160 164 159 158 155 160 159 164 162 159 167 171 172 173 179 186 188 192 195 201 201 202 205 212 211 212 209 205 206 209 208 210 207 202 201 200 202 203 199 194 194 195 190 185 187 190 189 189 191 190 193 196 195 194 195 198 198 200 198 201 196 195 190 185 187 189 182 178 181 182 184 186 185 182 189 194 194 192 194 197 197 198 196 193 193 193 191 193 192 193 194 192 195 195 200 206 206 207 206 208 204 203 194 187 182 177 170 162 160 156 152 148 149 151 148 146 144 141 138 135 132 130 123 118 114 112 108 107 103 104 102 100 100 100 98 99 97 98 97 98 100 98 101 106 104 103 106 108 111 113 118 124 123 125 121 119 118 118 116 112 112 111 117 122 123 122 124 127 126 127 121 115 116 118 113 111 108 110 103 98 94 97 91 88 87 85 93 102 99 99 104 110 112 111 117 125 124 125 131 139 135 135 135 136 137 142 140 144 144 144 156 166 171 172 183 191 196 203 200 202 203 204 202 201 200 203 197 192 192 195 192 190 189 190 193 196 195 195 193 195 196 201 198 200 196 193 195 197 196 198 198 199 196 197 196 195 200 202 207 209 210 210 213 218 217 219 223 229 230 233 243 250 255 255 255 255 255 255 255 255 255 255 255 255 255 255 255 255 255 255 255 255 255 255 255 255 255 255 255 255 255 255 255 255 255 255 255 255 255 255 255 255 255 255 255 255 255 255 255 255 255 255 255 255 255 255 255 255 255 255 255 255 255 255 255 255 255 255 255 255 255 255 255 255 255 255 255 255 255 255 255 255 255 255 255 255 255 255 255 255 255 255 255 255 255 255 255 255 255 255 255 255 255 255 255 255 255 255 255 255 255 255 255 255 255 255 255 255 255 255 255 255 255 255 255 255 255 255 255 255 255 255 255 255 255 255 255 255 255 255 255 255 255 255 255 255 255 255 255 255 255 255 255 255 255 255 255 255 255 255 255 255 255 255 255 255 255 255 255 255 255 255 255 255 255 255 255 255 255 255 255 255 255 255 255 255 255 255 255 255 255 255
255 255 255 255 255 255 255 255 255 255 255 255 255 255 255 255 255 255 255 255 255 255 255 255 255 255 255 255 255 255 255 255 255 255 255 252 246 237 235 229 224 213 210 198 193 184 182 176 174 167 164 156 158 159 160 158 162 164 164 167 172 174 171 173 177 182 183 188 193 200 198 200 203 206 209 215 216 216 213 209 211 212 211 209 208 204 203 204 201 199 197 191 192 191 192 191 191 193 194 197 197 198 197 200 199 200 201 204 203 200 200 200 199 195 196 194 193 191 190 188 188 189 187 188 188 192 192 198 198 200 201 204 204 204 201 199 198 195 197 200 202 203 200 198 198 200 204 211 212 210 211 213 210 202 199 190 187 178 174 166 163 157 155 153 151 151 148 144 143 141 138 133 130 125 121 114 114 110 108 103 104 103 103 103 99 96 98 97 97 100 102 105 105 106 105 107 109 110 108 110 111 119 118 122 126 127 126 125 126 126 123 121 119 121 121 126 125 128 127 128 130 129 127 122 120 116 116 111 110 106 104 97 99 99 97 91 94 96 94 99 100 103 105 113 114 116 115 119 121 126 127 130 132 130 133 138 137 139 139 139 145 153 155 167 170 182 185 198 200 204 204 208 207 204 205 207 206 203 202 200 198 197 197 196 197 200 199 203 202 202 203 205 208 207 206 205 206 204 201 199 201 205 204 202 204 205 208 213 213 219 217 220 220 220 222 223 226 231 232 235 241 250 255 255 255 255 255 255 255 255 255 255 255 255 255 255 255 255 255 255 255 255 255 255 255 255 255 255 255 255 255 255 255 255 255 255 255 255 255 255 255 255 255 255 255 255 255 255 255 255 255 255 255 255 255 255 255 255 255 255 255 255 255 255 255 255 255 255 255 255 255 255 255 255 255 255 255 255 255 255 255 255 255 255 255 255 255 255 255 255 255 255 255 255 255 255 255 255 255 255 255 255 255 255 255 255 255 255 255 255 255 255 255 255 255 255 255 255 255 255 255 255 255 255 255 255 255 255 255 255 255 255 255 255 255 255 255 255 255 255 255 255 255 255 255 255 255 255 255 255 255 255 255 255 255 255 255 255 255 255 255 255 255 255 255 255 255 255 255 255 255 255 255 255 255 255 255 255 255 255 255 255 255 255 255 255 255 255 255 255 255 255 255
255 255 255 255 255 255 255 255 255 255 255 255 255 255 255 255 255 255 255 255 255 255 255 255 255 255 255 255 255 255 255 255 255 255 255 251 238 232 225 224 226 211 202 193 182 178 173 170 171 162 158 155 155 157 159 161 168 164 165 170 183 177 178 179 182 185 189 191 199 198 202 202 208 208 215 216 222 218 217 215 218 215 214 211 212 206 203 203 203 199 197 195 193 193 193 194 197 195 196 198 205 201 202 202 203 203 206 207 212 205 202 202 202 200 200 201 205 199 195 195 197 193 192 190 186 194 198 200 202 204 209 210 213 208 204 204 206 203 203 207 214 208 206 204 202 206 210 216 223 217 216 214 217 208 202 196 195 185 178 172 169 161 156 154 152 151 148 143 141 141 139 134 129 122 115 114 114 110 108 106 106 105 105 103 99 99 99 98 93 101 105 108 111 108 109 109 113 110 110 110 110 116 121 124 131 129 128 131 137 132 129 126 124 125 129 127 124 130 133 133 139 133 130 128 127 124 122 118 115 108 103 102 104 101 102 99 101 99 98 97 97 101 106 110 117 113 114 114 114 121 128 127 131 130 132 134 135 136 137 140 146 151 158 163 166 178 191 199 210 204 204 208 217 210 208 211 216 208 204 203 204 201 200 200 204 203 204 205 209 209 212 216 227 216 214 213 215 212 211 207 204 211 214 212 212 215 219 222 228 227 229 230 232 232 235 235 235 238 243 245 250 255 255 255 255 255 255 255 255 255 255 255 255 255 255 255 255 255 255 255 255 255 255 255 255 255 255 255 255 255 255 255 255 255 255 255 255 255 255 255 255 255 255 255 255 255 255 255 255 255 255 255 255 255 255 255 255 255 255 255 255 255 255 255 255 255 255 255 255 255 255 255 255 255 255 255 255 255 255 255 255 255 255 255 255 255 255 255 255 255 255 255 255 255 255 255 255 255 255 255 255 255 255 255 255 255 255 255 255 255 255 255 255 255 255 255 255 255 255 255 255 255 255 255 255 255 255 255 255 255 255 255 255 255 255 255 255 255 255 255 255 255 255 255 255 255 255 255 255 255 255 255 255 255 255 255 255 255 255 255 255 255 255 255 255 255 255 255 255 255 255 255 255 255 255 255 255 255 255 255 255 255 255 255 255 255 255 255 255 255 255 255 255
255 255 255 255 255 255 255 255 255 255 255 255 255 255 255 255 255 255 255 255 255 255 255 255 255 255 255 255 255 255 255 255 255 255 255 252 249 231 227 219 214 206 203 191 187 173 168 161 160 154 156 154 157 158 157 160 158 159 163 166 169 176 182 184 185 188 188 191 189 191 195 198 201 205 209 214 214 218 220 219 218 217 216 211 210 206 205 203 201 197 199 199 198 196 196 196 195 196 195 194 196 202 202 203 203 203 207 208 208 208 208 206 206 203 205 206 205 206 206 200 200 197 198 196 198 200 200 202 204 206 210 214 212 212 212 207 209 209 210 211 209 212 213 212 212 213 214 220 216 219 218 213 213 211 209 199 198 190 187 178 172 163 161 158 156 153 148 142 145 144 140 135 131 122 119 114 113 110 109 107 108 109 107 105 106 105 103 103 104 108 107 111 108 109 108 108 107 107 111 112 113 117 117 122 125 131 133 135 135 138 136 131 131 128 130 132 133 136 135 135 135 137 138 134 133 131 127 124 120 109 109 105 104 102 104 105 103 104 101 96 97 100 101 106 105 106 109 112 114 119 119 122 124 127 129 133 133 135 136 140 141 147 152 161 164 175 182 197 194 201 204 204 206 213 214 214 211 211 209 206 205 205 203 202 202 205 205 205 208 214 215 221 218 219 223 221 221 219 217 215 218 221 220 223 222 225 225 230 228 234 237 239 239 243 245 247 245 245 249 255 255 255 255 255 255 255 255 255 255 255 255 255 255 255 255 255 255 255 255 255 255 255 255 255 255 255 255 255 255 255 255 255 255 255 255 255 255 255 255 255 255 255 255 255 255 255 255 255 255 255 255 255 255 255 255 255 255 255 255 255 255 255 255 255 255 255 255 255 255 255 255 255 255 255 255 255 255 255 255 255 255 255 255 255 255 255 255 255 255 255 255 255 255 255 255 255 255 255 255 255 255 255 255 255 255 255 255 255 255 255 255 255 255 255 255 255 255 255 255 255 255 255 255 255 255 255 255 255 255 255 255 255 255 255 255 255 255 255 255 255 255 255 255 255 255 255 255 255 255 255 255 255 255 255 255 255 255 255 255 255 255 255 255 255 255 255 255 255 255 255 255 255 255 255 255 255 255 255 255 255 255 255 255 255 255 255 255 255 255 255 255 255 255
255 255 255 255 255 255 255 255 255 255 255 255 255 255 255 255 255 255 255 255 255 255 255 255 255 255 255 255 255 255 255 255 255 255 255 251 252 233 221 213 207 199 192 186 182 169 158 155 154 149 146 152 160 158 158 157 156 158 159 163 170 177 188 187 191 190 192 188 185 188 193 196 202 205 210 210 210 216 223 220 221 218 218 214 212 206 199 201 202 198 198 198 201 199 199 197 197 195 194 195 195 199 198 201 204 208 214 212 213 211 207 210 214 210 210 210 211 211 214 209 209 204 202 202 206 207 212 210 210 212 218 218 216 215 217 214 216 213 214 213 213 215 216 217 218 219 223 221 218 218 219 217 215 211 210 205 203 193 187 177 172 164 157 158 159 153 147 146 147 144 143 135 131 121 113 114 115 110 105 108 111 110 109 108 110 107 105 107 109 113 118 114 110 108 106 106 106 109 112 114 116 120 122 124 128 132 138 139 140 139 138 136 136 135 138 137 137 140 145 139 138 139 142 138 139 133 129 126 125 114 107 107 107 106 107 106 104 104 105 98 96 98 102 103 102 103 103 108 112 116 122 120 119 123 126 130 134 134 135 139 142 148 156 161 165 177 191 191 190 196 201 203 206 211 213 213 212 209 204 205 206 204 202 203 203 205 209 209 210 215 218 221 221 224 226 228 232 225 220 224 228 229 233 229 228 230 233 233 232 240 250 247 247 252 255 255 255 255 255 255 255 255 255 255 255 255 255 255 255 255 255 255 255 255 255 255 255 255 255 255 255 255 255 255 255 255 255 255 255 255 255 255 255 255 255 255 255 255 255 255 255 255 255 255 255 255 255 255 255 255 255 255 255 255 255 255 255 255 255 255 255 255 255 255 255 255 255 255 255 255 255 255 255 255 255 255 255 255 255 255 255 255 255 255 255 255 255 255 255 255 255 255 255 255 255 255 255 255 255 255 255 255 255 255 255 255 255 255 255 255 255 255 255 255 255 255 255 255 255 255 255 255 255 255 255 255 255 255 255 255 255 255 255 255 255 255 255 255 255 255 255 255 255 255 255 255 255 255 255 255 255 255 255 255 255 255 255 255 255 255 255 255 255 255 255 255 255 255 255 255 255 255 255 255 255 255 255 255 255 255 255 255 255 255 255 255 255 255 255 255 255 255 255
255 255 255 255 255 255 255 255 255 255 255 255 255 255 255 255 255 255 255 255 255 255 255 255 255 255 255 255 255 255 255 255 255 255 255 248 241 230 225 205 202 194 190 180 175 164 162 149 146 144 148 149 152 158 156 156 156 158 157 159 164 175 177 187 189 190 188 187 187 186 189 194 198 204 204 208 210 214 214 217 219 218 217 216 214 209 207 202 200 198 197 197 198 200 200 197 198 196 198 199 199 201 201 202 206 212 211 213 216 216 217 215 216 214 214 214 214 214 213 213 213 210 210 206 208 213 212 216 218 217 219 224 222 218 219 219 217 215 217 217 217 219 219 222 223 222 223 224 223 219 220 221 217 211 211 208 202 193 188 173 172 164 165 161 158 153 154 149 147 145 141 134 130 119 121 117 114 112 113 112 111 111 112 109 110 110 111 111 112 117 116 120 118 109 108 107 108 111 113 116 120 125 124 126 129 133 136 143 142 141 139 139 140 141 140 142 144 145 142 141 140 139 138 137 138 135 134 129 126 116 117 112 110 111 110 109 109 106 102 98 97 97 99 102 103 104 104 107 108 114 114 117 119 121 123 130 131 134 135 140 142 149 152 163 166 177 178 186 191 195 196 204 208 212 212 214 213 212 209 205 203 203 204 205 206 206 209 214 216 219 219 224 226 232 231 233 235 232 234 233 232 234 234 234 236 234 236 239 241 247 247 252 255 255 255 255 255 255 255 255 255 255 255 255 255 255 255 255 255 255 255 255 255 255 255 255 255 255 255 255 255 255 255 255 255 255 255 255 255 255 255 255 255 255 255 255 255 255 255 255 255 255 255 255 255 255 255 255 255 255 255 255 255 255 255 255 255 255 255 255 255 255 255 255 255 255 255 255 255 255 255 255 255 255 255 255 255 255 255 255 255 255 255 255 255 255 255 255 255 255 255 255 255 255 255 255 255 255 255 255 255 255 255 255 255 255 255 255 255 255 255 255 255 255 255 255 255 255 255 255 255 255 255 255 255 255 255 255 255 255 255 255 255 255 255 255 255 255 255 255 255 255 255 255 255 255 255 255 255 255 255 255 255 255 255 255 255 255 255 255 255 255 255 255 255 255 255 255 255 255 255 255 255 255 255 255 255 255 255 255 255 255 255 255 255 255 255 255 255 255 255 255 255
255 255 255 255 255 255 255 255 255 255 255 255 255 255 255 255 255 255 255 255 255 255 255 255 255 255 255 255 255 255 255 255 255 255 254 244 232 226 215 204 189 188 182 176 166 161 153 147 133 143 146 149 157 153 151 153 154 155 156 160 166 171 179 183 193 187 187 185 186 189 194 196 201 200 204 206 211 211 215 216 221 216 214 214 214 210 206 203 201 197 194 196 198 200 202 201 202 200 203 202 205 205 207 208 214 215 218 218 221 223 225 224 228 220 217 217 219 217 215 216 215 214 215 213 213 215 216 221 227 224 226 228 230 224 224 223 220 220 223 220 219 222 223 227 232 227 228 226 229 223 222 220 220 215 212 208 200 194 184 176 164 167 165 164 163 158 155 150 147 142 138 133 127 122 119 116 114 114 115 116 119 116 117 115 113 114 115 116 117 118 118 121 126 113 107 107 109 112 119 120 130 128 132 132 137 137 141 143 148 142 139 140 144 142 141 145 153 147 146 140 136 140 141 139 138 136 134 132 130 122 116 114 112 113 113 113 114 107 103 98 89 97 101 102 106 104 106 106 109 111 114 115 116 119 125 128 136 132 133 138 145 149 155 161 169 175 184 185 194 193 196 203 215 212 216 215 216 212 208 206 202 205 205 208 212 212 214 218 223 223 226 228 233 237 240 242 249 243 240 242 244 243 243 243 245 243 243 246 248 253 255 255 255 255 255 255 255 255 255 255 255 255 255 255 255 255 255 255 255 255 255 255 255 255 255 255 255 255 255 255 255 255 255 255 255 255 255 255 255 255 255 255 255 255 255 255 255 255 255 255 255 255 255 255 255 255 255 255 255 255 255 255 255 255 255 255 255 255 255 255 255 255 255 255 255 255 255 255 255 255 255 255 255 255 255 255 255 255 255 255 255 255 255 255 255 255 255 255 255 255 255 255 255 255 255 255 255 255 255 255 255 255 255 255 255 255 255 255 255 255 255 255 255 255 255 255 255 255 255 255 255 255 255 255 255 255 255 255 255 255 255 255 255 255 255 255 255 255 255 255 255 255 255 255 255 255 255 255 255 255 255 255 255 255 255 255 255 255 255 255 255 255 255 255 255 255 255 255 255 255 255 255 255 255 255 255 255 255 255 255 255 255 255 255 255 255 255 255 255 255 255 255 255
255 255 255 255 255 255 255 255 255 255 255 255 255 255 255 255 255 255 255 255 255 255 255 255 255 255 255 255 255 255 255 255 255 255 255 245 241 227 222 209 206 188 183 177 173 162 159 153 154 150 145 147 146 147 150 151 152 155 157 161 159 165 167 176 175 181 183 181 186 191 190 195 192 193 197 201 201 206 208 212 211 211 215 215 214 212 211 206 204 198 197 196 197 200 201 204 202 200 202 204 205 209 209 211 211 217 220 223 225 230 229 230 226 221 223 219 222 222 222 223 221 219 220 219 221 221 222 227 225 228 233 234 231 227 229 229 227 224 224 223 226 229 229 231 228 227 228 226 227 225 223 218 220 218 218 214 210 200 195 183 185 176 171 169 167 163 160 152 151 141 139 133 132 125 123 117 119 116 118 119 118 120 122 122 120 119 120 122 120 120 120 121 115 111 111 107 109 112 114 118 120 125 131 135 136 139 139 142 140 141 142 141 142 143 144 145 144 147 146 140 144 144 141 141 141 138 137 136 132 126 125 117 119 118 116 117 113 106 107 104 105 102 100 101 101 101 103 105 106 109 110 115 114 114 117 123 123 126 132 137 140 150 151 158 161 172 174 179 182 190 192 199 200 207 212 216 214 212 212 210 211 210 210 213 214 219 219 222 222 226 228 232 234 243 244 249 248 251 253 251 251 252 249 251 250 251 252 254 255 255 255 255 255 255 255 255 255 255 255 255 255 255 255 255 255 255 255 255 255 255 255 255 255 255 255 255 255 255 255 255 255 255 255 255 255 255 255 255 255 255 255 255 255 255 255 255 255 255 255 255 255 255 255 255 255 255 255 255 255 255 255 255 255 255 255 255 255 255 255 255 255 255 255 255 255 255 255 255 255 255 255 255 255 255 255 255 255 255 255 255 255 255 255 255 255 255 255 255 255 255 255 255 255 255 255 255 255 255 255 255 255 255 255 255 255 255 255 255 255 255 255 255 255 255 255 255 255 255 255 255 255 255 255 255 255 255 255 255 255 255 255 255 255 255 255 255 255 255 255 255 255 255 255 255 255 255 255 255 255 255 255 255 255 255 255 255 255 255 255 255 255 255 255 255 255 255 255 255 255 255 255 255 255 255 255 255 255 255 255 255 255 255 255 255 255 255 255 255 255 255 255 255 255
255 255 255 255 255 255 255 255 255 255 255 255 255 255 255 255 255 255 255 255 255 255 255 255 255 255 255 255 255 255 255 255 255 255 253 246 241 229 220 214 214 196 181 176 174 165 157 160 163 157 151 150 147 148 148 148 151 154 159 157 157 159 161 165 166 172 179 181 187 188 191 189 186 189 196 194 193 199 206 205 208 210 215 215 218 215 213 209 206 200 194 197 200 201 202 203 202 203 205 205 205 207 212 212 212 219 226 227 229 233 237 233 230 226 224 227 230 228 227 228 230 229 230 228 231 229 227 230 231 237 243 239 237 234 230 233 234 231 232 230 230 233 237 234 232 230 230 229 231 225 221 221 222 221 220 217 217 206 199 195 198 186 177 174 171 168 164 159 157 147 137 135 132 127 124 123 124 122 124 121 119 121 127 123 124 123 127 124 124 122 123 117 111 107 101 106 112 113 120 118 118 125 134 135 138 139 141 141 139 139 138 141 145 145 144 146 145 145 144 144 149 145 143 142 144 141 139 135 133 129 127 126 128 122 119 119 117 111 105 108 113 108 108 104 104 102 100 102 105 108 109 113 114 114 116 119 118 125 131 136 142 148 151 156 160 168 176 176 176 184 188 193 198 205 213 214 213 214 213 214 218 216 216 218 219 222 224 226 227 230 231 234 238 246 253 253 255 255 255 255 255 255 252 255 255 255 255 255 255 255 255 255 255 255 255 255 255 255 255 255 255 255 255 255 255 255 255 255 255 255 255 255 255 255 255 255 255 255 255 255 255 255 255 255 255 255 255 255 255 255 255 255 255 255 255 255 255 255 255 255 255 255 255 255 255 255 255 255 255 255 255 255 255 255 255 255 255 255 255 255 255 255 255 255 255 255 255 255 255 255 255 255 255 255 255 255 255 255 255 255 255 255 255 255 255 255 255 255 255 255 255 255 255 255 255 255 255 255 255 255 255 255 255 255 255 255 255 255 255 255 255 255 255 255 255 255 255 255 255 255 255 255 255 255 255 255 255 255 255 255 255 255 255 255 255 255 255 255 255 255 255 255 255 255 255 255 255 255 255 255 255 255 255 255 255 255 255 255 255 255 255 255 255 255 255 255 255 255 255 255 255 255 255 255 255 255 255 255 255 255 255 255 255 255 255 255 255 255 255 255 255 255 255
