403 402 403 408 415 419 425 425 425 432 440 449 462 464 470 468 467 473 479 483 486 490 494 496 502 500 501 501 499 503 509 512 519 519 522 522 527 525 528 529 529 537 546 548 556 553 554 551 547 551 554 557 562 557 559 558 560 555 554 548 544 546 548 552 558 555 555 552 552 550 550 548 549 551 552 549 545 545 547 545 544 546 545 548 553 550 551 549 553 552 558 559 567 565 564 562 558 567 576 580 583 584 587 586 587 588 591 595 603 598 597 598 598 602 604 603 601 608 614 615 614 619 626 628 631 633 638 640 642 648 656 662 676 675 678 674 669 682 693 701 707 707 711 711 713 723 731 742 754 758 762 764 767 777 787 792 800 798 800 799 799 803 807 809 811 811 811 812 812 817 821 819 821 824 827 828 832 830 830 829 831 835 839 839 840 838 839 839 842 839 840 837 835 834 835 834 833 831 829 829 829 832 835 836 836 841 847 848 850 855 860 867 876 876 877 880 883 883 885 885 884 880 879 876 874 868 862 856 852 852 852 848 846 848 851 852 855 857 861 867 874 872 875 876 882 881 882 883 883 888 892 895 902 901 904 906 911 908 908 907 905 911 918 918 917 929 939 945 955 944 938 937 935 936 935 938 942 945 949 954 961 958 954 950 941 945 950 952 958 961 964 966 976 969 967 964 964 972 982 991 1000 1000 1000 1000 1000 1000 1000 1000 1000 1000 1000 1000 1000 1000 1000 1000 1000 1000 1000 1000 1000 1000 1000 1000 1000 1000 1000 1000 1000 1000 1000 1000 1000 1000 1000 1000 1000 1000 1000 1000 1000 1000 1000 1000 1000 1000 1000 1000 1000 1000 1000 1000 1000 1000 1000 1000 1000 1000 1000 1000 1000 1000 1000 1000 1000 1000 1000 1000 1000 1000 1000 1000 1000 1000 1000 1000 1000 1000 1000 1000 1000 1000 1000 1000 1000 1000 1000 1000 1000 1000 1000 1000 1000 1000 1000 1000 1000 1000 1000 1000 1000 1000 1000 1000 1000 1000 1000 1000 1000 1000 1000 1000 1000 1000 1000 1000 1000 1000 1000 1000 1000 1000 1000 1000 1000 1000 1000 1000 1000 1000 1000 1000 1000 1000 1000 1000 1000 1000 1000 1000 1000 1000 1000 1000 1000 1000 1000 1000 1000 1000 1000 1000 1000 1000 1000 1000 1000 1000 1000 1000 1000 1000 1000 1000 1000 1000 1000 1000 1000 1000 1000 1000 1000 1000 1000 1000 1000 1000 1000 1000 1000 1000 1000 1000 1000 1000 1000 1000 1000 1000 1000 1000 1000 1000 1000 1000 1000 1000 1000 1000 1000 1000 1000 1000 1000 1000 1000 1000 1000 1000 1000 1000 1000
401 402 404 407 408 415 414 417 422 426 431 443 443 455 457 460 461 467 468 475 477 484 486 490 493 497 502 504 503 503 506 512 517 525 527 527 527 528 532 536 537 542 541 545 544 548 549 547 548 549 547 550 549 550 553 552 554 552 553 549 548 546 547 551 549 552 553 552 550 548 547 544 546 547 546 547 545 540 541 541 541 541 539 540 539 543 542 541 541 542 545 548 550 553 553 553 556 558 561 571 572 579 581 583 583 584 584 588 587 588 592 592 593 597 598 600 602 605 605 610 609 612 613 617 620 625 628 635 637 645 646 653 656 670 672 672 677 679 681 694 692 698 700 703 707 718 722 735 738 754 757 760 763 769 773 785 785 792 794 795 796 799 801 805 806 809 811 812 812 816 817 818 821 826 824 826 825 827 827 826 831 838 836 837 835 834 833 834 833 834 834 832 831 827 829 831 830 827 826 826 825 826 827 832 832 834 836 839 842 848 850 860 863 874 878 882 879 878 879 881 877 873 875 873 869 865 862 853 853 846 844 840 842 840 843 848 850 855 858 865 866 874 877 877 878 881 885 889 889 893 892 897 897 902 904 908 909 912 913 914 913 913 915 920 926 933 935 944 938 939 941 937 935 934 933 935 938 945 948 955 956 962 962 958 956 949 950 955 956 964 963 965 966 971 969 963 966 969 974 986 985 993 998 1000 1000 1000 1000 1000 1000 1000 1000 1000 1000 1000 1000 1000 1000 1000 1000 1000 1000 1000 1000 1000 1000 1000 1000 1000 1000 1000 1000 1000 1000 1000 1000 1000 1000 1000 1000 1000 1000 1000 1000 1000 1000 1000 1000 1000 1000 1000 1000 1000 1000 1000 1000 1000 1000 1000 1000 1000 1000 1000 1000 1000 1000 1000 1000 1000 1000 1000 1000 1000 1000 1000 1000 1000 1000 1000 1000 1000 1000 1000 1000 1000 1000 1000 1000 1000 1000 1000 1000 1000 1000 1000 1000 1000 1000 1000 1000 1000 1000 1000 1000 1000 1000 1000 1000 1000 1000 1000 1000 1000 1000 1000 1000 1000 1000 1000 1000 1000 1000 1000 1000 1000 1000 1000 1000 1000 1000 1000 1000 1000 1000 1000 1000 1000 1000 1000 1000 1000 1000 1000 1000 1000 1000 1000 1000 1000 1000 1000 1000 1000 1000 1000 1000 1000 1000 1000 1000 1000 1000 1000 1000 1000 1000 1000 1000 1000 1000 1000 1000 1000 1000 1000 1000 1000 1000 1000 1000 1000 1000 1000 1000 1000 1000 1000 1000 1000 1000 1000 1000 1000 1000 1000 1000 1000 1000 1000 1000 1000 1000 1000 1000 1000 1000 1000 1000 1000 1000 1000 1000 1000 1000
399 400 404 405 408 411 412 415 420 425 433 436 437 446 453 452 450 458 464 469 472 480 487 489 492 497 505 504 504 508 513 518 522 529 537 534 534 535 537 540 543 546 550 543 540 544 545 543 545 545 545 543 542 546 549 551 555 553 554 548 546 545 547 547 546 547 550 546 545 543 546 543 544 543 544 540 541 539 540 536 535 533 533 531 530 531 532 532 531 534 540 540 541 542 541 547 552 555 560 563 565 573 582 578 579 579 580 580 581 583 586 586 589 591 597 597 599 601 607 604 600 605 611 613 613 618 621 628 632 639 645 647 648 661 671 676 682 683 685 688 685 691 692 696 699 710 724 728 732 747 761 762 763 769 774 778 779 787 792 792 792 796 801 802 803 806 813 810 812 815 822 821 822 823 826 824 822 824 825 828 833 836 841 836 831 831 827 828 828 827 828 825 827 824 824 826 827 823 821 820 819 821 821 825 828 831 837 835 837 840 845 854 860 871 883 881 879 878 877 875 870 870 871 866 861 858 857 853 854 845 838 837 836 838 841 844 846 853 860 865 867 875 883 882 882 886 891 891 893 895 897 899 899 902 904 910 913 914 917 918 920 920 924 928 933 939 946 939 931 933 934 932 933 929 928 932 938 944 952 956 959 963 967 963 963 956 955 956 958 964 968 966 967 968 968 966 968 971 977 981 981 989 996 1000 1000 1000 1000 1000 1000 1000 1000 1000 1000 1000 1000 1000 1000 1000 1000 1000 1000 1000 1000 1000 1000 1000 1000 1000 1000 1000 1000 1000 1000 1000 1000 1000 1000 1000 1000 1000 1000 1000 1000 1000 1000 1000 1000 1000 1000 1000 1000 1000 1000 1000 1000 1000 1000 1000 1000 1000 1000 1000 1000 1000 1000 1000 1000 1000 1000 1000 1000 1000 1000 1000 1000 1000 1000 1000 1000 1000 1000 1000 1000 1000 1000 1000 1000 1000 1000 1000 1000 1000 1000 1000 1000 1000 1000 1000 1000 1000 1000 1000 1000 1000 1000 1000 1000 1000 1000 1000 1000 1000 1000 1000 1000 1000 1000 1000 1000 1000 1000 1000 1000 1000 1000 1000 1000 1000 1000 1000 1000 1000 1000 1000 1000 1000 1000 1000 1000 1000 1000 1000 1000 1000 1000 1000 1000 1000 1000 1000 1000 1000 1000 1000 1000 1000 1000 1000 1000 1000 1000 1000 1000 1000 1000 1000 1000 1000 1000 1000 1000 1000 1000 1000 1000 1000 1000 1000 1000 1000 1000 1000 1000 1000 1000 1000 1000 1000 1000 1000 1000 1000 1000 1000 1000 1000 1000 1000 1000 1000 1000 1000 1000 1000 1000 1000 1000 1000 1000 1000 1000 1000 1000
395 397 399 404 406 409 410 414 415 422 424 431 434 442 441 446 446 452 457 466 469 479 479 487 490 496 497 504 507 512 515 525 527 534 534 541 541 543 542 546 548 551 545 540 542 543 540 538 539 542 541 538 541 543 544 549 549 552 548 544 544 543 543 546 544 540 539 540 538 536 536 538 539 538 535 531 534 535 533 531 530 524 524 522 521 519 521 524 523 525 527 533 535 535 536 542 543 550 552 559 561 567 565 570 574 574 573 572 575 577 576 579 579 581 585 593 593 594 596 601 601 600 604 611 613 614 618 626 627 635 637 644 648 656 662 679 681 687 686 689 690 691 688 690 691 700 706 723 729 744 748 765 769 772 771 777 779 785 785 791 791 794 795 799 800 801 803 805 809 813 815 822 821 820 822 825 826 825 825 828 829 835 833 837 837 832 827 824 822 821 819 815 817 820 821 824 821 818 818 814 817 818 818 821 821 826 826 830 831 833 840 854 857 867 870 881 881 879 875 872 869 867 863 860 856 849 852 851 847 842 841 835 834 838 839 841 846 854 857 868 872 879 879 887 889 892 890 893 896 897 900 905 905 906 907 915 914 916 918 922 923 924 929 937 940 944 938 936 935 929 927 927 925 922 927 930 933 944 949 960 963 966 963 964 963 958 961 959 962 967 963 964 967 967 966 966 967 972 973 980 983 989 990 1000 1000 1000 1000 1000 1000 1000 1000 1000 1000 1000 1000 1000 1000 1000 1000 1000 1000 1000 1000 1000 1000 1000 1000 1000 1000 1000 1000 1000 1000 1000 1000 1000 1000 1000 1000 1000 1000 1000 1000 1000 1000 1000 1000 1000 1000 1000 1000 1000 1000 1000 1000 1000 1000 1000 1000 1000 1000 1000 1000 1000 1000 1000 1000 1000 1000 1000 1000 1000 1000 1000 1000 1000 1000 1000 1000 1000 1000 1000 1000 1000 1000 1000 1000 1000 1000 1000 1000 1000 1000 1000 1000 1000 1000 1000 1000 1000 1000 1000 1000 1000 1000 1000 1000 1000 1000 1000 1000 1000 1000 1000 1000 1000 1000 1000 1000 1000 1000 1000 1000 1000 1000 1000 1000 1000 1000 1000 1000 1000 1000 1000 1000 1000 1000 1000 1000 1000 1000 1000 1000 1000 1000 1000 1000 1000 1000 1000 1000 1000 1000 1000 1000 1000 1000 1000 1000 1000 1000 1000 1000 1000 1000 1000 1000 1000 1000 1000 1000 1000 1000 1000 1000 1000 1000 1000 1000 1000 1000 1000 1000 1000 1000 1000 1000 1000 1000 1000 1000 1000 1000 1000 1000 1000 1000 1000 1000 1000 1000 1000 1000 1000 1000 1000 1000 1000 1000 1000 1000 1000 1000
390 394 397 402 408 409 411 412 414 419 424 427 431 436 439 439 434 450 460 465 470 475 481 484 490 493 498 503 510 513 521 528 539 535 539 542 546 546 548 550 558 551 547 542 537 541 542 539 534 538 539 538 539 541 544 547 549 546 542 540 535 538 538 541 546 538 533 531 526 528 527 531 537 532 528 526 526 526 527 524 525 518 516 514 512 513 514 514 511 515 521 525 532 529 529 534 541 543 550 553 561 559 561 564 571 567 568 568 573 570 570 571 572 576 579 583 589 590 593 595 596 597 605 609 618 615 619 621 626 632 637 642 649 656 668 675 690 684 686 688 695 690 687 687 685 695 705 715 725 739 752 762 778 771 775 777 783 783 786 787 789 792 795 796 799 800 803 803 805 809 815 818 823 821 823 825 829 825 825 825 829 829 829 833 839 828 823 819 819 816 812 810 808 812 816 817 821 816 816 813 815 815 817 818 819 821 822 824 824 831 839 850 864 866 873 875 881 873 871 866 863 859 856 851 844 846 847 845 841 839 835 832 826 835 843 844 849 855 861 870 884 880 884 886 894 892 896 897 905 901 905 907 912 908 911 914 924 920 922 923 929 930 936 942 957 945 941 935 929 927 924 923 917 921 924 927 932 942 954 961 975 967 966 964 963 964 966 966 970 966 965 966 969 967 966 965 963 970 974 980 988 989 993 997 1000 1000 1000 1000 1000 1000 1000 1000 1000 1000 1000 1000 1000 1000 1000 1000 1000 1000 1000 1000 1000 1000 1000 1000 1000 1000 1000 1000 1000 1000 1000 1000 1000 1000 1000 1000 1000 1000 1000 1000 1000 1000 1000 1000 1000 1000 1000 1000 1000 1000 1000 1000 1000 1000 1000 1000 1000 1000 1000 1000 1000 1000 1000 1000 1000 1000 1000 1000 1000 1000 1000 1000 1000 1000 1000 1000 1000 1000 1000 1000 1000 1000 1000 1000 1000 1000 1000 1000 1000 1000 1000 1000 1000 1000 1000 1000 1000 1000 1000 1000 1000 1000 1000 1000 1000 1000 1000 1000 1000 1000 1000 1000 1000 1000 1000 1000 1000 1000 1000 1000 1000 1000 1000 1000 1000 1000 1000 1000 1000 1000 1000 1000 1000 1000 1000 1000 1000 1000 1000 1000 1000 1000 1000 1000 1000 1000 1000 1000 1000 1000 1000 1000 1000 1000 1000 1000 1000 1000 1000 1000 1000 1000 1000 1000 1000 1000 1000 1000 1000 1000 1000 1000 1000 1000 1000 1000 1000 1000 1000 1000 1000 1000 1000 1000 1000 1000 1000 1000 1000 1000 1000 1000 1000 1000 1000 1000 1000 1000 1000 1000 1000 1000 1000 1000 1000 1000 1000 1000 1000
389 392 395 402 401 409 410 412 413 418 419 425 426 433 435 440 445 454 455 467 465 471 475 480 483 489 495 500 503 511 518 528 525 531 537 542 544 550 549 551 548 548 548 545 544 542 541 542 540 538 538 539 539 541 542 546 544 544 545 542 539 537 536 537 534 534 532 527 526 523 521 523 523 526 525 520 518 518 517 513 512 507 508 506 508 507 507 507 507 506 508 515 515 520 522 524 527 533 537 542 544 550 552 556 553 555 559 559 561 562 565 565 566 572 572 574 577 584 586 590 588 589 593 602 604 612 614 615 620 630 631 639 641 652 655 666 665 674 679 684 684 688 690 689 690 692 696 709 715 735 740 756 753 762 769 773 774 779 780 783 785 791 790 791 794 797 798 801 801 806 808 812 815 821 823 824 822 822 822 820 822 825 826 828 823 821 820 812 814 812 810 806 808 806 807 809 810 810 812 809 812 813 814 816 815 817 819 823 825 828 833 846 848 862 863 865 863 862 864 861 860 853 850 847 847 845 844 844 842 838 837 834 836 836 838 844 848 857 859 867 865 873 878 880 883 889 890 894 894 898 904 907 905 905 907 909 912 919 921 920 924 931 931 938 935 938 941 935 935 929 928 927 925 922 920 925 928 940 944 956 954 961 968 966 970 972 970 969 968 965 967 969 967 967 967 966 969 974 974 981 979 987 987 990 992 998 1000 1000 1000 1000 1000 1000 1000 1000 1000 1000 1000 1000 1000 1000 1000 1000 1000 1000 1000 1000 1000 1000 1000 1000 1000 1000 1000 1000 1000 1000 1000 1000 1000 1000 1000 1000 1000 1000 1000 1000 1000 1000 1000 1000 1000 1000 1000 1000 1000 1000 1000 1000 1000 1000 1000 1000 1000 1000 1000 1000 1000 1000 1000 1000 1000 1000 1000 1000 1000 1000 1000 1000 1000 1000 1000 1000 1000 1000 1000 1000 1000 1000 1000 1000 1000 1000 1000 1000 1000 1000 1000 1000 1000 1000 1000 1000 1000 1000 1000 1000 1000 1000 1000 1000 1000 1000 1000 1000 1000 1000 1000 1000 1000 1000 1000 1000 1000 1000 1000 1000 1000 1000 1000 1000 1000 1000 1000 1000 1000 1000 1000 1000 1000 1000 1000 1000 1000 1000 1000 1000 1000 1000 1000 1000 1000 1000 1000 1000 1000 1000 1000 1000 1000 1000 1000 1000 1000 1000 1000 1000 1000 1000 1000 1000 1000 1000 1000 1000 1000 1000 1000 1000 1000 1000 1000 1000 1000 1000 1000 1000 1000 1000 1000 1000 1000 1000 1000 1000 1000 1000 1000 1000 1000 1000 1000 1000 1000 1000 1000 1000 1000 1000 1000 1000 1000 1000 1000
386 390 398 397 398 405 411 411 414 416 420 423 425 433 439 443 450 456 466 466 465 473 480 481 482 492 501 502 504 513 524 525 523 531 537 543 547 549 552 549 546 545 543 543 545 543 544 542 540 540 541 540 540 541 542 542 542 542 545 540 538 536 537 531 527 524 522 520 521 516 513 514 516 516 518 511 508 508 511 506 504 499 495 498 503 501 502 502 504 502 503 507 506 513 515 519 523 526 533 534 536 540 543 544 543 547 551 552 556 557 561 560 560 565 570 570 573 577 582 581 583 584 587 593 599 606 612 613 618 624 631 636 639 646 654 654 652 661 669 675 680 684 691 690 694 694 698 706 711 728 745 745 742 754 765 769 772 773 775 781 783 788 791 792 794 795 795 796 796 803 810 811 815 820 826 822 819 817 817 818 821 821 822 819 816 812 808 808 812 806 806 806 810 806 805 805 806 807 810 808 810 810 813 811 810 814 820 823 827 830 837 844 847 857 864 858 855 853 855 855 855 847 839 842 843 844 846 844 842 839 835 837 840 842 849 847 848 856 863 862 861 868 875 878 880 884 886 889 891 898 906 904 905 903 904 907 909 916 921 921 923 928 929 932 931 933 935 933 936 931 930 929 929 924 919 922 925 937 950 950 947 959 971 972 977 976 977 975 975 969 965 968 969 967 967 968 971 973 980 977 975 981 985 985 988 992 999 1000 1000 1000 1000 1000 1000 1000 1000 1000 1000 1000 1000 1000 1000 1000 1000 1000 1000 1000 1000 1000 1000 1000 1000 1000 1000 1000 1000 1000 1000 1000 1000 1000 1000 1000 1000 1000 1000 1000 1000 1000 1000 1000 1000 1000 1000 1000 1000 1000 1000 1000 1000 1000 1000 1000 1000 1000 1000 1000 1000 1000 1000 1000 1000 1000 1000 1000 1000 1000 1000 1000 1000 1000 1000 1000 1000 1000 1000 1000 1000 1000 1000 1000 1000 1000 1000 1000 1000 1000 1000 1000 1000 1000 1000 1000 1000 1000 1000 1000 1000 1000 1000 1000 1000 1000 1000 1000 1000 1000 1000 1000 1000 1000 1000 1000 1000 1000 1000 1000 1000 1000 1000 1000 1000 1000 1000 1000 1000 1000 1000 1000 1000 1000 1000 1000 1000 1000 1000 1000 1000 1000 1000 1000 1000 1000 1000 1000 1000 1000 1000 1000 1000 1000 1000 1000 1000 1000 1000 1000 1000 1000 1000 1000 1000 1000 1000 1000 1000 1000 1000 1000 1000 1000 1000 1000 1000 1000 1000 1000 1000 1000 1000 1000 1000 1000 1000 1000 1000 1000 1000 1000 1000 1000 1000 1000 1000 1000 1000 1000 1000 1000 1000 1000 1000 1000 1000
383 385 388 392 396 402 404 410 410 412 416 422 426 435 436 444 449 457 461 468 473 478 478 484 488 497 497 506 508 513 517 528 530 534 537 547 548 550 550 549 547 546 544 539 539 542 543 544 545 543 542 543 542 543 541 540 539 539 538 537 536 532 529 525 523 516 514 512 511 509 509 507 506 504 503 500 498 496 496 496 495 491 492 490 493 494 496 497 497 496 500 505 507 511 509 514 514 517 520 526 528 532 531 535 537 541 541 543 546 551 552 555 556 560 561 566 567 570 569 572 576 578 582 587 592 601 602 610 612 618 623 635 636 642 641 646 647 650 656 670 673 680 681 687 689 695 698 707 711 723 726 740 742 749 753 766 766 769 775 784 785 789 788 793 792 794 794 795 796 801 802 809 814 819 817 820 818 813 815 814 816 817 815 813 811 804 805 802 798 796 800 804 803 803 802 802 803 804 802 803 803 804 804 806 808 812 815 824 825 829 835 846 848 855 850 851 847 842 847 851 849 844 844 839 839 842 841 844 844 842 840 840 842 844 846 850 852 858 856 860 861 865 867 877 880 881 883 888 890 897 897 900 901 900 904 908 910 916 917 921 925 930 929 931 930 929 929 927 928 930 930 931 930 928 925 920 925 936 937 947 951 958 961 974 975 978 979 980 979 972 973 971 967 967 967 968 968 970 972 975 976 977 976 978 980 986 993 1000 1000 1000 1000 1000 1000 1000 1000 1000 1000 1000 1000 1000 1000 1000 1000 1000 1000 1000 1000 1000 1000 1000 1000 1000 1000 1000 1000 1000 1000 1000 1000 1000 1000 1000 1000 1000 1000 1000 1000 1000 1000 1000 1000 1000 1000 1000 1000 1000 1000 1000 1000 1000 1000 1000 1000 1000 1000 1000 1000 1000 1000 1000 1000 1000 1000 1000 1000 1000 1000 1000 1000 1000 1000 1000 1000 1000 1000 1000 1000 1000 1000 1000 1000 1000 1000 1000 1000 1000 1000 1000 1000 1000 1000 1000 1000 1000 1000 1000 1000 1000 1000 1000 1000 1000 1000 1000 1000 1000 1000 1000 1000 1000 1000 1000 1000 1000 1000 1000 1000 1000 1000 1000 1000 1000 1000 1000 1000 1000 1000 1000 1000 1000 1000 1000 1000 1000 1000 1000 1000 1000 1000 1000 1000 1000 1000 1000 1000 1000 1000 1000 1000 1000 1000 1000 1000 1000 1000 1000 1000 1000 1000 1000 1000 1000 1000 1000 1000 1000 1000 1000 1000 1000 1000 1000 1000 1000 1000 1000 1000 1000 1000 1000 1000 1000 1000 1000 1000 1000 1000 1000 1000 1000 1000 1000 1000 1000 1000 1000 1000 1000 1000 1000 1000 1000 1000
380 383 391 392 395 401 406 409 409 413 419 422 427 436 443 449 457 462 470 474 483 482 485 488 492 499 506 510 513 519 525 531 534 539 545 551 561 554 555 550 544 546 545 540 535 541 544 546 550 545 543 543 543 541 541 538 537 534 534 531 533 525 522 517 514 508 504 504 503 501 501 499 501 495 494 488 480 484 485 485 485 484 483 485 493 490 492 491 493 494 497 501 509 507 508 509 512 513 515 518 521 522 522 527 532 535 539 538 541 543 548 548 551 555 560 560 562 563 564 568 574 577 583 585 593 595 601 605 611 615 624 630 639 637 639 639 639 646 653 662 673 675 677 682 686 690 696 705 717 723 733 736 734 745 755 761 765 770 777 785 795 790 789 790 793 794 796 795 795 800 805 809 819 815 816 814 813 811 815 813 817 812 810 807 806 802 801 796 789 790 791 796 802 798 795 797 803 797 797 795 796 796 799 801 804 810 817 822 827 830 839 844 855 849 847 841 831 837 842 843 846 841 839 837 837 836 837 840 844 840 839 841 849 846 850 851 854 858 861 858 857 862 868 876 887 883 885 888 890 897 902 900 899 901 906 909 913 918 924 925 930 930 932 932 934 930 929 926 922 924 926 928 932 927 924 924 927 936 943 947 949 958 968 973 980 978 981 982 988 979 975 971 967 966 965 967 970 971 973 973 972 976 977 976 974 986 997 1000 1000 1000 1000 1000 1000 1000 1000 1000 1000 1000 1000 1000 1000 1000 1000 1000 1000 1000 1000 1000 1000 1000 1000 1000 1000 1000 1000 1000 1000 1000 1000 1000 1000 1000 1000 1000 1000 1000 1000 1000 1000 1000 1000 1000 1000 1000 1000 1000 1000 1000 1000 1000 1000 1000 1000 1000 1000 1000 1000 1000 1000 1000 1000 1000 1000 1000 1000 1000 1000 1000 1000 1000 1000 1000 1000 1000 1000 1000 1000 1000 1000 1000 1000 1000 1000 1000 1000 1000 1000 1000 1000 1000 1000 1000 1000 1000 1000 1000 1000 1000 1000 1000 1000 1000 1000 1000 1000 1000 1000 1000 1000 1000 1000 1000 1000 1000 1000 1000 1000 1000 1000 1000 1000 1000 1000 1000 1000 1000 1000 1000 1000 1000 1000 1000 1000 1000 1000 1000 1000 1000 1000 1000 1000 1000 1000 1000 1000 1000 1000 1000 1000 1000 1000 1000 1000 1000 1000 1000 1000 1000 1000 1000 1000 1000 1000 1000 1000 1000 1000 1000 1000 1000 1000 1000 1000 1000 1000 1000 1000 1000 1000 1000 1000 1000 1000 1000 1000 1000 1000 1000 1000 1000 1000 1000 1000 1000 1000 1000 1000 1000 1000 1000 1000 1000 1000
377 379 383 390 393 401 404 411 409 412 416 421 427 440 443 453 456 466 469 477 475 482 486 491 494 502 505 515 517 527 530 537 538 546 548 554 551 553 556 555 554 549 547 544 545 543 542 546 545 546 545 544 542 540 538 535 533 528 525 522 520 516 514 508 507 501 500 498 498 494 494 490 489 484 484 481 480 475 474 476 477 479 478 477 479 484 485 485 486 490 490 495 495 501 502 502 506 510 511 513 513 516 515 519 521 529 531 532 534 535 537 539 544 552 551 552 554 556 558 562 564 573 573 577 580 588 592 599 601 609 614 622 621 628 631 633 636 642 644 652 656 670 672 678 680 686 692 701 707 721 727 737 737 742 748 761 761 769 777 787 785 788 790 788 791 794 794 797 797 800 799 805 804 807 811 810 809 806 808 809 807 807 805 801 800 798 798 795 792 785 786 788 787 792 791 788 788 787 788 786 788 787 790 795 799 808 813 822 821 826 830 838 836 840 840 837 838 835 832 833 834 835 836 835 833 831 834 835 833 835 837 838 838 843 846 851 853 859 857 856 858 861 864 875 873 880 887 891 893 899 898 899 901 901 905 912 914 919 923 928 926 930 932 933 931 930 929 927 925 920 922 926 925 925 928 926 931 939 940 950 951 958 963 972 970 974 978 979 981 982 981 972 972 966 967 966 968 971 971 973 974 978 976 976 982 989 991 1000 1000 1000 1000 1000 1000 1000 1000 1000 1000 1000 1000 1000 1000 1000 1000 1000 1000 1000 1000 1000 1000 1000 1000 1000 1000 1000 1000 1000 1000 1000 1000 1000 1000 1000 1000 1000 1000 1000 1000 1000 1000 1000 1000 1000 1000 1000 1000 1000 1000 1000 1000 1000 1000 1000 1000 1000 1000 1000 1000 1000 1000 1000 1000 1000 1000 1000 1000 1000 1000 1000 1000 1000 1000 1000 1000 1000 1000 1000 1000 1000 1000 1000 1000 1000 1000 1000 1000 1000 1000 1000 1000 1000 1000 1000 1000 1000 1000 1000 1000 1000 1000 1000 1000 1000 1000 1000 1000 1000 1000 1000 1000 1000 1000 1000 1000 1000 1000 1000 1000 1000 1000 1000 1000 1000 1000 1000 1000 1000 1000 1000 1000 1000 1000 1000 1000 1000 1000 1000 1000 1000 1000 1000 1000 1000 1000 1000 1000 1000 1000 1000 1000 1000 1000 1000 1000 1000 1000 1000 1000 1000 1000 1000 1000 1000 1000 1000 1000 1000 1000 1000 1000 1000 1000 1000 1000 1000 1000 1000 1000 1000 1000 1000 1000 1000 1000 1000 1000 1000 1000 1000 1000 1000 1000 1000 1000 1000 1000 1000 1000 1000 1000 1000 1000 1000 1000
374 377 385 387 391 401 412 411 410 416 422 425 431 442 452 459 463 471 476 476 474 481 488 493 500 505 512 517 521 531 543 546 547 554 560 557 553 554 556 557 558 553 551 548 548 546 547 547 544 545 541 542 541 539 536 532 529 521 513 514 511 506 499 498 499 493 490 492 496 491 490 485 482 476 471 472 473 469 465 466 469 470 472 472 474 476 480 478 478 481 484 487 490 493 497 500 506 507 509 508 508 509 507 512 516 523 532 530 530 531 533 535 539 545 552 548 548 550 553 556 559 565 571 571 573 581 588 592 597 606 616 613 612 618 624 627 632 638 644 648 652 663 670 676 681 688 696 703 710 721 736 736 737 745 757 759 759 772 787 789 790 791 791 790 793 793 795 794 795 795 798 798 799 803 809 805 804 802 807 802 798 797 797 794 794 792 793 790 790 784 782 779 780 782 783 782 783 781 779 781 785 782 783 789 795 806 819 820 820 825 831 831 828 831 830 831 833 830 829 828 829 829 829 828 830 829 834 829 826 829 831 833 835 839 841 847 852 857 862 858 857 861 865 870 872 881 891 894 899 901 907 902 902 904 910 915 920 924 933 927 925 930 936 933 931 927 926 925 925 922 921 923 925 927 932 933 935 941 946 951 954 962 974 971 969 975 979 982 983 983 982 976 977 970 970 968 971 971 973 973 975 977 980 980 987 992 1000 1000 1000 1000 1000 1000 1000 1000 1000 1000 1000 1000 1000 1000 1000 1000 1000 1000 1000 1000 1000 1000 1000 1000 1000 1000 1000 1000 1000 1000 1000 1000 1000 1000 1000 1000 1000 1000 1000 1000 1000 1000 1000 1000 1000 1000 1000 1000 1000 1000 1000 1000 1000 1000 1000 1000 1000 1000 1000 1000 1000 1000 1000 1000 1000 1000 1000 1000 1000 1000 1000 1000 1000 1000 1000 1000 1000 1000 1000 1000 1000 1000 1000 1000 1000 1000 1000 1000 1000 1000 1000 1000 1000 1000 1000 1000 1000 1000 1000 1000 1000 1000 1000 1000 1000 1000 1000 1000 1000 1000 1000 1000 1000 1000 1000 1000 1000 1000 1000 1000 1000 1000 1000 1000 1000 1000 1000 1000 1000 1000 1000 1000 1000 1000 1000 1000 1000 1000 1000 1000 1000 1000 1000 1000 1000 1000 1000 1000 1000 1000 1000 1000 1000 1000 1000 1000 1000 1000 1000 1000 1000 1000 1000 1000 1000 1000 1000 1000 1000 1000 1000 1000 1000 1000 1000 1000 1000 1000 1000 1000 1000 1000 1000 1000 1000 1000 1000 1000 1000 1000 1000 1000 1000 1000 1000 1000 1000 1000 1000 1000 1000 1000 1000 1000 1000 1000 1000
371 373 377 385 392 400 403 414 418 422 422 428 434 446 451 470 474 479 476 480 481 483 486 495 501 509 511 522 524 533 539 557 562 565 560 561 559 554 556 559 556 556 554 550 549 546 550 552 554 551 546 544 541 539 534 528 524 517 516 510 504 498 495 489 486 485 487 486 486 485 483 478 475 467 469 466 464 463 462 457 459 463 464 466 466 468 468 469 469 472 474 480 481 485 490 498 500 506 504 505 506 508 507 508 509 518 518 526 527 528 529 530 533 539 538 543 544 544 545 550 553 558 558 563 567 575 576 584 591 602 599 602 606 610 613 621 625 635 637 647 652 661 664 678 684 690 693 705 709 719 723 737 742 746 749 761 766 773 777 792 798 797 792 791 791 793 791 792 792 790 791 792 796 799 797 799 795 791 793 794 794 787 787 785 784 784 785 785 785 782 777 769 771 774 774 775 776 777 776 775 775 776 782 786 792 804 806 820 823 825 824 829 828 826 825 826 825 826 824 823 824 823 821 821 821 823 823 823 825 827 827 829 833 838 839 844 849 857 857 860 861 862 863 869 873 883 885 897 900 902 901 900 903 906 910 920 921 924 923 925 929 929 928 933 931 924 925 923 922 923 922 922 924 929 932 939 940 944 946 954 957 965 965 972 975 980 981 988 989 985 981 975 974 969 971 968 971 972 972 974 976 978 977 980 985 994 997 1000 1000 1000 1000 1000 1000 1000 1000 1000 1000 1000 1000 1000 1000 1000 1000 1000 1000 1000 1000 1000 1000 1000 1000 1000 1000 1000 1000 1000 1000 1000 1000 1000 1000 1000 1000 1000 1000 1000 1000 1000 1000 1000 1000 1000 1000 1000 1000 1000 1000 1000 1000 1000 1000 1000 1000 1000 1000 1000 1000 1000 1000 1000 1000 1000 1000 1000 1000 1000 1000 1000 1000 1000 1000 1000 1000 1000 1000 1000 1000 1000 1000 1000 1000 1000 1000 1000 1000 1000 1000 1000 1000 1000 1000 1000 1000 1000 1000 1000 1000 1000 1000 1000 1000 1000 1000 1000 1000 1000 1000 1000 1000 1000 1000 1000 1000 1000 1000 1000 1000 1000 1000 1000 1000 1000 1000 1000 1000 1000 1000 1000 1000 1000 1000 1000 1000 1000 1000 1000 1000 1000 1000 1000 1000 1000 1000 1000 1000 1000 1000 1000 1000 1000 1000 1000 1000 1000 1000 1000 1000 1000 1000 1000 1000 1000 1000 1000 1000 1000 1000 1000 1000 1000 1000 1000 1000 1000 1000 1000 1000 1000 1000 1000 1000 1000 1000 1000 1000 1000 1000 1000 1000 1000 1000 1000 1000 1000 1000 1000 1000 1000 1000 1000 1000 1000 1000
366 373 379 387 400 402 410 415 425 424 431 433 441 447 460 472 497 481 482 481 488 487 494 500 512 512 515 522 532 536 548 560 585 571 569 564 563 558 558 556 556 554 552 550 550 550 554 556 566 554 548 544 540 537 531 526 518 515 510 504 498 493 485 481 474 479 478 481 483 479 473 471 467 465 462 462 458 458 458 454 451 456 460 459 460 460 461 459 457 463 469 474 478 481 488 493 502 500 501 501 504 505 505 505 505 510 514 519 523 525 529 528 531 532 534 535 538 537 538 543 552 550 552 555 559 566 573 580 591 593 598 597 597 603 609 613 621 629 637 644 657 657 665 676 698 691 697 704 717 719 726 735 750 748 755 760 773 774 787 794 818 797 791 787 791 787 786 788 794 789 788 791 796 794 793 790 783 784 784 785 788 782 780 776 772 775 777 778 780 776 770 765 759 763 767 767 769 769 769 770 770 774 781 785 797 800 807 814 828 821 824 825 826 821 821 819 820 816 816 816 821 816 814 812 812 814 816 816 817 822 826 830 837 838 842 847 856 857 860 860 862 861 865 869 876 881 888 896 912 904 904 901 901 905 913 919 930 925 926 925 931 927 927 927 932 923 922 919 919 919 920 922 925 930 936 940 945 947 953 956 964 965 971 973 977 980 987 990 1000 989 984 976 971 969 970 969 974 971 971 972 979 975 978 980 988 993 1000 1000 1000 1000 1000 1000 1000 1000 1000 1000 1000 1000 1000 1000 1000 1000 1000 1000 1000 1000 1000 1000 1000 1000 1000 1000 1000 1000 1000 1000 1000 1000 1000 1000 1000 1000 1000 1000 1000 1000 1000 1000 1000 1000 1000 1000 1000 1000 1000 1000 1000 1000 1000 1000 1000 1000 1000 1000 1000 1000 1000 1000 1000 1000 1000 1000 1000 1000 1000 1000 1000 1000 1000 1000 1000 1000 1000 1000 1000 1000 1000 1000 1000 1000 1000 1000 1000 1000 1000 1000 1000 1000 1000 1000 1000 1000 1000 1000 1000 1000 1000 1000 1000 1000 1000 1000 1000 1000 1000 1000 1000 1000 1000 1000 1000 1000 1000 1000 1000 1000 1000 1000 1000 1000 1000 1000 1000 1000 1000 1000 1000 1000 1000 1000 1000 1000 1000 1000 1000 1000 1000 1000 1000 1000 1000 1000 1000 1000 1000 1000 1000 1000 1000 1000 1000 1000 1000 1000 1000 1000 1000 1000 1000 1000 1000 1000 1000 1000 1000 1000 1000 1000 1000 1000 1000 1000 1000 1000 1000 1000 1000 1000 1000 1000 1000 1000 1000 1000 1000 1000 1000 1000 1000 1000 1000 1000 1000 1000 1000 1000 1000 1000 1000 1000 1000 1000 1000
372 375 376 386 388 400 404 411 412 420 426 433 435 444 448 463 459 469 477 477 482 486 491 500 500 512 515 521 522 533 537 552 550 565 568 563 562 559 558 554 555 554 552 548 551 553 553 553 552 552 551 544 543 539 535 528 527 518 512 501 501 493 488 479 482 481 478 478 475 475 472 466 468 466 465 462 459 456 454 453 454 452 453 453 453 452 450 450 453 457 460 469 469 476 478 484 484 493 495 497 499 504 504 505 503 504 508 516 515 521 522 524 523 524 524 526 526 530 530 534 534 539 541 547 549 557 561 572 571 582 586 591 591 597 598 604 610 624 627 636 635 645 653 666 667 682 689 700 702 714 719 730 730 742 747 754 754 764 770 781 777 783 786 778 781 779 782 783 782 784 786 788 786 788 788 785 784 780 777 775 776 775 774 770 771 770 769 772 773 774 772 765 762 755 755 758 758 761 764 768 767 769 773 778 781 793 794 802 802 810 818 821 818 814 814 810 809 805 805 804 807 809 807 804 808 808 808 811 813 818 821 828 829 835 842 849 850 857 858 859 857 857 861 869 869 877 882 890 890 899 901 900 901 901 904 913 914 922 924 921 922 924 921 919 917 914 916 915 916 915 916 922 925 932 935 942 943 949 950 956 957 962 967 973 973 978 979 983 981 983 983 974 974 967 965 966 967 967 967 967 966 968 972 975 980 990 997 1000 1000 1000 1000 1000 1000 1000 1000 1000 1000 1000 1000 1000 1000 1000 1000 1000 1000 1000 1000 1000 1000 1000 1000 1000 1000 1000 1000 1000 1000 1000 1000 1000 1000 1000 1000 1000 1000 1000 1000 1000 1000 1000 1000 1000 1000 1000 1000 1000 1000 1000 1000 1000 1000 1000 1000 1000 1000 1000 1000 1000 1000 1000 1000 1000 1000 1000 1000 1000 1000 1000 1000 1000 1000 1000 1000 1000 1000 1000 1000 1000 1000 1000 1000 1000 1000 1000 1000 1000 1000 1000 1000 1000 1000 1000 1000 1000 1000 1000 1000 1000 1000 1000 1000 1000 1000 1000 1000 1000 1000 1000 1000 1000 1000 1000 1000 1000 1000 1000 1000 1000 1000 1000 1000 1000 1000 1000 1000 1000 1000 1000 1000 1000 1000 1000 1000 1000 1000 1000 1000 1000 1000 1000 1000 1000 1000 1000 1000 1000 1000 1000 1000 1000 1000 1000 1000 1000 1000 1000 1000 1000 1000 1000 1000 1000 1000 1000 1000 1000 1000 1000 1000 1000 1000 1000 1000 1000 1000 1000 1000 1000 1000 1000 1000 1000 1000 1000 1000 1000 1000 1000 1000 1000 1000 1000 1000 1000 1000 1000 1000 1000 1000 1000 1000 1000 1000
375 378 380 385 388 397 405 406 407 417 429 430 433 439 444 447 445 458 467 474 483 486 491 496 497 508 517 518 520 527 532 537 537 550 561 558 559 557 559 555 557 554 553 550 552 554 556 553 551 548 545 543 544 538 533 533 533 521 511 504 500 492 483 483 486 482 480 476 472 469 466 467 470 467 465 460 458 454 451 452 455 454 457 450 447 444 440 443 445 451 458 461 465 469 475 474 474 482 489 492 496 499 505 501 500 503 509 511 512 516 522 517 515 515 517 517 516 520 521 524 526 529 529 535 540 548 557 558 559 572 582 582 581 589 595 598 603 614 627 626 625 637 647 652 657 669 679 691 699 709 716 720 722 733 743 744 746 754 763 762 758 764 765 771 778 775 776 776 778 778 779 780 781 780 784 781 780 775 773 770 770 768 764 766 767 767 764 768 769 770 771 763 760 754 749 749 748 754 761 762 765 766 775 773 774 782 787 788 789 800 813 812 814 810 809 805 802 798 794 796 799 798 797 800 806 804 801 805 810 815 822 826 829 837 847 851 854 857 861 857 854 855 859 865 868 876 888 887 886 892 896 897 901 900 904 906 908 916 924 918 918 916 912 910 908 906 906 909 913 910 910 919 926 934 942 945 946 950 952 955 957 962 969 969 970 974 980 976 973 973 971 970 973 964 957 962 965 962 960 962 961 965 966 973 980 990 1000 1000 1000 1000 1000 1000 1000 1000 1000 1000 1000 1000 1000 1000 1000 1000 1000 1000 1000 1000 1000 1000 1000 1000 1000 1000 1000 1000 1000 1000 1000 1000 1000 1000 1000 1000 1000 1000 1000 1000 1000 1000 1000 1000 1000 1000 1000 1000 1000 1000 1000 1000 1000 1000 1000 1000 1000 1000 1000 1000 1000 1000 1000 1000 1000 1000 1000 1000 1000 1000 1000 1000 1000 1000 1000 1000 1000 1000 1000 1000 1000 1000 1000 1000 1000 1000 1000 1000 1000 1000 1000 1000 1000 1000 1000 1000 1000 1000 1000 1000 1000 1000 1000 1000 1000 1000 1000 1000 1000 1000 1000 1000 1000 1000 1000 1000 1000 1000 1000 1000 1000 1000 1000 1000 1000 1000 1000 1000 1000 1000 1000 1000 1000 1000 1000 1000 1000 1000 1000 1000 1000 1000 1000 1000 1000 1000 1000 1000 1000 1000 1000 1000 1000 1000 1000 1000 1000 1000 1000 1000 1000 1000 1000 1000 1000 1000 1000 1000 1000 1000 1000 1000 1000 1000 1000 1000 1000 1000 1000 1000 1000 1000 1000 1000 1000 1000 1000 1000 1000 1000 1000 1000 1000 1000 1000 1000 1000 1000 1000 1000 1000 1000 1000 1000 1000 1000 1000
379 382 382 387 389 395 394 402 403 412 414 427 429 435 433 439 441 452 455 469 473 484 488 496 500 508 509 517 519 523 523 529 531 540 542 552 552 554 553 551 554 554 554 550 553 556 554 554 552 546 546 542 539 537 539 538 533 522 520 507 503 494 493 486 486 482 480 475 472 465 468 469 467 467 463 457 456 453 452 450 450 453 449 444 445 440 439 438 439 445 447 455 460 462 461 465 467 474 476 486 489 494 493 494 498 499 503 510 511 511 510 509 509 506 509 512 513 515 514 518 519 522 522 524 528 538 540 547 555 566 566 576 578 584 585 593 596 604 607 619 624 631 632 640 646 660 668 686 692 707 707 715 717 727 726 735 738 746 743 747 747 750 754 763 762 768 768 769 771 772 771 773 770 770 773 776 774 768 768 762 763 765 765 764 764 767 767 769 768 768 764 758 758 752 750 742 744 749 749 755 756 758 761 765 770 776 774 776 781 790 792 801 804 803 802 800 797 791 790 789 787 788 793 795 798 802 800 800 802 811 816 826 829 838 841 854 856 859 857 857 856 852 856 864 865 871 875 884 884 887 888 894 895 897 899 900 904 910 908 910 913 911 907 901 902 898 900 902 902 905 913 921 925 937 941 952 954 956 954 956 956 963 961 965 966 971 968 969 968 967 966 964 962 960 962 960 960 959 961 961 960 965 967 972 974 987 990 1000 1000 1000 1000 1000 1000 1000 1000 1000 1000 1000 1000 1000 1000 1000 1000 1000 1000 1000 1000 1000 1000 1000 1000 1000 1000 1000 1000 1000 1000 1000 1000 1000 1000 1000 1000 1000 1000 1000 1000 1000 1000 1000 1000 1000 1000 1000 1000 1000 1000 1000 1000 1000 1000 1000 1000 1000 1000 1000 1000 1000 1000 1000 1000 1000 1000 1000 1000 1000 1000 1000 1000 1000 1000 1000 1000 1000 1000 1000 1000 1000 1000 1000 1000 1000 1000 1000 1000 1000 1000 1000 1000 1000 1000 1000 1000 1000 1000 1000 1000 1000 1000 1000 1000 1000 1000 1000 1000 1000 1000 1000 1000 1000 1000 1000 1000 1000 1000 1000 1000 1000 1000 1000 1000 1000 1000 1000 1000 1000 1000 1000 1000 1000 1000 1000 1000 1000 1000 1000 1000 1000 1000 1000 1000 1000 1000 1000 1000 1000 1000 1000 1000 1000 1000 1000 1000 1000 1000 1000 1000 1000 1000 1000 1000 1000 1000 1000 1000 1000 1000 1000 1000 1000 1000 1000 1000 1000 1000 1000 1000 1000 1000 1000 1000 1000 1000 1000 1000 1000 1000 1000 1000 1000 1000 1000 1000 1000 1000 1000 1000 1000 1000 1000 1000 1000 1000
381 383 386 389 395 393 393 395 395 404 412 419 427 427 428 432 431 445 457 463 472 481 490 496 506 508 514 516 519 520 523 524 525 533 539 541 544 547 549 550 553 553 555 553 555 553 554 552 555 548 545 540 534 537 538 537 540 526 518 509 500 498 495 493 495 487 480 476 469 467 466 466 467 463 459 454 449 447 447 445 448 446 445 442 442 437 434 434 435 440 445 452 465 458 455 456 456 464 472 478 488 486 488 491 496 498 504 507 515 510 510 505 501 504 506 507 510 508 508 512 518 516 518 519 522 529 536 542 551 558 564 568 570 577 583 587 594 599 605 611 619 625 633 634 637 654 669 682 698 702 709 711 713 718 723 727 731 735 736 736 731 740 748 752 753 757 758 761 767 764 764 764 761 764 766 768 769 766 765 760 755 760 763 762 764 763 766 766 772 765 762 757 754 751 747 743 736 743 746 748 750 753 757 760 766 767 770 770 771 780 790 793 801 794 791 792 791 785 779 780 778 784 790 793 799 796 794 796 798 807 817 824 831 837 845 852 864 859 859 856 854 853 855 860 866 871 877 879 879 884 887 891 895 895 900 899 903 903 905 905 907 902 899 897 898 895 893 896 897 906 915 922 934 939 949 955 966 960 961 959 956 960 962 961 961 963 965 963 958 960 961 958 954 956 957 960 964 961 961 960 957 965 970 973 974 984 993 1000 1000 1000 1000 1000 1000 1000 1000 1000 1000 1000 1000 1000 1000 1000 1000 1000 1000 1000 1000 1000 1000 1000 1000 1000 1000 1000 1000 1000 1000 1000 1000 1000 1000 1000 1000 1000 1000 1000 1000 1000 1000 1000 1000 1000 1000 1000 1000 1000 1000 1000 1000 1000 1000 1000 1000 1000 1000 1000 1000 1000 1000 1000 1000 1000 1000 1000 1000 1000 1000 1000 1000 1000 1000 1000 1000 1000 1000 1000 1000 1000 996 999 1000 1000 998 1000 1000 1000 1000 1000 1000 1000 1000 1000 1000 1000 1000 1000 1000 1000 1000 1000 1000 1000 1000 1000 1000 1000 1000 1000 1000 1000 1000 1000 1000 1000 1000 1000 1000 1000 1000 1000 1000 1000 1000 1000 1000 1000 1000 1000 1000 1000 1000 1000 1000 1000 1000 1000 1000 1000 1000 1000 1000 1000 1000 1000 1000 1000 1000 1000 1000 1000 1000 1000 1000 1000 1000 1000 1000 1000 1000 1000 1000 1000 1000 1000 1000 1000 1000 1000 1000 1000 1000 1000 1000 1000 1000 1000 1000 1000 1000 1000 1000 1000 1000 1000 1000 1000 1000 1000 1000 1000 1000 1000 1000 1000 1000 1000 1000 1000 1000 1000 1000 1000 1000
381 383 385 389 386 389 391 393 394 399 400 411 412 419 425 430 432 442 445 456 462 478 484 494 496 505 511 517 515 518 519 521 522 529 528 532 535 541 543 547 548 552 552 552 550 547 548 547 549 548 547 540 542 539 536 534 532 525 525 514 513 504 502 499 497 492 489 481 476 468 465 464 461 459 459 453 451 442 440 438 440 441 438 438 436 432 431 431 431 435 437 445 444 451 451 451 452 455 459 467 469 476 482 486 488 495 496 500 501 506 506 503 503 503 501 502 501 500 503 505 505 509 510 513 515 523 527 537 539 551 555 564 564 573 574 579 583 593 596 602 606 618 622 629 637 653 657 676 676 695 700 707 708 711 715 722 723 728 727 731 732 734 738 745 744 750 751 753 752 755 757 759 759 760 761 764 763 762 761 758 759 759 759 760 758 757 760 760 760 758 760 756 757 754 751 747 745 743 739 743 745 749 750 754 753 759 761 764 766 771 774 780 779 783 786 786 784 781 779 777 777 780 781 789 787 791 794 795 797 804 810 822 825 835 838 848 848 856 858 856 855 851 853 856 861 870 872 876 880 885 887 891 887 889 893 896 895 896 895 898 895 893 892 892 891 891 891 894 897 907 911 921 925 938 945 955 954 960 963 963 962 959 957 959 958 958 958 960 958 954 955 955 956 955 956 961 959 962 963 963 966 969 970 977 978 985 988 1000 1000 1000 1000 1000 1000 1000 1000 1000 1000 1000 1000 1000 1000 1000 1000 1000 1000 1000 1000 1000 1000 1000 1000 1000 1000 1000 1000 1000 1000 1000 1000 1000 1000 1000 1000 1000 1000 1000 1000 1000 1000 1000 1000 1000 1000 1000 1000 1000 1000 1000 1000 1000 1000 1000 1000 1000 1000 1000 1000 1000 1000 1000 1000 1000 1000 1000 1000 1000 1000 1000 1000 1000 1000 1000 1000 1000 1000 1000 1000 1000 1000 999 998 1000 1000 1000 1000 1000 1000 1000 1000 1000 1000 1000 1000 1000 1000 1000 1000 1000 1000 1000 1000 1000 1000 1000 1000 1000 1000 1000 1000 1000 1000 1000 1000 1000 1000 1000 1000 1000 1000 1000 1000 1000 1000 1000 1000 1000 1000 1000 1000 1000 1000 1000 1000 1000 1000 1000 1000 1000 1000 1000 1000 1000 1000 1000 1000 1000 1000 1000 1000 1000 1000 1000 1000 1000 1000 1000 1000 1000 1000 1000 1000 1000 1000 1000 1000 1000 1000 1000 1000 1000 1000 1000 1000 1000 1000 1000 1000 1000 1000 1000 1000 1000 1000 1000 1000 1000 1000 1000 1000 1000 1000 1000 1000 1000 1000 1000 1000 1000 1000 1000 1000 1000 1000
379 382 388 384 381 385 390 391 394 395 397 405 409 417 424 426 430 438 451 455 459 476 494 495 498 506 517 514 511 514 519 517 518 521 527 527 530 535 542 543 547 550 554 550 547 546 544 545 548 547 546 544 547 541 539 535 534 527 523 517 516 509 505 503 503 495 491 482 478 468 462 459 456 456 457 452 450 441 434 434 435 433 428 431 431 426 422 424 426 429 435 438 438 441 438 443 447 451 458 461 463 471 478 481 485 490 496 496 497 500 503 498 498 497 499 495 496 496 498 497 498 500 503 507 509 518 527 531 534 546 556 556 558 566 575 576 579 587 595 598 601 611 622 628 636 649 664 667 667 685 701 702 705 709 717 718 719 722 721 726 729 734 743 740 736 742 748 746 742 747 749 751 754 756 762 761 761 759 756 756 757 759 762 757 753 756 759 757 757 755 754 753 756 753 752 747 746 740 737 739 742 746 750 748 745 751 757 758 759 766 776 771 766 771 776 777 778 774 768 771 775 775 779 779 780 786 791 793 798 805 817 822 826 834 840 844 845 852 858 856 856 852 854 857 863 870 876 879 884 886 893 887 882 885 893 891 890 888 886 887 887 885 879 883 884 883 883 891 897 909 921 924 927 940 955 954 953 958 963 963 966 961 954 955 953 954 954 956 956 954 953 953 955 954 956 956 959 960 966 966 971 972 978 978 980 985 994 997 998 1000 1000 1000 1000 1000 1000 1000 1000 1000 1000 1000 1000 1000 1000 1000 1000 1000 1000 1000 1000 1000 1000 1000 1000 1000 1000 1000 1000 1000 1000 1000 1000 1000 1000 1000 1000 1000 1000 1000 1000 1000 1000 1000 1000 1000 1000 1000 1000 1000 1000 1000 1000 1000 1000 1000 1000 1000 1000 1000 1000 1000 1000 1000 1000 1000 1000 1000 1000 1000 1000 1000 1000 1000 1000 1000 1000 1000 1000 1000 1000 998 1000 996 995 998 1000 1000 1000 1000 1000 1000 1000 1000 1000 1000 1000 1000 1000 1000 1000 1000 1000 1000 1000 1000 1000 1000 1000 1000 1000 1000 1000 1000 1000 1000 1000 1000 1000 1000 1000 1000 1000 1000 1000 1000 1000 1000 1000 1000 1000 1000 1000 1000 1000 1000 1000 1000 1000 1000 1000 1000 1000 1000 1000 1000 1000 1000 1000 1000 1000 1000 1000 1000 1000 1000 1000 1000 1000 1000 1000 1000 1000 1000 1000 1000 1000 1000 1000 1000 1000 1000 1000 1000 1000 1000 1000 1000 1000 1000 1000 1000 1000 1000 1000 1000 1000 1000 1000 1000 1000 1000 1000 1000 1000 1000 1000 1000 1000 1000 1000 1000 1000 1000 1000
379 381 380 381 382 382 383 388 389 393 396 405 407 416 414 421 424 432 439 455 460 475 479 497 502 507 505 511 510 511 509 510 509 510 514 521 524 527 530 538 545 550 549 550 550 548 546 543 546 548 545 543 542 541 539 535 533 526 525 515 514 511 509 505 503 497 492 480 475 465 463 455 454 452 451 449 447 439 437 429 430 429 429 428 426 421 422 419 417 423 427 434 435 437 437 439 437 446 449 457 461 468 469 475 479 485 486 494 495 497 493 491 490 490 487 485 489 492 490 488 490 493 495 503 505 514 517 528 533 543 541 548 554 561 563 573 576 581 585 595 597 606 610 625 631 645 649 664 669 680 682 696 702 706 709 716 718 720 721 725 725 731 732 739 738 736 737 741 740 742 742 745 745 748 752 757 759 758 757 755 755 758 755 754 754 755 754 753 754 753 752 749 750 751 749 744 743 737 738 735 738 743 742 743 743 743 746 752 754 760 759 763 764 761 764 770 768 769 769 767 767 768 769 771 776 783 783 791 793 804 810 825 830 838 836 844 845 851 850 855 853 850 854 857 862 871 873 882 883 884 882 883 883 879 881 886 885 882 881 878 880 881 880 877 875 876 882 890 896 911 913 927 931 942 942 953 956 958 958 962 965 965 961 956 955 952 953 954 954 953 952 951 950 951 951 951 954 956 960 966 968 973 974 979 981 984 988 997 999 1000 1000 1000 1000 1000 1000 1000 1000 1000 1000 1000 1000 1000 1000 1000 1000 1000 1000 1000 1000 1000 1000 1000 1000 1000 1000 1000 1000 1000 1000 1000 1000 1000 1000 1000 1000 1000 1000 1000 1000 1000 1000 1000 1000 1000 1000 1000 1000 1000 1000 1000 1000 1000 1000 1000 1000 1000 1000 1000 1000 1000 1000 1000 1000 1000 1000 1000 998 994 992 992 991 994 996 1000 1000 1000 1000 999 998 993 993 989 992 994 997 1000 1000 1000 1000 1000 1000 1000 1000 1000 1000 1000 1000 1000 1000 1000 1000 1000 1000 1000 1000 1000 1000 1000 1000 1000 1000 1000 1000 1000 1000 1000 1000 1000 1000 1000 1000 1000 1000 1000 1000 1000 1000 1000 1000 1000 1000 1000 1000 1000 1000 1000 1000 1000 1000 1000 1000 1000 1000 1000 1000 1000 1000 1000 1000 1000 1000 1000 1000 1000 1000 1000 1000 1000 1000 1000 1000 1000 1000 1000 1000 1000 1000 1000 1000 1000 1000 1000 1000 1000 1000 1000 1000 1000 1000 1000 1000 1000 1000 1000 1000 1000 1000 1000 1000 1000 1000 1000 1000 1000 1000 1000 1000 1000 1000 1000 1000 1000 1000
378 379 380 378 378 379 382 383 386 391 395 402 412 411 412 415 420 429 440 449 462 472 486 494 511 502 504 504 504 503 504 503 500 504 508 514 521 523 528 535 550 546 550 548 550 546 546 545 549 544 541 541 540 538 533 534 535 528 525 516 509 509 507 507 508 497 488 478 464 463 456 453 449 449 447 446 444 437 431 429 429 427 427 427 428 421 417 413 405 417 426 429 437 436 436 434 428 439 446 454 463 466 471 473 479 480 483 488 494 491 489 483 477 479 478 480 481 484 487 485 483 487 489 496 503 510 520 525 534 538 542 545 551 555 562 568 577 579 586 589 593 600 610 619 632 640 651 659 669 676 686 692 707 704 710 713 720 718 720 720 723 727 732 734 737 736 738 734 730 736 739 740 740 743 749 753 759 756 756 755 754 754 753 750 748 752 755 752 754 751 750 749 749 748 748 744 742 738 736 736 740 740 740 738 737 740 745 747 749 752 757 756 756 758 761 761 759 761 763 762 765 764 765 768 774 776 780 783 788 800 814 824 843 837 838 842 845 847 851 850 849 851 856 857 868 870 877 881 893 881 879 876 878 876 877 877 879 876 876 875 875 876 875 873 870 876 881 890 900 908 919 925 935 938 946 951 960 956 959 962 973 962 959 958 961 956 953 954 956 951 950 948 947 945 947 948 954 955 960 964 969 971 975 978 984 983 991 995 1000 1000 1000 1000 1000 1000 1000 1000 1000 1000 1000 1000 993 1000 1000 1000 1000 1000 1000 1000 1000 1000 1000 1000 1000 1000 1000 1000 1000 1000 1000 1000 1000 1000 1000 1000 1000 1000 1000 1000 1000 1000 1000 1000 1000 1000 1000 1000 1000 1000 1000 1000 1000 1000 1000 1000 1000 1000 1000 1000 1000 1000 1000 1000 1000 1000 998 990 983 984 980 982 980 984 989 994 1000 1000 1000 998 994 992 990 988 985 991 997 1000 1000 1000 1000 1000 1000 1000 1000 1000 1000 1000 1000 1000 1000 1000 1000 1000 1000 1000 1000 1000 1000 1000 1000 1000 1000 1000 1000 1000 1000 1000 1000 1000 1000 1000 1000 1000 1000 1000 1000 1000 1000 1000 1000 1000 1000 1000 1000 1000 1000 1000 1000 1000 1000 1000 1000 1000 1000 1000 1000 1000 1000 1000 1000 1000 1000 1000 1000 1000 1000 1000 1000 1000 1000 1000 1000 1000 1000 1000 1000 1000 1000 1000 1000 1000 1000 1000 1000 1000 1000 1000 1000 1000 1000 1000 1000 1000 1000 1000 1000 1000 1000 1000 1000 1000 1000 1000 1000 1000 1000 1000 1000 1000 1000 1000 1000 1000 1000
378 380 377 374 376 377 377 379 385 393 393 397 398 406 407 408 413 424 428 441 445 465 469 482 479 487 495 498 497 495 498 498 498 499 501 508 509 516 519 527 527 536 542 543 542 543 545 544 542 540 543 541 540 538 535 534 531 526 525 516 517 510 508 508 503 497 494 482 479 467 461 452 453 450 446 444 441 437 434 428 427 426 426 427 424 421 419 414 416 417 416 422 425 434 435 435 435 438 438 450 451 463 464 469 469 473 478 483 482 484 482 476 478 474 473 476 476 479 480 482 482 483 484 491 494 506 510 521 524 536 538 541 543 547 551 560 561 572 576 583 585 592 597 610 614 633 639 652 655 669 671 682 683 695 701 707 707 712 713 713 718 724 725 729 729 733 732 729 733 735 735 738 736 736 739 747 749 754 756 758 756 751 750 748 752 753 751 749 750 749 748 748 747 747 745 742 741 737 734 733 735 738 736 733 736 736 738 743 743 745 747 749 752 755 755 756 755 753 754 755 758 761 761 764 763 768 770 776 782 795 800 816 816 831 838 843 841 843 845 847 848 849 848 850 854 865 867 872 868 869 870 867 869 871 868 866 868 870 871 871 872 875 874 871 874 878 880 889 891 905 910 921 921 930 937 946 944 949 951 955 953 953 957 957 958 959 957 953 950 947 946 945 942 938 940 941 945 952 955 961 962 969 971 977 974 976 981 990 990 999 1000 1000 1000 1000 1000 1000 1000 1000 1000 1000 1000 1000 1000 1000 1000 1000 1000 1000 1000 1000 1000 1000 1000 1000 1000 1000 1000 1000 1000 1000 1000 1000 1000 1000 1000 1000 1000 1000 1000 1000 1000 1000 1000 1000 1000 1000 1000 1000 1000 1000 1000 1000 1000 1000 1000 1000 1000 1000 1000 1000 998 997 996 993 990 982 985 979 978 978 976 974 977 985 988 998 999 997 997 992 989 988 988 989 989 996 999 1000 1000 1000 1000 1000 1000 1000 1000 1000 1000 1000 1000 1000 1000 1000 1000 1000 1000 1000 1000 1000 1000 1000 1000 1000 1000 1000 1000 1000 1000 1000 1000 1000 1000 1000 1000 1000 1000 1000 1000 1000 1000 1000 1000 1000 1000 1000 1000 1000 1000 1000 1000 1000 1000 1000 1000 1000 1000 1000 1000 1000 1000 1000 1000 1000 1000 1000 1000 1000 1000 1000 1000 1000 1000 1000 1000 1000 1000 1000 1000 1000 1000 1000 1000 1000 1000 1000 1000 1000 1000 1000 1000 1000 1000 1000 1000 1000 1000 1000 1000 1000 1000 1000 1000 1000 1000 1000 1000 1000 1000 1000 1000 1000 1000 1000 1000
377 378 377 376 376 376 374 380 387 393 399 396 396 401 404 407 410 419 427 433 435 455 470 467 461 472 484 488 492 492 495 493 493 495 498 502 505 509 512 517 519 528 539 535 535 538 543 540 540 539 543 539 540 535 531 531 532 527 525 519 520 510 507 504 502 495 491 482 480 468 461 457 456 448 441 439 437 432 429 425 425 423 423 423 423 420 416 416 419 419 420 421 420 429 436 433 434 435 437 444 448 457 464 464 465 470 478 479 479 478 476 474 476 471 468 469 472 474 479 478 479 480 482 488 492 502 511 514 519 530 541 541 542 545 548 551 553 563 572 577 581 589 596 602 604 624 640 646 648 660 667 670 670 683 696 700 702 706 708 711 716 720 725 724 722 728 730 730 731 734 740 737 734 734 736 743 746 750 755 759 761 756 750 753 756 754 754 750 748 745 744 742 743 742 742 738 737 731 726 730 733 734 734 733 736 735 739 739 739 743 747 748 750 751 754 754 753 751 752 752 754 755 754 755 757 760 762 770 777 789 803 805 805 822 838 840 843 843 846 845 845 845 846 844 845 854 864 860 854 855 852 857 862 860 860 860 862 863 864 866 869 871 876 873 875 879 886 888 889 902 914 915 916 927 937 938 935 941 943 946 946 947 948 953 960 956 955 950 948 942 937 938 938 935 934 938 943 948 954 956 961 965 972 970 969 971 975 982 983 991 995 997 998 1000 1000 1000 1000 1000 1000 1000 1000 1000 1000 1000 1000 1000 1000 1000 1000 1000 1000 1000 1000 1000 1000 1000 1000 1000 1000 1000 1000 1000 1000 1000 1000 1000 1000 1000 1000 1000 1000 1000 1000 1000 1000 1000 1000 1000 1000 1000 1000 1000 1000 1000 1000 1000 1000 1000 999 993 986 989 990 986 980 979 981 976 972 971 972 970 970 976 980 990 998 996 996 989 982 986 988 988 986 992 996 1000 1000 1000 1000 1000 1000 1000 1000 1000 1000 1000 1000 1000 1000 1000 1000 1000 1000 1000 1000 1000 1000 1000 1000 1000 1000 1000 1000 1000 1000 1000 1000 1000 1000 1000 1000 1000 1000 1000 1000 1000 1000 1000 1000 1000 1000 1000 1000 1000 1000 1000 1000 1000 1000 1000 1000 1000 1000 1000 1000 1000 1000 1000 1000 1000 1000 1000 1000 1000 1000 1000 1000 1000 1000 1000 1000 1000 1000 1000 1000 1000 1000 1000 1000 1000 1000 1000 1000 1000 1000 1000 1000 1000 1000 1000 1000 1000 1000 1000 1000 1000 1000 1000 1000 1000 1000 1000 1000 1000 1000 1000 1000 1000 1000 1000 1000
377 378 378 377 376 378 378 380 385 394 393 394 398 401 403 409 409 416 419 430 436 450 447 455 456 459 466 481 483 489 488 487 490 490 493 499 501 506 507 512 512 520 520 525 529 533 532 535 534 535 536 535 537 533 532 529 528 527 524 517 513 505 506 500 499 491 488 476 473 465 465 460 457 448 443 434 431 428 427 421 422 421 421 420 420 420 419 417 420 423 423 422 426 429 426 429 429 432 435 441 447 453 454 460 461 466 468 477 477 476 472 469 467 467 466 461 463 467 468 474 474 477 480 487 491 500 500 508 514 526 529 540 543 545 542 545 548 558 562 574 578 588 591 601 604 619 625 645 648 656 655 661 665 674 680 695 698 702 702 708 710 716 717 723 724 728 727 730 730 731 733 736 735 733 738 744 743 748 753 762 763 763 760 758 755 754 752 750 748 740 739 736 735 736 734 732 730 726 728 730 730 733 731 732 731 732 733 735 738 742 741 746 747 747 749 753 751 747 748 750 749 751 749 748 750 753 759 767 770 783 785 796 801 815 821 838 841 841 841 843 844 843 841 838 841 844 845 850 848 846 847 849 846 848 852 853 854 856 857 862 862 866 867 870 875 880 882 890 894 902 902 912 916 925 925 934 937 940 938 940 940 944 945 948 951 951 950 944 944 939 938 933 931 931 933 936 936 945 945 950 954 958 959 964 964 967 971 980 984 990 989 994 994 997 999 1000 1000 1000 1000 1000 1000 1000 1000 1000 1000 1000 1000 1000 1000 1000 1000 1000 1000 1000 1000 1000 1000 1000 1000 1000 1000 1000 1000 1000 1000 1000 1000 1000 1000 1000 1000 1000 1000 1000 1000 1000 1000 1000 1000 1000 1000 1000 1000 1000 999 996 996 991 989 987 987 984 983 982 981 976 977 974 971 964 965 966 968 969 974 984 985 993 992 986 989 989 987 989 988 992 993 1000 1000 1000 1000 1000 1000 1000 1000 1000 1000 1000 1000 1000 1000 1000 1000 1000 1000 1000 1000 1000 1000 1000 1000 1000 1000 1000 1000 1000 1000 1000 1000 1000 1000 1000 1000 1000 1000 1000 1000 1000 1000 1000 1000 1000 1000 1000 1000 1000 1000 1000 1000 1000 1000 1000 1000 1000 1000 1000 1000 1000 1000 1000 1000 1000 1000 1000 1000 1000 1000 1000 1000 1000 1000 1000 1000 1000 1000 1000 1000 1000 1000 1000 1000 1000 1000 1000 1000 1000 1000 1000 1000 1000 1000 1000 1000 1000 1000 1000 1000 1000 1000 1000 1000 1000 1000 1000 1000 1000 1000 1000 1000 1000 1000 1000 1000
378 380 380 378 375 378 380 384 392 394 398 397 398 402 408 409 409 414 420 428 438 444 450 448 442 455 463 472 480 481 484 485 489 490 493 496 502 502 505 507 507 512 518 518 521 523 525 526 526 529 534 532 537 529 527 525 526 523 520 512 505 504 502 500 501 491 484 474 463 461 457 458 461 445 435 431 424 425 424 420 419 419 420 417 417 417 419 420 426 426 428 428 433 429 427 423 421 429 436 443 457 453 456 457 457 461 467 471 477 470 467 463 459 460 460 458 457 460 462 466 468 474 480 486 495 497 503 507 514 522 532 536 546 541 538 539 541 553 566 571 579 586 596 600 601 617 632 641 653 653 658 659 661 672 684 690 699 698 699 704 711 711 714 719 723 727 731 731 730 733 737 735 733 737 742 745 745 752 759 764 775 764 760 759 758 754 750 747 748 738 733 729 726 727 727 726 723 722 721 726 733 728 726 727 726 727 729 731 736 736 740 743 750 745 748 748 752 745 743 743 744 745 746 746 748 754 760 765 771 778 784 790 792 810 826 834 847 840 840 841 844 841 840 837 836 840 843 841 834 838 839 840 838 841 845 846 848 849 850 854 857 861 865 869 876 877 885 890 900 902 906 910 914 921 927 932 939 937 937 936 934 938 942 946 957 950 947 942 940 936 932 928 925 927 929 930 932 938 944 948 956 953 955 955 953 962 971 978 992 990 992 992 992 994 998 1000 1000 1000 1000 1000 1000 1000 1000 1000 1000 1000 1000 1000 1000 1000 1000 1000 1000 1000 1000 1000 1000 1000 1000 1000 1000 1000 1000 1000 1000 1000 1000 1000 1000 1000 1000 1000 1000 1000 1000 1000 1000 1000 1000 1000 1000 1000 1000 995 987 987 986 982 978 979 979 980 983 978 977 975 980 970 966 961 958 962 965 967 974 979 985 988 993 987 987 988 991 986 986 989 992 1000 1000 1000 1000 1000 1000 1000 1000 1000 1000 1000 1000 1000 1000 1000 1000 1000 1000 1000 1000 1000 1000 1000 1000 1000 1000 1000 1000 1000 1000 1000 1000 1000 1000 1000 1000 1000 1000 1000 1000 1000 1000 1000 1000 1000 1000 1000 1000 1000 1000 1000 1000 1000 1000 1000 1000 1000 1000 1000 1000 1000 1000 1000 1000 1000 1000 1000 1000 1000 1000 1000 1000 1000 1000 1000 1000 1000 1000 1000 1000 1000 1000 1000 1000 1000 1000 1000 1000 1000 1000 1000 1000 1000 1000 1000 1000 1000 1000 1000 1000 1000 1000 1000 1000 1000 1000 1000 1000 1000 1000 1000 1000 1000 1000 1000 1000
385 385 384 383 382 380 379 384 385 394 397 400 400 402 406 411 410 414 417 426 427 439 442 447 451 456 455 465 465 474 477 481 482 488 488 492 492 498 501 504 502 506 504 509 510 514 516 519 520 521 523 525 524 521 523 521 521 520 518 509 510 505 501 499 495 489 485 476 473 459 458 455 449 439 439 431 431 426 421 418 417 418 416 413 415 414 417 421 422 429 430 432 429 428 424 418 423 428 430 441 439 448 452 455 454 455 458 463 461 463 464 459 458 455 454 455 456 455 458 462 464 471 474 484 484 492 495 503 507 518 520 527 528 535 536 534 541 550 556 567 572 584 592 602 606 619 622 637 636 648 652 658 662 672 674 683 684 692 696 701 702 706 711 717 719 727 729 733 733 736 734 736 738 743 744 749 751 757 756 760 758 759 763 760 757 754 749 741 740 733 729 721 724 720 721 722 720 720 720 722 720 722 725 724 723 722 722 727 726 729 731 737 736 738 742 742 743 740 741 737 739 742 743 745 748 756 757 763 765 775 779 788 793 807 811 828 825 834 838 838 838 838 838 836 837 838 837 837 836 834 833 835 835 835 834 838 839 843 846 850 852 859 862 868 865 870 875 886 887 900 904 910 912 919 920 928 926 932 934 934 934 932 934 940 939 945 945 940 938 933 931 924 926 926 923 925 927 933 935 943 942 944 947 949 953 959 961 971 974 988 990 992 990 991 993 998 998 1000 1000 1000 1000 1000 1000 1000 1000 1000 1000 1000 1000 1000 1000 1000 1000 1000 1000 1000 1000 1000 1000 1000 1000 1000 1000 1000 1000 1000 1000 1000 1000 1000 1000 1000 1000 1000 1000 1000 1000 1000 1000 1000 1000 1000 1000 989 990 982 978 974 974 973 974 976 973 973 973 970 967 962 964 959 961 960 959 961 965 975 976 982 980 983 986 986 984 981 984 986 990 1000 1000 1000 1000 1000 1000 1000 1000 1000 1000 1000 1000 1000 1000 1000 1000 1000 1000 1000 1000 1000 1000 1000 1000 1000 1000 1000 1000 1000 1000 1000 1000 1000 1000 1000 1000 1000 1000 1000 1000 1000 1000 1000 1000 1000 1000 1000 1000 1000 1000 1000 1000 1000 1000 1000 1000 1000 1000 1000 1000 1000 1000 1000 1000 1000 1000 1000 1000 1000 1000 1000 1000 1000 1000 1000 1000 1000 1000 1000 1000 1000 1000 1000 1000 1000 1000 1000 1000 1000 1000 1000 1000 1000 1000 1000 1000 1000 1000 1000 1000 1000 1000 1000 1000 1000 1000 1000 1000 1000 1000 1000 1000 1000 1000 1000 1000
393 391 391 388 386 383 380 383 384 394 404 401 401 406 413 410 409 415 420 424 426 435 444 448 453 457 459 463 461 469 473 478 478 483 486 488 487 493 500 497 496 497 497 500 502 507 510 512 515 517 523 519 518 516 514 516 518 516 517 509 508 503 498 494 490 482 475 474 474 462 457 451 445 436 428 429 432 423 418 412 411 412 414 414 416 417 419 419 422 426 434 430 428 423 418 418 420 424 430 432 434 442 448 450 451 454 458 456 452 455 459 456 454 451 449 451 455 456 459 459 462 468 476 478 480 487 492 499 506 514 522 522 521 527 529 534 542 552 566 568 572 586 603 605 610 621 634 632 630 642 652 656 661 671 682 680 679 687 692 697 702 705 712 715 719 726 736 735 735 736 737 738 738 744 754 754 756 760 763 759 756 757 758 756 757 750 743 739 736 726 717 717 722 717 718 715 714 715 717 717 718 720 724 721 720 717 715 718 720 721 722 726 729 733 738 739 742 737 736 735 737 738 741 743 748 753 761 760 762 771 784 788 793 805 819 818 814 825 835 834 836 834 835 835 836 835 838 835 833 831 832 831 832 831 827 831 833 838 844 847 851 857 864 861 860 865 871 877 880 894 908 910 914 917 921 920 920 926 933 932 933 931 932 932 930 935 939 933 934 929 928 923 925 921 919 921 923 929 935 937 938 939 939 945 950 956 964 966 969 980 991 988 986 988 991 993 993 997 1000 1000 1000 1000 1000 1000 1000 1000 1000 1000 1000 1000 1000 1000 1000 1000 1000 1000 1000 1000 1000 1000 1000 1000 1000 1000 1000 1000 1000 1000 1000 1000 1000 1000 1000 1000 1000 1000 1000 1000 1000 1000 1000 999 992 987 988 977 969 967 966 967 970 967 966 966 966 962 960 958 955 957 960 957 958 958 961 968 975 972 970 977 985 982 983 980 978 985 991 998 1000 1000 1000 1000 1000 1000 1000 1000 1000 1000 1000 1000 1000 1000 1000 1000 1000 1000 1000 1000 1000 1000 1000 1000 1000 1000 1000 1000 1000 1000 1000 1000 1000 1000 1000 1000 1000 1000 1000 1000 1000 1000 1000 1000 1000 1000 1000 1000 1000 1000 1000 1000 1000 1000 1000 1000 1000 1000 1000 1000 1000 1000 1000 1000 1000 1000 1000 1000 1000 1000 1000 1000 1000 1000 1000 1000 1000 1000 1000 1000 1000 1000 1000 1000 1000 1000 1000 1000 1000 1000 1000 1000 1000 1000 1000 1000 1000 1000 1000 1000 1000 1000 1000 1000 1000 1000 1000 1000 1000 1000 1000 1000 1000 1000 1000
398 397 396 395 393 389 389 387 387 394 394 400 405 410 408 409 414 417 418 424 427 433 438 451 455 461 462 467 467 470 471 480 479 480 483 488 487 488 488 490 492 492 493 493 497 504 503 506 506 511 512 512 514 512 512 511 510 511 509 505 506 501 498 491 487 477 477 471 467 459 458 448 442 432 431 426 422 418 415 403 404 407 410 413 415 419 417 417 419 422 424 429 428 421 422 418 416 418 421 426 431 439 441 448 447 452 451 452 452 449 451 452 450 447 447 446 449 455 454 455 459 466 467 474 480 486 487 495 501 511 511 520 522 525 527 532 538 552 555 569 575 588 590 608 615 623 620 628 632 639 641 655 659 670 669 678 681 685 687 695 696 701 706 714 717 725 727 736 738 736 738 742 741 743 747 760 763 765 760 760 760 758 754 752 752 747 744 738 732 721 720 709 708 711 710 707 708 710 709 711 713 717 715 716 716 713 713 713 713 716 717 719 720 728 729 735 735 733 734 733 734 735 736 740 742 747 750 757 760 766 772 787 793 804 801 811 814 817 819 827 830 828 830 833 832 830 832 834 831 825 826 825 829 830 828 827 828 834 836 844 847 855 852 855 857 860 863 874 878 888 894 910 913 917 914 913 916 921 923 931 930 929 929 929 929 926 924 921 921 921 922 918 919 917 920 918 921 925 928 935 936 938 938 943 944 952 954 963 967 972 975 986 987 986 986 991 991 994 993 994 997 1000 1000 1000 1000 1000 1000 1000 1000 1000 1000 1000 1000 1000 1000 1000 1000 1000 1000 1000 1000 1000 1000 1000 1000 1000 1000 1000 1000 1000 1000 1000 1000 1000 1000 1000 1000 1000 1000 1000 1000 996 991 980 978 972 970 959 956 959 959 957 959 959 958 954 956 955 954 954 952 953 954 953 957 963 961 963 967 971 971 977 978 980 982 985 988 998 1000 1000 1000 1000 1000 1000 1000 1000 1000 1000 1000 1000 1000 1000 1000 1000 1000 1000 1000 1000 1000 1000 1000 1000 1000 1000 1000 1000 1000 1000 1000 1000 1000 1000 1000 1000 1000 1000 1000 1000 1000 1000 1000 1000 1000 1000 1000 1000 1000 1000 1000 1000 1000 1000 1000 1000 1000 1000 1000 1000 1000 1000 1000 1000 1000 1000 1000 1000 1000 1000 1000 1000 1000 1000 1000 1000 1000 1000 1000 1000 1000 1000 1000 1000 1000 1000 1000 1000 1000 1000 1000 1000 1000 1000 1000 1000 1000 1000 1000 1000 1000 1000 1000 1000 1000 1000 1000 1000 1000 1000 1000 1000 1000 1000 1000
406 401 400 398 398 395 394 392 390 395 400 404 409 410 412 413 417 419 422 426 431 437 445 454 465 465 470 471 472 474 476 480 485 482 486 486 488 488 490 487 486 489 491 492 495 498 501 501 499 505 510 509 510 508 508 506 505 506 504 503 504 499 495 489 484 478 472 469 465 459 453 444 432 430 423 422 416 414 407 401 388 402 409 412 415 417 419 418 420 423 426 427 429 424 422 419 412 418 422 426 432 438 444 444 441 447 451 450 449 449 451 448 444 444 444 444 448 450 453 453 458 462 469 473 484 484 490 494 507 506 510 513 521 524 530 533 540 550 560 567 578 584 594 606 627 620 621 622 627 632 641 648 660 664 670 674 681 683 689 692 698 700 707 711 719 721 729 734 744 739 741 741 744 744 749 758 774 763 761 760 760 757 753 752 752 744 736 733 729 721 714 706 698 701 701 700 698 702 704 706 708 708 711 710 711 709 707 708 710 711 713 713 714 719 725 729 737 729 729 729 732 731 733 736 741 743 750 753 757 763 774 783 799 796 799 804 812 812 819 820 830 824 825 826 830 829 831 829 827 822 822 824 829 824 824 824 825 829 835 841 848 849 850 849 849 855 860 869 880 886 898 905 920 911 913 910 912 916 922 925 928 927 926 928 929 925 920 915 905 915 917 918 916 919 920 922 925 925 930 933 939 936 936 939 942 947 953 959 969 969 974 979 985 982 984 987 991 991 992 991 992 997 1000 1000 1000 1000 1000 1000 1000 1000 1000 1000 1000 1000 1000 1000 1000 1000 1000 1000 1000 1000 1000 1000 1000 1000 1000 1000 1000 1000 1000 1000 1000 1000 1000 1000 1000 1000 1000 998 996 989 983 977 971 967 961 953 940 950 954 952 953 953 954 950 950 948 947 947 947 948 950 952 956 958 960 959 960 964 969 970 971 977 983 986 991 999 1000 1000 1000 1000 1000 1000 1000 1000 1000 1000 1000 1000 1000 1000 1000 1000 1000 1000 1000 1000 1000 1000 1000 1000 1000 1000 1000 1000 1000 1000 1000 1000 1000 1000 1000 1000 1000 1000 1000 1000 1000 1000 1000 1000 1000 1000 1000 1000 1000 1000 1000 1000 1000 1000 1000 1000 1000 1000 1000 1000 1000 1000 1000 1000 1000 1000 1000 1000 1000 1000 1000 1000 1000 1000 1000 1000 1000 1000 1000 1000 1000 1000 1000 1000 1000 1000 1000 1000 1000 1000 1000 1000 1000 1000 1000 1000 1000 1000 1000 1000 1000 1000 1000 1000 1000 1000 1000 1000 1000 1000 1000 1000 1000 1000 1000
404 401 403 399 400 399 399 398 397 399 401 407 406 410 414 415 418 423 425 429 430 440 445 456 455 464 470 475 476 481 480 482 479 480 482 484 485 487 487 485 487 488 488 489 491 494 497 499 498 500 501 505 504 503 502 502 504 504 503 500 500 496 495 487 487 479 474 468 466 460 455 446 445 433 430 425 423 415 414 408 410 406 406 414 413 415 418 419 422 426 426 427 428 426 427 424 425 423 422 427 430 437 440 445 443 445 446 451 450 448 449 448 446 442 440 438 441 446 447 449 452 456 460 468 468 477 480 485 488 497 499 503 509 521 524 531 535 549 553 564 565 578 583 596 595 610 615 615 618 624 628 637 642 656 658 667 670 678 681 686 687 694 697 705 706 714 720 729 729 735 737 739 740 740 743 752 747 752 758 759 759 759 757 752 748 743 740 732 730 722 717 706 707 697 696 697 697 699 699 703 700 699 701 704 706 708 706 702 704 708 709 709 708 712 712 720 717 718 723 724 725 726 727 731 732 737 742 750 751 758 760 772 772 782 789 794 794 802 803 807 809 814 816 816 821 825 825 824 823 817 819 820 817 815 818 820 820 822 827 837 837 843 843 843 847 851 854 863 864 878 881 892 889 896 903 904 906 910 912 920 920 926 928 928 927 925 922 915 919 917 915 921 921 923 924 926 922 921 924 930 930 932 936 938 939 943 944 952 953 961 966 971 970 973 978 983 983 988 988 989 991 994 995 1000 1000 1000 1000 1000 1000 1000 1000 1000 1000 1000 1000 1000 1000 1000 1000 1000 1000 1000 1000 1000 1000 1000 1000 1000 1000 1000 1000 1000 1000 1000 1000 1000 1000 996 995 990 990 982 982 975 974 967 964 955 958 950 947 947 948 949 947 945 944 942 942 942 943 945 945 949 948 954 954 955 955 959 958 963 966 974 979 987 988 998 1000 1000 1000 1000 1000 1000 1000 1000 1000 1000 1000 1000 1000 1000 1000 1000 1000 1000 1000 1000 1000 1000 1000 1000 1000 1000 1000 1000 1000 1000 1000 1000 1000 1000 1000 1000 1000 1000 1000 1000 1000 1000 1000 1000 1000 1000 1000 1000 1000 1000 1000 1000 1000 1000 1000 1000 1000 1000 1000 1000 1000 1000 1000 1000 1000 1000 1000 1000 1000 1000 1000 1000 1000 1000 1000 1000 1000 1000 1000 1000 1000 1000 1000 1000 1000 1000 1000 1000 1000 1000 1000 1000 1000 1000 1000 1000 1000 1000 1000 1000 1000 1000 1000 1000 1000 1000 1000 1000 1000 1000 1000 1000 1000 1000 1000
406 404 406 404 404 403 402 400 400 403 409 409 410 414 422 419 423 426 432 431 432 442 453 454 456 466 478 479 481 484 488 483 481 480 480 481 483 485 488 485 488 487 489 490 493 495 502 497 494 497 500 500 500 499 495 499 502 503 505 503 502 498 496 489 487 475 466 464 464 458 452 450 448 439 431 431 431 424 419 419 421 418 419 418 416 420 425 425 426 428 433 433 434 432 432 430 431 429 429 433 437 442 449 444 440 444 448 450 450 451 454 449 446 440 436 437 438 443 448 449 451 454 459 460 460 470 477 478 480 486 492 497 503 513 523 526 531 543 559 560 559 572 582 584 583 597 609 610 615 619 625 631 634 645 652 660 666 673 679 679 680 687 694 698 701 710 720 722 723 728 732 737 740 739 739 740 738 745 750 754 758 756 757 749 746 738 733 730 731 721 714 709 711 699 693 691 691 693 696 697 697 696 695 699 702 703 704 701 701 704 709 705 700 703 703 708 707 711 714 717 721 720 721 725 730 735 741 744 747 753 756 760 761 772 781 784 784 790 794 796 797 802 806 811 818 819 821 820 820 816 812 813 812 811 810 814 815 820 826 831 834 838 841 841 844 847 854 856 858 868 877 877 873 883 892 895 900 903 908 911 914 922 930 928 929 924 922 921 926 921 920 922 924 926 932 926 921 922 923 926 929 933 938 938 939 939 940 947 949 957 965 964 963 967 972 976 979 983 985 986 990 991 996 996 997 1000 1000 1000 1000 1000 1000 1000 1000 1000 1000 1000 1000 1000 1000 1000 1000 1000 1000 1000 1000 1000 1000 1000 1000 1000 1000 1000 1000 1000 998 999 999 994 990 989 988 982 975 975 974 969 965 962 966 957 953 947 943 941 941 940 937 936 936 939 941 941 942 942 942 946 952 950 949 951 953 957 961 972 984 984 984 995 1000 1000 1000 1000 1000 1000 1000 1000 1000 1000 1000 1000 1000 1000 1000 1000 1000 1000 1000 1000 1000 1000 1000 1000 1000 1000 1000 1000 1000 1000 1000 1000 1000 1000 1000 1000 1000 1000 1000 1000 1000 1000 1000 1000 1000 1000 1000 1000 1000 1000 1000 1000 1000 1000 1000 1000 1000 1000 1000 1000 1000 1000 1000 1000 1000 1000 1000 1000 1000 1000 1000 1000 1000 1000 1000 1000 1000 1000 1000 1000 1000 1000 1000 1000 1000 1000 1000 1000 1000 1000 1000 1000 1000 1000 1000 1000 1000 1000 1000 1000 1000 1000 1000 1000 1000 1000 1000 1000 1000 1000 1000 1000 1000 1000 1000
406 406 406 407 408 407 403 402 404 406 407 412 412 415 415 418 422 429 429 431 436 443 445 454 457 467 470 482 485 488 484 484 482 480 479 478 478 482 480 480 483 486 488 491 492 492 492 494 496 496 494 497 498 499 498 500 499 502 503 505 503 498 494 487 482 471 468 458 459 458 458 455 452 444 443 438 435 431 431 429 427 427 427 426 426 424 426 431 429 430 434 439 440 438 435 434 434 434 436 441 441 445 443 445 446 445 446 451 452 454 450 448 444 439 439 436 437 441 442 449 449 450 451 454 459 466 464 471 471 478 480 490 495 508 509 520 525 536 542 558 564 572 569 577 580 586 591 604 607 615 619 629 631 638 644 658 661 669 668 673 675 681 684 694 696 705 707 716 718 722 728 737 736 738 736 733 736 740 742 752 752 753 749 742 741 731 732 727 724 719 717 708 707 698 696 685 686 688 690 693 694 694 695 695 697 700 699 698 699 701 701 702 701 700 700 703 703 706 707 712 711 712 716 720 725 735 735 741 746 753 751 754 756 765 767 777 778 782 782 786 788 793 797 806 808 814 815 818 816 815 813 810 807 808 808 811 811 817 820 829 831 836 835 838 838 840 844 849 854 861 861 868 868 872 875 887 889 896 899 905 909 919 919 926 927 923 925 922 923 924 925 925 925 926 927 927 927 925 925 925 928 933 933 937 935 934 940 947 948 955 954 957 958 963 965 970 974 980 979 980 982 984 986 990 994 1000 1000 1000 1000 1000 1000 1000 1000 1000 1000 1000 1000 1000 1000 1000 1000 1000 1000 1000 1000 1000 1000 1000 1000 1000 1000 1000 1000 1000 1000 999 996 992 994 991 990 985 983 976 973 971 968 963 964 960 956 945 940 934 937 938 935 931 934 938 937 938 937 936 936 939 940 945 944 946 949 953 959 971 972 982 986 993 992 999 1000 1000 1000 1000 1000 1000 1000 1000 1000 1000 1000 1000 1000 1000 1000 1000 1000 1000 1000 1000 1000 1000 1000 1000 1000 1000 1000 1000 1000 1000 1000 1000 1000 1000 1000 1000 1000 1000 1000 1000 1000 1000 1000 1000 1000 1000 1000 1000 1000 1000 1000 1000 1000 1000 1000 1000 1000 1000 1000 1000 1000 1000 1000 1000 1000 1000 1000 1000 1000 1000 1000 1000 1000 1000 1000 1000 1000 1000 1000 1000 1000 1000 1000 1000 1000 1000 1000 1000 1000 1000 1000 1000 1000 1000 1000 1000 1000 1000 1000 1000 1000 1000 1000 1000 1000 1000 1000 1000 1000 1000 1000 1000 1000
407 405 407 407 414 407 402 404 406 408 412 411 412 415 419 421 422 428 434 435 439 444 451 453 457 467 477 482 493 486 483 480 476 477 477 476 474 477 478 478 479 482 488 490 496 491 490 491 493 492 492 495 499 496 496 499 501 502 503 502 504 496 491 482 474 467 459 456 455 456 455 456 457 449 443 442 442 437 435 435 433 435 436 434 435 432 435 434 432 435 441 444 451 442 437 437 436 438 441 443 450 448 446 446 445 448 450 451 457 452 448 444 438 437 437 436 436 439 442 445 450 448 452 454 459 460 462 462 460 468 473 482 492 500 508 513 521 532 546 555 569 567 570 571 575 583 592 596 602 611 619 626 632 638 649 656 668 664 664 667 669 677 683 687 693 701 707 713 716 723 730 734 738 735 735 732 734 737 740 746 754 747 743 738 734 728 724 722 720 715 711 708 710 700 693 686 678 683 688 689 693 692 694 696 701 698 696 696 694 698 700 697 693 696 697 698 700 702 706 706 707 709 714 718 727 731 737 741 752 750 751 751 750 760 768 771 775 776 777 779 779 786 792 799 808 808 811 811 812 811 809 806 800 803 804 806 807 813 822 826 836 833 833 833 834 837 843 846 853 854 859 859 856 863 870 877 881 888 895 899 906 913 919 922 929 926 927 925 927 926 926 928 932 929 931 929 927 927 929 929 933 932 933 933 931 934 940 944 952 953 955 952 947 957 964 969 977 977 980 979 980 981 983 986 987 998 1000 1000 1000 1000 1000 1000 1000 1000 1000 1000 1000 1000 1000 1000 1000 1000 1000 1000 1000 1000 1000 1000 1000 1000 1000 1000 1000 1000 1000 1000 996 995 995 994 994 988 984 977 973 969 964 965 970 959 953 943 931 933 935 933 932 930 931 933 936 933 933 931 929 932 936 937 935 943 950 952 960 967 974 980 988 988 993 993 993 994 996 1000 1000 1000 1000 1000 1000 1000 1000 1000 998 1000 1000 1000 1000 1000 1000 1000 1000 1000 1000 1000 1000 1000 1000 1000 1000 1000 1000 1000 1000 1000 1000 1000 1000 1000 1000 1000 1000 1000 1000 1000 1000 1000 1000 1000 1000 1000 1000 1000 1000 1000 1000 1000 1000 1000 1000 1000 1000 1000 1000 1000 1000 1000 1000 1000 1000 1000 1000 1000 1000 1000 1000 1000 1000 1000 1000 1000 1000 1000 1000 1000 1000 1000 1000 1000 1000 1000 1000 1000 1000 1000 1000 1000 1000 1000 1000 1000 1000 1000 1000 1000 1000 1000 1000 1000 1000 1000 1000 1000 1000
401 400 403 403 404 406 406 406 406 410 410 410 412 414 418 425 425 428 431 436 440 445 448 453 459 469 470 477 476 481 483 480 480 476 477 476 476 475 474 476 476 478 481 487 486 487 488 488 488 487 490 494 492 493 498 500 500 502 500 497 496 494 490 478 477 465 461 453 457 459 457 457 454 454 453 445 445 443 443 443 443 444 442 441 439 437 440 441 441 439 441 446 444 444 445 442 443 444 443 443 445 451 450 449 450 452 449 448 449 451 448 442 441 435 437 438 439 439 441 442 442 443 447 453 453 456 456 457 458 462 464 476 478 494 497 505 511 525 532 547 547 558 562 564 570 579 581 589 595 608 613 624 625 635 638 649 649 657 660 663 666 675 675 681 687 699 704 713 716 727 727 732 730 732 732 729 732 735 736 739 736 740 738 733 732 726 722 718 715 710 707 706 704 699 697 688 687 680 680 685 686 689 691 695 696 698 699 698 699 700 698 695 697 697 694 692 694 698 699 702 702 705 707 714 717 728 730 735 738 747 748 750 752 757 757 765 766 771 773 774 775 782 784 790 792 802 804 805 808 810 810 806 805 802 801 803 804 807 810 817 820 828 829 828 828 831 832 839 838 845 848 853 853 856 862 872 872 882 885 892 897 909 910 915 918 925 928 926 928 929 927 930 928 930 930 931 930 930 931 932 931 932 932 933 931 934 933 937 941 950 950 951 953 956 958 968 966 971 976 978 977 977 981 986 988 995 1000 1000 1000 1000 1000 1000 1000 1000 1000 1000 1000 1000 1000 1000 1000 1000 1000 1000 1000 1000 1000 1000 1000 1000 1000 1000 1000 1000 1000 1000 1000 999 997 996 994 990 987 978 978 970 967 963 960 955 955 945 944 935 931 930 930 929 927 929 927 926 929 928 928 927 930 933 935 942 942 947 952 963 966 976 975 981 985 988 987 988 989 994 995 1000 1000 1000 1000 1000 1000 1000 1000 1000 1000 1000 1000 1000 1000 1000 1000 1000 1000 1000 1000 1000 1000 1000 1000 1000 1000 1000 1000 1000 1000 1000 1000 1000 1000 1000 1000 1000 1000 1000 1000 1000 1000 1000 1000 1000 1000 1000 1000 1000 1000 1000 1000 1000 1000 1000 1000 1000 1000 1000 1000 1000 1000 1000 1000 1000 1000 1000 1000 1000 1000 1000 1000 1000 1000 1000 1000 1000 1000 1000 1000 1000 1000 1000 1000 1000 1000 1000 1000 1000 1000 1000 1000 1000 1000 1000 1000 1000 1000 1000 1000 1000 1000 1000 1000 1000 1000 1000 1000
396 398 403 401 401 400 399 404 409 410 414 413 415 418 422 427 430 434 438 441 446 451 456 458 463 471 480 476 471 477 478 479 483 478 480 475 476 473 473 474 475 478 482 482 483 484 482 486 489 487 488 490 491 494 501 501 503 502 503 494 490 488 484 478 476 464 453 454 460 457 459 455 452 453 456 451 451 448 447 448 451 449 451 446 443 444 450 448 449 446 449 448 446 445 444 447 452 448 449 446 447 451 453 453 455 453 453 448 447 447 445 442 440 438 440 440 442 442 448 443 441 441 442 447 451 452 453 453 454 457 461 468 471 486 497 503 509 522 538 538 538 548 557 562 568 576 584 588 593 607 618 621 622 633 639 645 643 652 655 660 664 670 676 679 685 698 712 715 720 727 735 731 728 728 729 729 731 732 737 731 728 729 728 728 729 721 712 710 708 702 695 699 701 696 694 689 688 682 679 681 682 685 689 693 697 699 700 702 705 703 704 698 698 695 694 690 690 693 697 698 698 701 702 708 713 722 730 731 733 740 746 748 753 756 759 759 761 766 772 770 770 778 788 786 787 794 803 805 808 810 812 806 805 800 800 800 802 806 811 812 814 820 824 823 822 823 826 829 828 836 843 845 847 855 865 866 867 876 886 890 893 903 911 912 915 923 932 930 931 928 925 928 929 929 928 930 930 931 935 933 932 933 933 929 927 930 931 936 939 945 949 949 953 957 963 964 962 970 980 977 975 978 984 986 990 998 1000 1000 1000 1000 1000 1000 1000 1000 1000 1000 1000 1000 1000 1000 1000 1000 1000 1000 999 1000 1000 1000 1000 1000 1000 1000 1000 1000 1000 1000 1000 1000 1000 998 997 992 987 981 981 970 962 962 959 955 951 947 945 936 929 928 927 924 920 922 922 923 926 926 927 927 931 931 931 938 944 947 948 959 965 970 972 977 985 983 981 983 984 989 991 994 997 995 994 997 1000 998 997 999 1000 1000 1000 1000 1000 1000 1000 1000 1000 1000 1000 1000 1000 1000 1000 1000 1000 1000 1000 1000 1000 1000 1000 1000 1000 1000 1000 1000 1000 1000 1000 1000 1000 1000 1000 1000 1000 1000 1000 1000 1000 1000 1000 1000 1000 1000 1000 1000 1000 1000 1000 1000 1000 1000 1000 1000 1000 1000 1000 1000 1000 1000 1000 1000 1000 1000 1000 1000 1000 1000 1000 1000 1000 1000 1000 1000 1000 1000 1000 1000 1000 1000 1000 1000 1000 1000 1000 1000 1000 1000 1000 1000 1000 1000 1000 1000 1000 1000 1000
393 395 395 398 398 396 400 405 406 409 411 413 417 421 424 432 436 441 441 445 450 457 457 462 467 472 473 478 480 480 477 476 476 475 476 471 472 470 473 473 477 480 479 479 482 485 484 486 486 487 486 488 487 491 493 501 501 502 496 489 490 485 480 474 471 462 461 451 451 451 453 452 453 452 452 454 454 453 452 453 452 453 452 452 451 449 448 453 451 448 450 452 450 449 450 453 451 450 451 448 451 454 453 458 456 452 451 446 448 447 444 442 440 440 440 441 442 442 442 441 442 439 442 444 446 450 449 449 449 452 455 464 468 482 485 502 506 519 520 530 536 542 548 560 563 575 577 588 597 610 611 623 627 636 638 649 650 654 654 659 659 666 668 676 683 697 701 715 722 729 726 729 728 726 726 728 725 726 724 721 723 720 721 724 723 718 713 704 701 695 695 694 692 692 691 687 686 683 681 678 678 681 686 693 695 701 701 706 705 706 701 695 696 693 691 687 690 689 691 695 696 699 700 706 710 719 720 728 731 737 738 745 750 755 754 754 758 762 761 764 766 773 773 781 784 787 792 805 807 810 806 804 801 795 798 798 799 804 803 808 810 816 815 819 818 816 819 823 825 831 832 840 844 852 852 861 863 872 875 889 893 902 901 910 914 923 923 931 933 929 931 931 931 932 932 933 933 932 934 935 935 935 931 926 929 931 932 939 940 944 942 945 950 958 958 964 966 969 971 976 976 976 980 987 990 1000 1000 1000 1000 1000 1000 1000 1000 1000 1000 1000 1000 1000 1000 1000 1000 1000 1000 994 995 997 999 1000 1000 1000 1000 1000 1000 1000 1000 1000 1000 1000 1000 1000 1000 994 989 979 977 967 969 964 961 958 953 947 943 935 933 926 925 922 921 918 917 919 921 926 926 925 927 932 933 938 940 949 953 961 960 968 969 973 975 980 981 981 982 987 988 989 990 991 990 992 992 994 995 997 999 1000 1000 1000 1000 1000 1000 1000 1000 1000 1000 1000 1000 1000 1000 1000 1000 1000 1000 1000 1000 1000 1000 1000 1000 1000 1000 1000 1000 1000 1000 1000 1000 1000 1000 1000 1000 1000 1000 1000 1000 1000 1000 1000 1000 1000 1000 1000 1000 1000 1000 1000 1000 1000 1000 1000 1000 1000 1000 1000 1000 1000 1000 1000 1000 1000 1000 1000 1000 1000 1000 1000 1000 1000 1000 1000 1000 1000 1000 1000 1000 1000 1000 1000 1000 1000 1000 1000 1000 1000 1000 1000 1000 1000 1000 1000 1000 1000 1000
388 391 394 394 396 397 401 405 412 411 415 416 420 423 428 436 449 444 448 451 462 461 465 467 479 475 479 479 483 482 481 478 475 475 475 472 468 470 475 476 483 481 482 480 482 483 485 485 491 486 482 483 484 487 491 495 502 496 492 486 486 479 472 469 466 460 456 450 449 449 450 449 450 450 453 452 456 452 451 453 458 454 453 452 453 451 450 452 455 452 453 452 453 452 453 455 458 454 455 452 453 454 455 458 464 455 451 449 447 445 442 439 433 438 440 442 445 444 446 442 441 442 446 446 451 449 446 446 445 447 451 459 468 477 486 497 509 514 523 527 536 542 552 557 563 570 580 591 609 612 621 624 631 637 646 651 660 657 660 659 658 664 669 676 686 695 707 716 735 727 728 724 725 723 724 722 720 720 719 716 714 712 712 715 722 711 702 698 694 689 685 687 690 686 685 683 681 679 677 677 677 681 689 692 699 699 703 705 709 703 698 693 693 690 687 688 690 688 691 691 694 696 697 705 715 716 720 724 729 733 740 745 755 752 754 753 757 758 759 759 757 765 770 775 781 782 790 798 812 804 803 799 796 794 794 795 797 799 801 802 807 808 811 811 814 813 817 819 823 826 830 834 841 844 850 853 856 864 873 881 896 897 902 905 913 917 924 929 940 934 934 934 936 933 935 936 939 937 939 936 935 933 933 928 926 929 932 938 947 943 943 945 950 955 960 965 971 974 978 977 974 979 984 987 990 998 1000 1000 1000 1000 1000 1000 1000 1000 1000 1000 1000 1000 1000 1000 1000 1000 999 993 986 994 1000 1000 1000 1000 1000 1000 1000 1000 1000 1000 998 997 998 1000 1000 994 988 980 975 968 964 962 963 957 951 946 942 934 926 924 923 920 918 915 912 915 919 922 927 925 927 929 934 937 945 950 961 959 964 967 973 973 976 976 979 978 981 984 992 990 990 987 983 987 991 990 990 993 999 1000 1000 1000 1000 1000 1000 1000 1000 1000 1000 1000 1000 1000 1000 1000 1000 1000 1000 1000 1000 1000 1000 1000 1000 1000 1000 1000 1000 1000 1000 1000 1000 1000 1000 1000 1000 1000 1000 1000 1000 1000 1000 1000 1000 1000 1000 1000 1000 1000 1000 1000 1000 1000 1000 1000 1000 1000 1000 1000 1000 1000 1000 1000 1000 1000 1000 1000 1000 1000 1000 1000 1000 1000 1000 1000 1000 1000 1000 1000 1000 1000 1000 1000 1000 1000 1000 1000 1000 1000 1000 1000 1000 1000 1000 1000 1000 1000 1000
386 388 388 389 392 396 398 403 404 411 414 418 420 426 429 438 435 441 446 452 453 461 462 464 465 472 474 479 480 485 484 482 480 476 474 474 473 470 473 476 475 479 479 480 480 483 481 480 481 484 483 481 482 485 483 487 486 490 487 480 481 475 473 466 464 458 455 447 449 447 443 444 446 448 449 448 448 449 450 452 451 454 454 453 451 452 453 453 452 454 454 452 454 453 455 456 455 455 454 452 453 455 454 457 454 455 456 453 450 446 444 440 442 442 440 443 442 444 443 441 444 444 443 443 445 449 448 445 443 442 447 456 458 473 479 492 493 507 511 521 527 539 546 555 556 565 573 587 593 611 615 623 625 636 640 649 649 656 659 659 660 663 665 674 677 691 695 709 705 717 719 717 720 719 721 717 717 715 713 711 709 704 705 704 704 703 703 695 692 685 684 682 681 679 681 679 679 678 677 679 679 680 682 687 689 693 697 702 699 699 695 688 690 688 689 689 686 685 687 687 690 695 695 702 702 710 713 720 720 726 732 742 740 747 749 750 753 755 755 756 758 762 763 768 766 770 776 787 785 793 795 793 794 791 793 791 792 795 794 793 794 798 799 803 804 808 810 816 817 823 825 827 828 833 837 845 847 855 858 868 873 889 892 897 901 908 913 922 924 934 936 935 932 930 933 937 936 939 938 935 935 931 931 930 931 929 928 934 934 940 942 945 947 954 957 966 968 978 980 983 983 985 984 989 991 998 1000 1000 1000 1000 1000 1000 1000 1000 1000 1000 1000 1000 1000 1000 1000 1000 1000 995 997 994 997 1000 1000 1000 1000 1000 1000 1000 1000 1000 1000 993 994 997 993 989 987 978 977 967 963 957 958 957 954 947 944 936 931 924 922 917 918 914 913 912 913 917 917 921 923 926 927 932 936 945 945 952 959 966 965 970 970 970 971 971 974 978 982 990 989 986 985 984 984 988 987 987 991 1000 1000 1000 1000 1000 1000 1000 1000 1000 1000 1000 1000 1000 1000 1000 1000 1000 1000 1000 1000 1000 1000 1000 1000 1000 1000 1000 1000 1000 1000 1000 1000 1000 1000 1000 1000 1000 1000 1000 1000 1000 1000 1000 1000 1000 1000 1000 1000 1000 1000 1000 1000 1000 1000 1000 1000 1000 1000 1000 1000 1000 1000 1000 1000 1000 1000 1000 1000 1000 1000 1000 1000 1000 1000 1000 1000 1000 1000 1000 1000 1000 1000 1000 1000 1000 1000 1000 1000 1000 1000 1000 1000 1000 1000 1000 1000 1000 1000
382 383 389 388 389 392 399 399 402 409 416 419 423 427 434 435 434 439 445 450 454 459 464 462 462 466 468 475 480 484 489 484 483 477 471 472 474 473 478 473 470 472 474 475 477 479 480 478 478 479 478 478 481 479 477 479 479 481 479 477 477 471 467 462 461 454 449 445 446 441 435 439 442 445 450 447 445 445 445 446 448 449 451 449 449 451 456 453 454 455 456 457 460 457 458 457 457 454 452 451 451 452 453 453 450 452 455 451 451 445 444 443 444 444 445 444 443 443 444 443 445 445 445 443 444 446 449 443 441 440 445 451 455 470 485 487 488 501 510 520 528 541 555 553 552 564 577 587 595 608 620 620 620 632 647 647 646 654 661 659 659 661 668 671 674 685 697 694 690 702 709 712 718 718 723 717 714 710 707 706 704 699 698 697 697 695 693 688 686 680 676 677 678 676 676 674 675 673 673 678 681 682 686 688 687 693 696 696 694 691 687 686 689 686 686 686 685 685 686 687 690 691 692 697 699 704 708 713 717 723 732 734 734 742 746 750 755 754 752 755 757 761 766 760 756 762 767 771 773 779 784 787 791 791 796 790 791 789 791 786 785 788 791 794 797 800 805 809 812 818 827 825 825 829 831 837 838 848 855 859 862 876 889 893 899 905 911 915 916 927 938 934 932 930 930 933 936 938 942 938 938 934 930 930 932 929 926 930 932 936 939 944 948 953 958 966 969 980 988 987 986 988 991 991 993 997 1000 1000 1000 1000 1000 1000 1000 1000 1000 1000 1000 1000 1000 1000 1000 997 995 997 1000 1000 1000 1000 1000 1000 1000 1000 1000 1000 1000 1000 1000 994 989 989 988 983 977 974 975 965 956 956 957 954 951 946 944 933 924 923 923 919 918 911 909 909 911 911 912 915 918 923 925 931 936 938 938 947 959 961 962 966 970 968 967 969 971 977 981 986 990 985 982 981 982 983 983 986 990 994 995 1000 1000 1000 1000 1000 1000 1000 1000 1000 1000 1000 1000 1000 1000 1000 1000 1000 1000 1000 1000 1000 1000 1000 1000 1000 1000 1000 1000 1000 1000 1000 1000 1000 1000 1000 1000 1000 1000 1000 1000 1000 1000 1000 1000 1000 1000 1000 1000 1000 1000 1000 1000 1000 1000 1000 1000 1000 1000 1000 1000 1000 1000 1000 1000 1000 1000 1000 1000 1000 1000 1000 1000 1000 1000 1000 1000 1000 1000 1000 1000 1000 1000 1000 1000 1000 1000 1000 1000 1000 1000 1000 1000 1000 1000 1000 1000
374 376 378 385 385 386 388 393 399 409 412 421 423 426 428 434 436 437 441 449 451 458 456 459 461 464 467 473 477 482 482 482 483 481 479 471 471 470 470 469 469 468 469 470 473 476 475 476 476 476 475 474 476 474 476 476 476 476 475 475 472 465 464 457 457 451 447 440 438 436 437 436 435 440 442 446 447 444 442 440 442 446 445 446 448 450 449 450 453 456 456 460 459 460 459 458 457 454 453 451 448 450 451 452 452 451 448 446 444 441 446 444 447 446 444 445 444 443 443 442 444 446 443 440 442 442 440 439 438 435 440 448 452 467 470 484 489 500 506 522 528 542 542 550 555 563 571 591 597 608 610 619 621 628 634 648 651 654 652 657 656 657 662 669 672 680 677 683 685 693 696 707 712 714 713 714 711 707 705 702 698 693 694 689 690 689 686 678 677 673 674 673 672 673 671 669 668 666 672 679 680 683 687 692 694 696 691 692 690 686 685 682 681 681 682 685 685 684 684 687 686 689 691 696 696 702 702 709 710 719 722 730 733 741 743 752 753 754 753 755 755 759 755 752 755 755 755 760 764 769 774 783 785 788 784 782 783 781 778 776 777 778 780 785 786 790 796 805 806 810 813 821 824 827 829 835 837 844 844 852 855 865 871 887 895 904 906 914 915 921 924 933 934 930 930 932 932 937 936 939 940 938 934 928 929 929 930 930 930 934 936 944 946 955 961 974 978 986 985 992 991 992 992 992 994 996 997 1000 1000 1000 1000 1000 1000 1000 1000 1000 1000 1000 1000 1000 1000 995 998 999 1000 1000 1000 1000 1000 1000 1000 1000 1000 1000 1000 1000 998 993 990 985 983 978 975 967 966 962 962 954 955 953 949 943 939 931 930 923 922 920 914 905 905 904 904 906 906 909 915 923 927 934 932 936 937 941 945 958 960 964 965 968 969 970 972 978 977 983 982 983 982 976 978 979 980 984 986 992 993 1000 1000 1000 1000 1000 1000 1000 1000 1000 1000 1000 1000 1000 1000 1000 1000 1000 1000 1000 1000 1000 1000 1000 1000 1000 1000 1000 1000 1000 1000 1000 1000 1000 1000 1000 1000 1000 1000 1000 1000 1000 1000 1000 1000 1000 1000 1000 1000 1000 1000 1000 1000 1000 1000 1000 1000 1000 1000 1000 1000 1000 1000 1000 1000 1000 1000 1000 1000 1000 1000 1000 1000 1000 1000 1000 1000 1000 1000 1000 1000 1000 1000 1000 1000 1000 1000 1000 1000 1000 1000 1000 1000 1000 1000 1000 1000
364 368 371 377 383 384 387 392 397 407 416 421 430 428 432 434 439 439 444 448 453 454 454 456 457 462 469 475 487 483 485 483 483 482 481 476 473 470 470 466 461 465 468 469 473 472 474 472 474 473 474 473 478 474 475 474 476 473 473 472 472 464 458 456 456 448 439 435 427 429 430 429 429 436 442 442 448 442 441 439 440 440 440 443 446 446 450 450 453 452 456 458 463 460 460 457 458 455 451 449 442 450 454 453 454 449 445 443 436 443 448 448 454 448 444 445 443 444 444 443 447 444 442 441 442 438 435 433 432 433 437 443 448 462 475 482 490 500 515 524 538 541 550 552 555 568 581 595 614 612 618 618 619 629 641 647 658 653 652 653 650 657 663 666 673 671 671 671 669 684 696 705 719 710 709 706 703 701 698 695 693 691 691 687 685 684 682 674 666 667 667 666 666 665 664 664 661 664 668 676 686 686 693 696 704 696 692 690 686 684 679 679 675 676 676 681 687 682 680 682 685 687 691 692 697 697 699 702 706 715 724 727 732 739 746 752 762 754 750 752 754 753 752 749 747 749 750 755 762 765 771 776 787 780 778 776 776 771 766 767 764 771 775 780 780 787 792 799 805 806 811 817 822 827 832 834 839 840 844 847 849 861 873 884 900 902 908 912 914 922 929 930 935 929 926 928 931 932 934 937 943 936 933 931 931 928 930 931 932 933 935 941 948 956 967 977 995 992 995 996 994 997 999 997 1000 999 1000 1000 1000 1000 1000 1000 1000 1000 1000 1000 1000 1000 1000 1000 1000 998 998 999 1000 1000 1000 1000 1000 1000 1000 1000 1000 1000 1000 996 991 988 982 982 981 975 968 964 961 959 958 955 958 950 946 939 933 929 925 922 921 915 910 904 896 900 900 901 901 908 918 922 933 931 934 933 936 939 945 952 959 961 966 967 969 971 973 976 979 980 982 981 979 977 975 977 977 982 986 987 989 999 1000 1000 1000 1000 1000 1000 1000 1000 1000 1000 1000 1000 1000 1000 1000 1000 1000 1000 1000 1000 1000 1000 1000 1000 1000 1000 1000 1000 1000 1000 1000 1000 1000 1000 1000 1000 1000 1000 1000 1000 1000 1000 1000 1000 1000 1000 1000 1000 1000 1000 1000 1000 1000 1000 1000 1000 1000 1000 1000 1000 1000 1000 1000 1000 1000 1000 1000 1000 1000 1000 1000 1000 1000 1000 1000 1000 1000 1000 1000 1000 1000 1000 1000 1000 1000 1000 1000 1000 1000 1000 1000 1000 1000 1000 1000
361 361 365 372 374 381 384 391 396 407 409 417 417 426 428 434 433 436 441 448 447 452 454 455 456 461 463 471 471 479 482 484 485 485 484 480 477 470 470 467 467 465 465 467 466 467 467 467 467 468 467 468 468 469 470 470 470 470 469 468 466 461 459 453 450 446 443 434 433 425 424 423 427 433 432 435 436 437 438 438 436 436 438 441 439 440 443 448 446 446 450 455 456 460 458 455 458 458 458 454 455 456 453 455 452 447 449 446 448 449 446 449 447 449 449 448 447 447 443 442 443 443 445 443 439 433 433 429 428 428 431 441 445 459 463 479 483 497 505 522 523 537 545 555 561 575 579 594 593 610 613 616 620 629 630 642 642 649 653 653 655 658 658 661 660 661 663 664 671 681 684 699 695 701 706 701 702 698 694 689 691 690 687 685 685 682 679 673 671 663 660 658 657 659 660 662 663 664 666 674 675 683 688 695 692 694 696 692 691 685 683 680 678 675 674 676 675 680 680 678 681 685 684 687 687 692 692 696 700 711 714 723 725 737 741 750 746 750 752 750 750 749 747 745 746 746 745 749 750 758 759 766 765 768 772 771 767 762 762 762 765 767 772 780 780 786 787 794 794 799 805 814 818 828 828 832 832 836 838 845 848 858 863 879 881 898 904 912 916 925 924 926 926 926 926 923 926 929 932 935 932 931 934 932 929 925 928 932 931 933 935 940 943 954 961 974 978 993 999 1000 1000 1000 1000 1000 1000 999 1000 1000 1000 1000 1000 1000 1000 1000 1000 1000 1000 1000 1000 1000 1000 999 998 999 996 995 998 1000 1000 1000 1000 1000 1000 1000 1000 996 993 986 984 980 978 975 971 961 961 957 954 951 949 945 944 937 936 929 927 922 918 910 910 905 904 900 897 898 900 907 909 917 919 926 928 928 932 937 940 949 949 957 961 968 968 973 972 974 974 978 979 980 981 980 978 977 979 982 981 982 986 994 997 1000 1000 1000 1000 1000 1000 1000 1000 1000 1000 1000 1000 1000 1000 1000 1000 1000 1000 1000 1000 1000 1000 1000 1000 1000 1000 1000 1000 1000 1000 1000 1000 1000 1000 1000 1000 1000 1000 1000 1000 1000 1000 1000 1000 1000 1000 1000 1000 1000 1000 1000 1000 1000 1000 1000 1000 1000 1000 1000 1000 1000 1000 1000 1000 1000 1000 1000 1000 1000 1000 1000 1000 1000 1000 1000 1000 1000 1000 1000 1000 1000 1000 1000 1000 1000 1000 1000 1000 1000 1000 1000 1000 1000 1000
