6262 6257 6245 6252 6237 6235 6213 6204 6198 6124 6073 5983 5936 5826 5830 5779 5733 5667 5647 5575 5551 5502 5487 5449 5418 5410 5410 5399 5385 5356 5329 5267 5234 5161 5135 5049 5013 4946 4905 4790 4734 4668 4659 4606 4589 4563 4581 4542 4538 4450 4388 4272 4213 4111 4064 3920 3888 3851 3848 3809 3792 3765 3774 3729 3697 3617 3586 3477 3451 3383 3392 3339 3339 3355 3363 3399 3411 3433 3440 3467 3454 3432 3410 3361 3363 3342 3335 3316 3315 3341 3351 3361 3369 3371 3344 3312 3329 3355 3345 3366 3357 3362 3354 3359 3350 3330 3365 3380 3394 3440 3468 3525 3548 3586 3593 3649 3662 3698 3743 3834 3873 3948 3922 3950 3971 3985 3985 4035 4043 4071 4085 4113 4132 4192 4194 4260 4280 4274 4225 4164 4141 4092 4102 4096 4078 4075 4059 4036 4025 4017 3981 3927 3887 3847 3841 3831 3837 3855 3892 3932 3965 3992 3953 3908 3910 3869 3850 3803 3782 3760 3791 3807 3813 3824 3828 3824 3857 3892 3866 3854 3843 3822 3820 3801 3808 3813 3827 3823 3819 3792 3810 3805 3827 3846 3822 3793 3787 3742 3727 3688 3675 3634 3620 3572 3531 3473 3451 3410 3392 3371 3374 3357 3336 3323 3295 3228 3177 3117 3163 3163 3141 3150 3170 3166 3161 3123 3120 3103 3096 3069 3069 3019 2996 2951 2930 2868 2854 2839 2844 2842 2826 2756 2745 2689 2661 2600 2596 2543 2514 2521 2541 2579 2587 2604 2610 2600 2609 2637 2626 2612 2618 2630 2622 2634 2616 2615 2634 2660 2657 2678 2699 2740 2754 2772 2748 2742 2741 2714 2714 2712 2724 2741 2762 2778 2778 2763 2766 2762 2768 2748 2759 2740 2764 2767 2748 2736 2710 2649 2636 2603 2603 2584 2574 2536 2537 2536 2535 2546 2531 2547 2572 2583 2593 2596 2581 2555 2559 2538 2528 2501 2488 2460 2423 2345 2345 2321 2307 2258 2242 2224 2239 2228 2239 2228 2249 2266 2264 2260 2263 2264 2242 2231 2250 2257 2252 2255 2241 2223 2222 2228 2233 2243 2275 2322 2302 2330 2335 2315 2340 2368 2358 2345 2344 2305 2287 2229 2238 2211 2198 2208 2213 2216 2223 2246 2250 2276 2280 2274 2286 2290 2307 2367 2361 2387 2400 2444 2444 2476 2495 2497 2516 2529 2540 2553 2566 2608 2609 2627 2616 2601 2600 2639 2633 2658 2665 2652 2661 2670 2684 2692 2696 2679 2696 2713 2736 2781 2804 2842 2849 2883 2932 2975 2989 3062 3077 3097 3039 3014 3015 2980 2968 2959 2943 2949 2972 2988 2982 3008 2994 2989 3009 3043 3095 3174 3177 3216 3212 3242 3248 3257 3261 3260 3254 3255 3271 3299 3297 3284 3283 3253 3212 3139 3119 3049 3030 3029 3027 3039 3026 3024 3005 2980 2982 2979 2997 2996 3009 3028 3021 3025 3034 3014 2981 2909 2882 2831 2803 2702 2675 2569 2557 2457 2437 2397 2363 2259 2245 2170 2147 2050 1993 1851 1833 1717 1675 1664 1689 1689 1678 1682 1687 1722 1746
6339 6294 6282 6264 6246 6231 6230 6235 6264 6155 6066 5991 5888 5850 5786 5769 5708 5657 5586 5557 5514 5472 5410 5391 5318 5353 5343 5364 5377 5350 5305 5279 5237 5160 5076 5035 4984 4924 4823 4758 4643 4633 4585 4568 4520 4552 4567 4548 4567 4432 4312 4247 4148 4093 3996 3925 3791 3837 3828 3820 3791 3786 3789 3751 3695 3639 3564 3502 3424 3403 3368 3352 3320 3355 3371 3402 3414 3444 3453 3496 3543 3467 3430 3375 3331 3341 3338 3334 3332 3362 3383 3392 3417 3396 3376 3356 3358 3355 3355 3370 3377 3374 3368 3356 3338 3370 3397 3417 3448 3491 3540 3560 3597 3629 3659 3680 3693 3738 3804 3872 3971 3955 3968 3970 4000 4018 4037 4041 4050 4083 4118 4127 4146 4186 4213 4267 4372 4271 4226 4172 4127 4113 4100 4084 4045 4064 4063 4033 3999 3979 3948 3883 3765 3794 3778 3795 3804 3849 3899 3939 4020 3969 3942 3916 3910 3859 3820 3791 3725 3755 3770 3794 3828 3813 3826 3840 3906 3883 3878 3857 3834 3824 3817 3807 3821 3819 3827 3823 3822 3822 3839 3844 3876 3858 3847 3796 3754 3735 3687 3696 3720 3639 3590 3535 3459 3427 3380 3357 3275 3316 3299 3320 3306 3289 3247 3196 3088 3140 3151 3167 3160 3172 3195 3187 3200 3156 3140 3112 3098 3078 3052 3005 2946 2931 2892 2862 2835 2835 2827 2813 2799 2749 2701 2681 2668 2599 2540 2496 2420 2476 2506 2539 2568 2572 2592 2580 2585 2577 2567 2545 2522 2561 2570 2560 2523 2558 2592 2606 2617 2651 2699 2722 2785 2742 2723 2701 2681 2687 2693 2702 2700 2727 2741 2753 2759 2751 2740 2732 2730 2724 2728 2735 2757 2745 2726 2720 2714 2651 2611 2609 2635 2606 2598 2563 2552 2528 2505 2511 2497 2553 2590 2602 2659 2625 2621 2590 2590 2548 2539 2519 2503 2455 2413 2380 2342 2333 2315 2273 2195 2251 2277 2284 2306 2283 2291 2312 2347 2314 2286 2296 2311 2297 2301 2303 2319 2286 2257 2239 2221 2245 2266 2270 2311 2304 2309 2324 2355 2342 2364 2377 2411 2360 2338 2316 2293 2267 2246 2224 2185 2198 2204 2209 2212 2229 2246 2257 2277 2287 2291 2307 2329 2356 2390 2394 2401 2443 2469 2474 2490 2509 2531 2534 2539 2558 2600 2611 2637 2623 2610 2578 2529 2588 2603 2621 2637 2644 2643 2644 2646 2659 2671 2674 2684 2703 2717 2753 2794 2819 2859 2887 2967 2982 3037 3085 3214 3108 3064 3029 3020 2975 2929 2929 2898 2958 2987 2991 2982 3008 3026 3031 3017 3087 3158 3202 3246 3244 3249 3262 3265 3283 3300 3283 3268 3277 3294 3326 3389 3325 3304 3265 3227 3167 3118 3065 3007 3016 3007 3000 2974 2986 2986 2966 2944 2963 2974 2972 2976 3010 3032 3036 3075 3008 2955 2921 2890 2837 2788 2730 2674 2594 2531 2473 2413 2379 2313 2276 2256 2177 2116 2030 1934 1843 1753 1702 1615 1680 1686 1696 1706 1698 1696 1734 1768
6321 6298 6310 6278 6259 6216 6228 6243 6207 6166 6130 6027 6002 5903 5861 5804 5763 5669 5631 5556 5535 5462 5439 5390 5396 5343 5337 5337 5350 5363 5345 5307 5263 5168 5132 5033 5028 4944 4883 4777 4762 4637 4608 4564 4567 4559 4525 4518 4480 4402 4380 4258 4242 4120 4079 3993 3980 3879 3862 3852 3835 3801 3807 3794 3759 3681 3633 3543 3528 3437 3427 3384 3397 3376 3387 3424 3438 3477 3494 3524 3475 3466 3455 3381 3394 3354 3343 3353 3373 3395 3398 3407 3415 3420 3412 3378 3382 3354 3364 3383 3371 3391 3377 3360 3394 3416 3423 3446 3475 3536 3528 3578 3604 3674 3682 3722 3714 3757 3786 3880 3867 3935 3955 3963 3999 4053 4045 4044 4065 4094 4099 4132 4147 4195 4190 4224 4191 4214 4225 4171 4180 4136 4122 4095 4093 4073 4058 4036 4013 3952 3946 3893 3886 3786 3770 3767 3797 3840 3851 3905 3893 3923 3934 3907 3894 3837 3842 3816 3809 3766 3769 3773 3769 3774 3793 3807 3825 3856 3863 3862 3848 3824 3816 3792 3804 3817 3821 3822 3824 3837 3847 3856 3849 3865 3838 3792 3806 3760 3725 3691 3662 3612 3603 3520 3495 3396 3392 3364 3358 3319 3312 3320 3310 3283 3283 3223 3248 3205 3188 3195 3184 3186 3180 3188 3179 3164 3155 3110 3119 3094 3052 3004 2999 2938 2912 2854 2861 2842 2808 2785 2775 2743 2714 2667 2651 2589 2559 2481 2506 2457 2454 2504 2491 2527 2540 2544 2533 2521 2510 2481 2508 2524 2505 2513 2521 2502 2514 2555 2573 2611 2621 2664 2658 2691 2683 2659 2669 2663 2674 2705 2706 2728 2733 2736 2743 2742 2728 2697 2703 2693 2693 2718 2714 2733 2722 2706 2688 2630 2630 2589 2603 2609 2602 2566 2570 2522 2522 2498 2533 2578 2560 2576 2584 2627 2620 2594 2577 2527 2536 2533 2508 2446 2451 2420 2399 2354 2342 2325 2328 2311 2291 2327 2306 2309 2322 2346 2335 2364 2359 2325 2334 2347 2347 2336 2320 2314 2290 2257 2264 2267 2244 2262 2262 2274 2299 2302 2315 2334 2360 2368 2348 2348 2354 2328 2329 2302 2292 2256 2244 2197 2197 2204 2205 2214 2214 2229 2264 2309 2305 2318 2321 2339 2362 2398 2416 2459 2447 2461 2486 2518 2525 2538 2534 2541 2565 2600 2601 2618 2597 2573 2590 2584 2558 2589 2606 2647 2636 2618 2627 2627 2645 2662 2669 2700 2694 2721 2730 2781 2797 2842 2875 2951 2974 3027 3008 3060 3067 3021 3021 2972 2959 2932 2961 2998 2986 3010 3012 3019 3053 3094 3097 3131 3149 3233 3222 3266 3286 3295 3297 3312 3309 3307 3302 3292 3295 3323 3313 3324 3320 3276 3262 3186 3154 3086 3082 3024 2998 2981 2978 2961 2953 2956 2968 2957 2946 2944 2973 3007 2991 3012 3000 2988 2987 2932 2914 2840 2830 2757 2720 2603 2581 2494 2474 2393 2363 2277 2252 2169 2125 2022 1989 1837 1814 1726 1773 1756 1715 1703 1702 1708 1721 1753 1758
6326 6310 6326 6285 6260 6221 6209 6205 6189 6130 6065 6027 6012 5911 5849 5817 5794 5685 5591 5556 5536 5459 5390 5421 5442 5391 5350 5353 5358 5349 5334 5304 5272 5190 5090 5078 5062 4957 4830 4811 4812 4688 4590 4571 4563 4531 4506 4465 4435 4365 4295 4267 4280 4148 4056 4042 4052 3975 3927 3902 3862 3844 3843 3816 3772 3697 3616 3579 3571 3502 3466 3457 3463 3446 3430 3463 3481 3514 3561 3518 3460 3456 3431 3409 3412 3369 3337 3373 3408 3432 3458 3443 3451 3447 3436 3421 3422 3387 3364 3366 3358 3377 3382 3408 3434 3460 3495 3510 3524 3557 3552 3602 3626 3678 3737 3726 3719 3772 3814 3858 3851 3914 3952 3994 4015 4061 4083 4088 4088 4111 4120 4133 4146 4177 4197 4169 4116 4145 4145 4155 4188 4142 4131 4105 4105 4082 4079 4032 4003 3961 3941 3916 3919 3824 3764 3780 3805 3833 3855 3862 3846 3872 3886 3893 3892 3856 3806 3825 3835 3807 3815 3776 3760 3768 3764 3788 3812 3816 3831 3818 3828 3804 3817 3786 3793 3796 3827 3806 3813 3834 3874 3857 3836 3850 3822 3824 3826 3775 3696 3689 3661 3607 3560 3507 3474 3404 3352 3362 3369 3348 3336 3336 3341 3314 3321 3288 3317 3270 3265 3236 3204 3206 3187 3191 3171 3170 3147 3139 3135 3087 3014 3017 3004 2956 2913 2867 2857 2814 2770 2760 2745 2707 2650 2654 2649 2581 2500 2522 2546 2483 2436 2453 2428 2473 2523 2489 2477 2456 2455 2451 2463 2473 2462 2483 2499 2491 2476 2516 2535 2574 2594 2604 2579 2611 2599 2624 2633 2642 2647 2671 2701 2718 2770 2755 2755 2736 2717 2695 2684 2660 2632 2676 2678 2700 2694 2696 2691 2632 2587 2596 2603 2600 2601 2579 2595 2547 2518 2533 2554 2568 2591 2566 2546 2585 2602 2594 2566 2530 2496 2513 2516 2466 2435 2415 2410 2370 2349 2353 2362 2338 2332 2330 2313 2325 2327 2344 2342 2370 2403 2375 2381 2375 2396 2354 2329 2308 2273 2275 2278 2256 2226 2247 2248 2273 2310 2303 2316 2337 2384 2346 2315 2326 2330 2337 2351 2329 2319 2301 2277 2233 2203 2199 2198 2207 2203 2234 2273 2301 2316 2330 2338 2358 2382 2406 2420 2445 2468 2484 2497 2535 2557 2549 2526 2547 2580 2582 2586 2586 2560 2576 2594 2569 2533 2562 2586 2620 2642 2625 2623 2629 2648 2653 2646 2680 2673 2696 2701 2752 2772 2812 2851 2909 2952 2941 2908 2967 2974 2991 3027 2961 2914 2951 2987 3013 3041 3031 3032 3067 3117 3124 3137 3164 3215 3243 3233 3299 3337 3329 3332 3341 3352 3338 3309 3313 3300 3320 3311 3316 3292 3291 3282 3211 3120 3108 3101 3050 2981 2983 2964 2951 2921 2959 2973 2964 2939 2957 2968 2978 2972 2983 2971 2968 2954 2935 2932 2860 2833 2770 2734 2638 2556 2500 2479 2407 2369 2297 2251 2155 2056 2006 1984 1857 1760 1800 1857 1812 1788 1740 1712 1707 1718 1753 1753
6309 6290 6292 6277 6242 6200 6201 6180 6162 6103 6075 6007 5956 5882 5879 5823 5782 5686 5652 5542 5509 5450 5467 5462 5449 5430 5414 5369 5373 5343 5333 5306 5290 5230 5204 5128 5075 4993 4948 4828 4803 4713 4675 4569 4543 4499 4469 4403 4395 4330 4313 4238 4199 4138 4145 4070 4082 4042 4023 3967 3933 3871 3870 3856 3814 3719 3681 3586 3561 3536 3535 3516 3528 3516 3514 3520 3525 3538 3531 3528 3517 3468 3451 3412 3409 3375 3399 3396 3427 3468 3458 3456 3474 3484 3464 3450 3442 3410 3394 3359 3378 3380 3411 3457 3455 3498 3523 3578 3600 3616 3617 3655 3643 3675 3688 3727 3768 3800 3817 3888 3891 3919 3957 4048 4057 4096 4100 4138 4128 4145 4128 4136 4140 4170 4145 4142 4125 4105 4110 4116 4101 4116 4108 4090 4095 4073 4053 4013 3997 3949 3943 3914 3894 3829 3838 3786 3784 3832 3828 3843 3842 3834 3854 3890 3900 3889 3866 3843 3818 3814 3800 3756 3771 3776 3768 3772 3762 3766 3771 3753 3753 3748 3766 3743 3751 3750 3768 3764 3784 3814 3832 3863 3880 3877 3858 3856 3852 3820 3780 3710 3659 3595 3564 3476 3444 3396 3392 3366 3374 3368 3360 3347 3337 3313 3315 3292 3300 3294 3297 3281 3288 3250 3231 3220 3199 3199 3186 3167 3150 3106 3095 3046 3025 2970 2928 2846 2836 2787 2776 2740 2732 2693 2685 2650 2613 2586 2587 2564 2535 2496 2496 2445 2427 2414 2406 2413 2398 2373 2403 2406 2414 2445 2449 2461 2466 2487 2500 2499 2520 2559 2558 2580 2584 2575 2593 2607 2603 2625 2632 2633 2645 2674 2704 2760 2754 2733 2720 2684 2665 2631 2663 2677 2665 2695 2685 2696 2665 2622 2640 2606 2593 2588 2575 2554 2563 2553 2567 2565 2547 2551 2560 2554 2572 2568 2590 2616 2584 2532 2541 2509 2505 2470 2462 2396 2388 2370 2381 2376 2355 2349 2354 2350 2358 2353 2351 2364 2369 2373 2380 2394 2388 2378 2368 2355 2350 2316 2316 2293 2279 2254 2250 2252 2244 2262 2262 2285 2292 2316 2314 2319 2321 2311 2324 2339 2339 2344 2353 2353 2325 2255 2242 2192 2202 2214 2224 2233 2256 2308 2323 2348 2353 2373 2382 2424 2415 2435 2469 2510 2547 2569 2555 2575 2558 2543 2555 2564 2578 2582 2586 2580 2569 2567 2569 2543 2561 2608 2595 2619 2611 2619 2635 2658 2676 2702 2688 2691 2719 2756 2759 2786 2812 2882 2862 2879 2894 2926 2924 2942 2943 2931 2967 2973 2972 3028 3022 3044 3064 3101 3096 3148 3149 3176 3220 3291 3327 3362 3347 3355 3364 3370 3372 3385 3372 3353 3353 3349 3342 3338 3332 3316 3298 3256 3220 3128 3125 3095 3066 3008 2973 2958 2978 2988 2989 2988 2980 2977 2954 2965 2973 2977 2973 2960 2946 2922 2895 2837 2830 2756 2747 2661 2600 2472 2434 2389 2367 2294 2264 2146 2097 1964 1913 1848 1888 1857 1853 1849 1817 1758 1721 1691 1740 1788 1791
6313 6300 6275 6236 6168 6182 6165 6151 6158 6067 6002 5957 5870 5844 5799 5787 5770 5677 5589 5530 5455 5447 5422 5465 5514 5452 5416 5410 5433 5374 5328 5310 5290 5239 5188 5133 5092 5001 4909 4864 4844 4718 4609 4569 4516 4478 4413 4380 4341 4299 4252 4206 4125 4129 4094 4113 4160 4074 4031 3992 3968 3919 3891 3865 3838 3748 3650 3596 3507 3529 3520 3560 3615 3576 3557 3583 3613 3592 3577 3551 3514 3489 3467 3438 3418 3414 3413 3443 3508 3487 3500 3478 3498 3478 3473 3455 3472 3421 3385 3381 3410 3411 3451 3468 3483 3522 3583 3618 3713 3678 3675 3685 3690 3702 3727 3753 3808 3826 3862 3905 3945 3967 4010 4069 4135 4130 4153 4163 4149 4152 4143 4137 4137 4145 4122 4118 4056 4090 4106 4081 4027 4059 4041 4067 4086 4050 4022 3988 3948 3933 3906 3894 3893 3853 3821 3803 3757 3814 3832 3840 3839 3838 3847 3880 3938 3879 3842 3831 3811 3800 3795 3755 3737 3755 3765 3754 3747 3757 3756 3729 3680 3723 3748 3730 3696 3728 3767 3745 3732 3792 3838 3871 3907 3882 3865 3880 3913 3840 3767 3714 3637 3593 3524 3450 3347 3360 3334 3358 3410 3377 3357 3356 3355 3322 3316 3299 3296 3293 3299 3310 3357 3287 3253 3225 3191 3213 3207 3189 3180 3132 3095 3075 3073 2977 2893 2843 2801 2767 2721 2714 2725 2682 2653 2615 2569 2564 2549 2561 2583 2520 2500 2454 2416 2397 2370 2347 2284 2334 2358 2361 2350 2409 2428 2449 2456 2492 2518 2536 2548 2560 2561 2586 2589 2601 2613 2605 2583 2623 2637 2640 2627 2661 2681 2719 2754 2721 2709 2674 2628 2646 2662 2659 2656 2659 2672 2665 2649 2645 2641 2616 2593 2584 2555 2550 2547 2557 2555 2568 2556 2575 2584 2579 2575 2601 2632 2617 2587 2569 2560 2541 2545 2497 2466 2418 2353 2374 2369 2361 2347 2350 2355 2366 2400 2368 2374 2384 2415 2400 2413 2393 2379 2369 2359 2348 2336 2329 2328 2301 2296 2259 2219 2230 2236 2255 2256 2264 2260 2288 2306 2299 2271 2304 2331 2340 2345 2349 2364 2372 2374 2298 2247 2222 2202 2242 2253 2265 2283 2322 2363 2366 2378 2387 2394 2416 2421 2458 2512 2552 2643 2592 2581 2579 2559 2572 2587 2579 2586 2591 2599 2589 2569 2575 2574 2564 2560 2575 2567 2588 2565 2610 2641 2665 2698 2708 2713 2722 2758 2766 2793 2788 2809 2833 2838 2835 2819 2885 2923 2928 2926 2927 2937 2957 2974 3001 3030 3047 3073 3091 3103 3141 3156 3211 3276 3343 3443 3414 3438 3418 3395 3408 3401 3398 3400 3395 3404 3385 3384 3381 3365 3349 3328 3274 3215 3171 3158 3108 3060 3018 2947 2978 3002 3013 3059 3007 2984 2972 2937 2976 2983 2980 2983 2953 2934 2898 2868 2823 2798 2757 2740 2627 2535 2441 2320 2336 2309 2268 2248 2127 2030 1937 1786 1842 1865 1887 1947 1863 1805 1755 1647 1720 1770 1800 1834
6347 6322 6288 6225 6235 6196 6148 6101 6077 6008 6008 5950 5928 5828 5791 5758 5723 5663 5647 5536 5536 5461 5446 5462 5439 5450 5439 5424 5408 5393 5369 5318 5304 5249 5215 5124 5105 5012 4963 4878 4824 4706 4675 4583 4559 4484 4434 4366 4349 4275 4268 4212 4212 4160 4133 4131 4090 4063 4054 4002 4000 3949 3927 3877 3854 3787 3747 3644 3638 3555 3556 3590 3575 3619 3631 3643 3628 3640 3614 3585 3575 3509 3496 3455 3471 3453 3450 3458 3446 3475 3474 3459 3470 3460 3448 3428 3440 3418 3409 3371 3389 3406 3437 3483 3481 3524 3542 3599 3627 3708 3722 3722 3723 3717 3727 3750 3776 3836 3863 3928 3933 3997 4008 4083 4082 4138 4183 4214 4191 4172 4156 4135 4151 4153 4155 4152 4134 4093 4086 4077 4073 4052 4033 4052 4028 4021 4013 3972 3966 3930 3896 3863 3882 3869 3871 3851 3845 3835 3829 3846 3836 3832 3831 3846 3833 3847 3857 3831 3808 3780 3765 3733 3754 3745 3737 3734 3757 3760 3751 3730 3730 3716 3712 3733 3718 3702 3713 3720 3750 3785 3809 3879 3861 3880 3893 3887 3871 3863 3836 3745 3721 3617 3565 3455 3455 3366 3335 3322 3337 3373 3369 3365 3342 3306 3312 3292 3288 3283 3290 3303 3292 3291 3290 3238 3264 3255 3221 3205 3189 3147 3132 3088 3056 2975 2936 2833 2834 2760 2725 2673 2678 2657 2640 2590 2605 2553 2554 2549 2529 2501 2506 2457 2443 2388 2347 2324 2329 2322 2320 2330 2362 2413 2415 2451 2465 2509 2534 2580 2563 2572 2582 2614 2609 2629 2630 2620 2641 2649 2646 2663 2646 2665 2657 2682 2672 2690 2695 2678 2671 2664 2646 2643 2630 2615 2632 2646 2660 2670 2651 2627 2622 2601 2574 2545 2548 2575 2580 2599 2592 2610 2596 2603 2613 2632 2631 2634 2623 2597 2587 2553 2550 2510 2491 2457 2452 2407 2386 2355 2356 2349 2349 2359 2351 2348 2372 2385 2388 2400 2395 2389 2388 2363 2353 2345 2350 2338 2323 2289 2293 2270 2245 2213 2243 2266 2263 2255 2267 2271 2286 2302 2308 2305 2326 2347 2339 2345 2376 2398 2359 2317 2307 2249 2283 2299 2279 2291 2295 2336 2348 2377 2378 2404 2401 2428 2427 2467 2488 2546 2536 2575 2597 2604 2603 2599 2590 2581 2594 2599 2598 2608 2595 2590 2573 2579 2567 2565 2577 2601 2598 2617 2625 2664 2672 2720 2717 2729 2730 2757 2758 2766 2788 2803 2797 2804 2845 2875 2877 2923 2908 2917 2931 2945 2947 2972 2985 3043 3050 3090 3117 3157 3179 3236 3261 3363 3355 3416 3460 3485 3479 3466 3431 3406 3419 3425 3420 3405 3427 3437 3416 3387 3362 3299 3267 3186 3180 3122 3103 3059 3050 3007 2990 3005 3010 3000 3013 2991 3009 3021 2994 2978 2970 2938 2910 2869 2853 2789 2785 2734 2688 2572 2549 2439 2439 2326 2272 2223 2183 2086 2083 1969 1975 1872 1856 1880 1855 1854 1863 1812 1816 1774 1758 1809 1823
6406 6362 6294 6269 6244 6188 6127 6081 6037 5988 5918 5931 5933 5818 5710 5696 5673 5642 5621 5577 5561 5479 5409 5427 5423 5410 5368 5396 5399 5378 5335 5326 5321 5255 5200 5125 5096 4977 4873 4837 4806 4672 4568 4559 4560 4465 4370 4359 4343 4291 4247 4237 4227 4171 4117 4107 4073 4042 3991 4008 4021 3973 3917 3900 3862 3796 3719 3700 3703 3627 3573 3588 3574 3622 3650 3659 3673 3653 3620 3629 3631 3561 3506 3500 3510 3477 3472 3447 3439 3439 3456 3453 3464 3438 3406 3424 3442 3404 3375 3386 3396 3420 3449 3472 3469 3527 3563 3597 3619 3695 3747 3762 3779 3767 3753 3781 3794 3839 3882 3924 3945 3988 4009 4069 4099 4170 4248 4239 4227 4198 4169 4172 4173 4174 4180 4182 4172 4140 4119 4094 4059 4050 4003 4023 4001 3990 3975 3962 3943 3900 3843 3869 3891 3873 3872 3870 3875 3864 3878 3847 3835 3817 3808 3812 3794 3803 3814 3790 3780 3751 3737 3737 3743 3731 3735 3752 3772 3761 3768 3729 3718 3703 3720 3708 3690 3701 3735 3729 3729 3783 3842 3861 3849 3884 3899 3883 3871 3849 3824 3766 3755 3636 3552 3488 3477 3389 3307 3322 3320 3338 3328 3339 3340 3306 3295 3280 3262 3265 3278 3279 3278 3279 3277 3289 3312 3273 3233 3218 3200 3164 3116 3093 3068 2976 2866 2859 2852 2759 2668 2669 2661 2631 2591 2602 2627 2571 2547 2540 2518 2500 2485 2452 2429 2355 2260 2282 2302 2311 2345 2345 2348 2411 2447 2462 2473 2536 2592 2591 2585 2605 2595 2630 2632 2662 2682 2665 2684 2684 2692 2658 2619 2643 2655 2652 2638 2654 2659 2642 2636 2637 2652 2634 2603 2606 2611 2636 2655 2656 2658 2634 2619 2591 2560 2528 2520 2549 2601 2602 2604 2619 2617 2630 2636 2657 2686 2655 2632 2618 2612 2585 2578 2518 2452 2473 2478 2441 2430 2377 2354 2351 2341 2348 2343 2360 2357 2388 2395 2401 2378 2385 2387 2370 2327 2350 2360 2351 2329 2303 2286 2252 2201 2227 2276 2279 2298 2285 2288 2300 2311 2314 2320 2333 2381 2354 2333 2365 2419 2388 2358 2333 2290 2309 2339 2324 2325 2301 2303 2342 2398 2381 2370 2394 2397 2410 2420 2463 2518 2521 2512 2557 2567 2610 2629 2624 2623 2613 2611 2611 2602 2600 2583 2583 2554 2560 2551 2564 2584 2594 2608 2627 2654 2666 2665 2706 2724 2731 2724 2735 2753 2774 2792 2786 2775 2821 2866 2886 2893 2896 2872 2909 2936 2936 2935 2946 2952 3005 3037 3095 3149 3182 3221 3261 3291 3342 3365 3442 3499 3529 3530 3506 3459 3450 3447 3449 3452 3453 3463 3460 3457 3414 3398 3328 3257 3214 3197 3129 3075 3066 3075 3040 3004 3029 3035 3021 3002 3023 3042 3038 3043 3011 2984 2934 2853 2850 2821 2787 2751 2705 2650 2557 2445 2436 2457 2332 2221 2172 2116 2066 2031 2008 2030 1933 1887 1870 1823 1844 1841 1858 1875 1827 1804 1831 1828
6482 6429 6388 6316 6280 6187 6156 6059 6048 5989 5983 5925 5878 5803 5771 5644 5634 5611 5614 5592 5557 5488 5480 5417 5402 5402 5394 5396 5383 5386 5366 5331 5308 5252 5206 5082 5038 4928 4904 4793 4722 4608 4617 4528 4500 4446 4439 4357 4337 4302 4301 4263 4224 4183 4176 4109 4082 4043 4046 4019 4008 4008 3993 3946 3901 3816 3813 3736 3724 3679 3669 3617 3620 3645 3650 3671 3682 3679 3682 3683 3652 3599 3578 3529 3494 3474 3462 3422 3404 3389 3417 3433 3429 3424 3432 3420 3405 3384 3405 3403 3394 3431 3436 3490 3507 3555 3552 3610 3640 3707 3727 3802 3817 3819 3817 3830 3820 3846 3880 3942 3957 4001 4020 4088 4122 4197 4203 4269 4275 4227 4226 4213 4212 4191 4201 4225 4208 4177 4159 4121 4116 4086 4061 4036 4001 3966 3974 3959 3942 3885 3898 3881 3852 3860 3872 3884 3871 3871 3863 3832 3831 3796 3809 3800 3791 3760 3751 3735 3722 3710 3730 3736 3716 3703 3735 3770 3754 3746 3724 3700 3690 3658 3676 3689 3678 3678 3690 3732 3742 3776 3797 3876 3907 3910 3881 3878 3868 3840 3796 3741 3709 3620 3591 3470 3461 3408 3394 3340 3320 3334 3322 3326 3317 3285 3289 3273 3252 3240 3245 3259 3267 3272 3288 3331 3320 3293 3272 3235 3230 3193 3153 3103 3062 2997 2974 2886 2827 2757 2748 2676 2636 2615 2624 2601 2579 2560 2579 2549 2516 2499 2474 2437 2414 2345 2329 2243 2222 2275 2319 2358 2385 2439 2437 2477 2500 2572 2573 2609 2642 2669 2662 2681 2671 2706 2686 2677 2691 2713 2690 2660 2653 2634 2631 2636 2633 2629 2617 2596 2584 2599 2625 2640 2622 2595 2618 2632 2646 2644 2644 2633 2621 2584 2559 2488 2489 2501 2545 2604 2626 2648 2639 2665 2661 2676 2669 2668 2661 2633 2624 2600 2582 2535 2537 2507 2474 2452 2429 2372 2384 2363 2363 2349 2373 2395 2387 2418 2414 2433 2412 2387 2399 2403 2387 2370 2370 2380 2349 2311 2293 2254 2252 2219 2232 2279 2292 2301 2310 2333 2323 2326 2323 2329 2343 2356 2360 2363 2358 2378 2385 2368 2363 2361 2338 2334 2316 2285 2308 2334 2340 2379 2396 2406 2386 2395 2407 2450 2463 2511 2536 2575 2581 2640 2635 2648 2642 2637 2638 2634 2630 2610 2623 2608 2593 2557 2561 2558 2573 2586 2608 2629 2655 2684 2693 2715 2721 2750 2725 2708 2733 2786 2780 2776 2805 2841 2859 2912 2894 2897 2905 2913 2909 2930 2929 2926 2955 2989 3030 3104 3124 3203 3235 3299 3296 3351 3391 3489 3508 3602 3618 3571 3542 3491 3476 3474 3482 3493 3493 3485 3459 3416 3411 3360 3317 3219 3182 3123 3117 3056 3067 3074 3074 3075 3058 3048 3047 3059 3043 3047 3042 3042 3018 2962 2928 2860 2820 2789 2755 2686 2654 2563 2520 2406 2380 2327 2280 2129 2089 2032 2040 2005 1984 1946 1944 1890 1874 1860 1876 1906 1878 1856 1883 1884 1873
6612 6474 6404 6354 6325 6217 6134 6087 6018 6006 5984 5926 5868 5794 5704 5657 5572 5606 5581 5574 5527 5498 5456 5432 5383 5384 5356 5371 5382 5367 5351 5327 5317 5246 5170 5068 4944 4891 4801 4736 4614 4589 4526 4511 4461 4436 4393 4361 4322 4317 4296 4260 4203 4203 4186 4137 4062 4068 4049 4037 4016 4020 4000 3972 3927 3872 3839 3793 3764 3725 3677 3667 3646 3676 3713 3714 3728 3709 3696 3695 3706 3623 3554 3519 3469 3459 3445 3398 3333 3380 3409 3416 3406 3419 3423 3419 3410 3392 3392 3389 3370 3410 3430 3474 3534 3550 3575 3621 3683 3711 3781 3810 3903 3843 3842 3838 3852 3882 3938 3960 4003 4023 4049 4101 4195 4203 4247 4265 4356 4258 4237 4236 4275 4230 4218 4233 4253 4204 4166 4150 4140 4101 4063 4046 3999 3991 3971 3966 3950 3909 3886 3875 3824 3856 3854 3868 3857 3872 3876 3842 3819 3806 3805 3804 3796 3750 3717 3692 3631 3689 3694 3704 3690 3706 3726 3745 3768 3713 3679 3663 3637 3637 3640 3642 3628 3649 3661 3697 3726 3757 3810 3877 4003 3914 3889 3868 3856 3791 3732 3706 3653 3591 3520 3462 3414 3390 3354 3330 3300 3307 3309 3311 3329 3291 3258 3251 3200 3222 3220 3239 3261 3261 3273 3311 3382 3295 3248 3239 3261 3195 3118 3088 3032 3009 2945 2898 2801 2778 2709 2676 2587 2626 2621 2607 2565 2590 2583 2550 2471 2484 2444 2431 2390 2360 2301 2250 2110 2267 2344 2376 2398 2440 2485 2493 2504 2587 2641 2673 2700 2712 2716 2718 2703 2727 2729 2711 2693 2710 2704 2672 2627 2640 2638 2631 2614 2621 2608 2570 2482 2587 2626 2628 2602 2616 2644 2660 2698 2665 2645 2637 2612 2589 2547 2499 2408 2508 2558 2606 2653 2635 2641 2662 2686 2687 2697 2679 2657 2644 2631 2617 2582 2560 2531 2518 2488 2458 2414 2394 2372 2377 2386 2383 2407 2409 2395 2422 2448 2445 2433 2430 2430 2410 2388 2394 2405 2368 2348 2305 2281 2259 2250 2233 2231 2275 2312 2305 2308 2332 2348 2336 2328 2338 2370 2357 2342 2352 2359 2367 2378 2381 2368 2364 2368 2336 2306 2301 2288 2330 2347 2375 2403 2387 2376 2392 2388 2439 2474 2511 2543 2571 2598 2634 2686 2667 2655 2665 2661 2667 2665 2650 2672 2636 2626 2593 2577 2589 2600 2609 2634 2658 2700 2708 2719 2732 2754 2736 2721 2712 2715 2756 2805 2786 2814 2845 2909 2898 2903 2902 2920 2924 2924 2932 2926 2938 2973 3007 3076 3097 3154 3205 3291 3288 3314 3362 3436 3490 3578 3639 3802 3630 3576 3511 3482 3489 3515 3516 3545 3500 3475 3435 3414 3362 3293 3232 3131 3133 3092 3084 3064 3070 3075 3077 3107 3070 3048 3066 3067 3049 3038 3035 3025 2966 2908 2852 2779 2764 2727 2687 2618 2553 2461 2416 2344 2292 2207 2124 1975 2028 2007 1991 1955 1939 1912 1896 1860 1892 1918 1917 1911 1904 1917 1911 1907
6494 6454 6455 6371 6342 6224 6208 6137 6118 6035 6008 5930 5904 5804 5782 5709 5721 5662 5629 5597 5573 5521 5507 5475 5451 5397 5376 5353 5360 5351 5353 5310 5297 5247 5196 5078 5049 4893 4856 4736 4726 4610 4574 4530 4503 4446 4425 4375 4391 4349 4320 4280 4276 4241 4230 4192 4183 4119 4094 4066 4080 4056 4037 4015 3978 3906 3903 3835 3832 3780 3769 3728 3723 3703 3710 3744 3725 3736 3723 3698 3671 3633 3600 3525 3518 3451 3435 3395 3421 3390 3395 3416 3414 3426 3431 3423 3405 3382 3380 3392 3395 3409 3417 3444 3464 3538 3572 3616 3618 3676 3707 3757 3765 3810 3831 3831 3854 3894 3910 3958 3972 4039 4046 4073 4088 4173 4167 4188 4191 4214 4234 4219 4227 4238 4248 4237 4227 4221 4220 4174 4154 4118 4114 4088 4069 4028 4013 3985 3962 3915 3926 3912 3904 3888 3863 3878 3869 3886 3865 3844 3833 3807 3810 3815 3782 3730 3730 3686 3723 3723 3693 3699 3697 3705 3706 3717 3691 3662 3672 3637 3635 3615 3609 3611 3621 3632 3641 3670 3676 3716 3753 3822 3804 3855 3876 3849 3812 3739 3743 3701 3667 3574 3533 3445 3454 3387 3381 3328 3328 3288 3288 3283 3294 3292 3296 3274 3257 3228 3217 3219 3213 3240 3233 3258 3248 3258 3263 3215 3226 3209 3178 3102 3120 3064 3035 2962 2943 2847 2810 2734 2746 2682 2663 2642 2659 2654 2622 2599 2574 2524 2490 2455 2445 2404 2397 2349 2362 2340 2325 2407 2408 2439 2464 2507 2558 2631 2662 2742 2730 2764 2776 2775 2769 2771 2764 2745 2751 2730 2711 2698 2700 2664 2646 2637 2637 2635 2610 2595 2634 2643 2615 2645 2639 2623 2639 2668 2663 2675 2681 2659 2651 2613 2596 2554 2580 2567 2559 2610 2586 2600 2629 2658 2651 2690 2688 2695 2678 2657 2661 2656 2633 2592 2580 2547 2531 2479 2458 2420 2417 2388 2394 2393 2414 2442 2432 2430 2429 2466 2465 2472 2448 2419 2413 2415 2386 2342 2331 2281 2289 2254 2244 2232 2269 2278 2285 2301 2321 2339 2339 2345 2339 2327 2341 2361 2365 2346 2356 2356 2379 2413 2397 2362 2355 2338 2339 2328 2345 2352 2348 2374 2363 2366 2394 2409 2426 2446 2470 2519 2523 2568 2580 2612 2633 2679 2701 2709 2696 2710 2688 2655 2649 2639 2636 2612 2621 2622 2605 2616 2628 2669 2687 2732 2722 2740 2738 2722 2726 2705 2702 2719 2719 2750 2785 2818 2821 2871 2890 2891 2916 2942 2952 2951 2940 2929 2946 2990 2998 3056 3101 3174 3181 3248 3282 3349 3363 3460 3492 3576 3538 3572 3588 3498 3523 3488 3496 3512 3503 3498 3490 3436 3436 3382 3363 3286 3279 3188 3155 3125 3092 3067 3057 3051 3065 3078 3093 3090 3062 3047 3041 3035 3006 2972 2938 2861 2848 2762 2755 2720 2678 2572 2540 2453 2404 2293 2258 2185 2190 2099 2035 1999 1999 1945 1942 1922 1935 1933 1927 1935 1929 1932 1937 1936 1932
6418 6396 6385 6361 6372 6242 6148 6160 6168 6095 6052 5966 5898 5827 5749 5777 5811 5725 5686 5627 5596 5544 5507 5502 5476 5430 5374 5383 5381 5361 5372 5310 5282 5207 5142 5070 5057 4923 4853 4782 4759 4646 4542 4529 4512 4467 4419 4426 4448 4386 4332 4307 4290 4279 4285 4248 4238 4182 4130 4137 4150 4102 4061 4034 3994 3962 3946 3898 3874 3834 3805 3789 3787 3756 3748 3739 3708 3726 3733 3691 3658 3604 3537 3528 3543 3466 3428 3429 3457 3437 3443 3426 3407 3437 3470 3430 3392 3374 3336 3372 3390 3413 3448 3438 3445 3521 3601 3605 3608 3653 3712 3717 3713 3759 3782 3808 3849 3884 3937 3949 3954 4015 4070 4072 4058 4102 4112 4127 4117 4145 4149 4188 4216 4227 4245 4236 4233 4221 4233 4183 4160 4128 4112 4096 4100 4061 4042 4003 3980 3942 3927 3918 3931 3894 3864 3866 3858 3868 3873 3832 3808 3802 3799 3801 3781 3739 3709 3728 3769 3737 3720 3713 3692 3709 3714 3691 3660 3643 3623 3607 3609 3591 3575 3584 3603 3616 3636 3646 3659 3694 3749 3743 3729 3774 3800 3780 3774 3722 3677 3681 3663 3567 3461 3455 3466 3406 3397 3363 3343 3308 3282 3282 3293 3277 3289 3272 3271 3225 3223 3189 3175 3187 3173 3205 3204 3217 3199 3212 3234 3194 3143 3157 3198 3125 3082 3037 3020 2931 2861 2853 2859 2787 2744 2723 2719 2698 2672 2633 2591 2552 2510 2496 2478 2464 2447 2450 2461 2449 2445 2464 2444 2490 2512 2572 2609 2691 2771 2784 2776 2820 2866 2833 2815 2813 2838 2808 2801 2770 2724 2733 2737 2697 2657 2647 2639 2631 2599 2655 2693 2695 2691 2682 2662 2664 2665 2681 2667 2691 2692 2696 2687 2654 2608 2623 2653 2644 2651 2626 2578 2603 2608 2633 2618 2654 2682 2675 2664 2666 2676 2663 2656 2624 2602 2588 2569 2515 2446 2450 2449 2433 2426 2423 2435 2446 2451 2429 2428 2455 2476 2472 2470 2430 2390 2406 2399 2351 2299 2279 2276 2237 2209 2256 2318 2324 2331 2333 2335 2351 2365 2348 2339 2333 2351 2370 2384 2371 2380 2380 2390 2412 2438 2386 2355 2344 2323 2358 2395 2389 2380 2379 2366 2384 2399 2439 2474 2487 2528 2542 2533 2576 2599 2624 2646 2685 2730 2707 2710 2705 2726 2664 2639 2627 2621 2619 2625 2611 2606 2610 2627 2665 2716 2717 2716 2745 2772 2733 2724 2686 2663 2688 2694 2737 2769 2784 2781 2847 2892 2905 2929 2962 2996 2972 2958 2947 2939 2970 2975 3053 3101 3148 3150 3217 3240 3305 3329 3412 3497 3473 3429 3473 3482 3484 3532 3494 3503 3495 3488 3487 3484 3456 3453 3408 3371 3349 3352 3251 3178 3129 3086 3066 3046 3050 3058 3071 3099 3082 3066 3043 3018 3002 2981 2936 2897 2870 2862 2793 2761 2718 2695 2591 2517 2457 2412 2311 2210 2239 2269 2161 2067 2050 2047 1987 1946 1956 1973 1970 1983 1957 1931 1946 1969 1959 1954
6335 6328 6329 6318 6298 6227 6247 6187 6172 6126 6083 5985 5937 5858 5861 5839 5799 5744 5720 5630 5622 5552 5565 5551 5527 5474 5461 5425 5384 5341 5323 5276 5259 5158 5125 5003 4967 4889 4885 4781 4771 4673 4645 4535 4510 4493 4489 4464 4450 4417 4394 4327 4316 4302 4300 4277 4284 4241 4236 4202 4185 4144 4115 4067 4041 4002 3972 3938 3915 3878 3861 3839 3815 3786 3777 3756 3755 3729 3701 3678 3658 3590 3571 3508 3477 3444 3472 3439 3453 3458 3450 3440 3429 3448 3436 3438 3434 3389 3385 3370 3369 3405 3407 3418 3432 3500 3513 3596 3599 3617 3638 3686 3702 3733 3744 3772 3797 3858 3881 3949 3961 4000 4016 4089 4088 4066 4066 4093 4079 4100 4128 4171 4181 4210 4210 4230 4213 4198 4185 4165 4161 4124 4118 4086 4095 4074 4056 4005 4006 3948 3941 3904 3907 3894 3892 3867 3865 3858 3838 3804 3814 3796 3802 3812 3786 3737 3751 3748 3742 3738 3754 3742 3743 3727 3702 3676 3658 3629 3597 3561 3556 3568 3566 3550 3571 3593 3597 3622 3633 3653 3662 3675 3695 3715 3708 3700 3704 3700 3702 3683 3648 3573 3548 3448 3410 3377 3399 3387 3365 3319 3306 3272 3253 3235 3250 3255 3222 3180 3183 3141 3158 3162 3159 3188 3188 3208 3195 3203 3201 3190 3195 3185 3179 3159 3142 3084 3048 2999 2997 2960 2929 2864 2854 2790 2768 2747 2715 2671 2636 2584 2564 2543 2536 2527 2542 2543 2546 2550 2555 2562 2551 2568 2590 2661 2671 2755 2774 2849 2865 2875 2855 2877 2857 2830 2846 2848 2843 2826 2809 2773 2756 2733 2718 2658 2660 2652 2701 2734 2738 2753 2754 2731 2736 2709 2718 2725 2727 2731 2730 2747 2724 2708 2694 2677 2683 2707 2682 2665 2667 2628 2635 2650 2624 2628 2647 2660 2656 2669 2660 2666 2670 2649 2647 2636 2613 2569 2539 2486 2479 2471 2464 2441 2454 2459 2441 2409 2422 2453 2451 2472 2469 2441 2436 2420 2393 2365 2328 2263 2242 2212 2251 2267 2305 2371 2359 2365 2368 2365 2348 2346 2340 2318 2343 2386 2377 2374 2391 2396 2396 2408 2397 2389 2388 2362 2378 2389 2394 2432 2416 2396 2395 2408 2430 2477 2466 2502 2541 2589 2605 2607 2614 2639 2639 2686 2667 2679 2695 2674 2666 2639 2651 2609 2622 2618 2608 2591 2605 2593 2614 2651 2659 2707 2730 2755 2724 2717 2701 2653 2674 2676 2695 2738 2727 2769 2781 2847 2858 2909 2946 2984 2977 2985 2980 2963 2969 2977 3003 3081 3094 3167 3170 3230 3237 3302 3298 3363 3355 3391 3400 3411 3404 3427 3426 3453 3474 3477 3486 3480 3471 3453 3464 3427 3416 3390 3353 3287 3235 3127 3110 3066 3065 3047 3041 3050 3051 3076 3064 3042 3012 2976 2958 2897 2897 2863 2828 2790 2760 2697 2670 2582 2550 2447 2419 2329 2336 2292 2272 2209 2193 2090 2072 2012 2015 1985 1983 1994 1990 1980 1977 1953 1965 1977 1973
6259 6262 6253 6255 6264 6227 6205 6197 6228 6124 6056 5968 5854 5863 5852 5845 5864 5773 5698 5662 5621 5586 5564 5560 5578 5501 5471 5428 5396 5341 5297 5270 5233 5151 5058 4978 4836 4848 4813 4784 4780 4686 4613 4559 4473 4498 4488 4491 4502 4438 4386 4347 4303 4323 4331 4320 4335 4290 4264 4252 4267 4173 4099 4073 4035 4001 3956 3927 3899 3881 3854 3841 3831 3802 3781 3773 3787 3738 3689 3667 3634 3581 3531 3487 3422 3459 3463 3473 3489 3469 3446 3421 3385 3433 3451 3455 3439 3413 3390 3381 3366 3403 3417 3405 3362 3450 3512 3548 3585 3601 3644 3657 3678 3713 3761 3770 3777 3820 3870 3909 3958 3971 4021 4061 4127 4061 4050 4041 4013 4078 4124 4146 4195 4178 4184 4186 4179 4167 4147 4140 4122 4118 4104 4093 4109 4063 4046 4029 4032 3977 3934 3913 3904 3897 3877 3879 3871 3859 3833 3810 3785 3800 3793 3798 3798 3766 3740 3755 3774 3769 3770 3772 3786 3739 3716 3658 3615 3588 3541 3516 3472 3522 3538 3535 3566 3565 3570 3600 3624 3632 3661 3644 3644 3672 3689 3663 3618 3649 3652 3648 3661 3575 3509 3448 3356 3369 3369 3368 3359 3319 3293 3266 3223 3226 3218 3205 3165 3155 3142 3123 3107 3124 3113 3151 3184 3178 3167 3194 3212 3194 3172 3187 3229 3161 3127 3090 3027 3023 3009 3013 3031 2947 2904 2844 2794 2763 2725 2674 2618 2583 2540 2561 2564 2590 2621 2630 2644 2644 2650 2637 2631 2659 2688 2734 2757 2825 2884 2918 2966 2919 2894 2888 2856 2870 2894 2877 2862 2851 2837 2822 2796 2776 2745 2712 2674 2729 2779 2821 2868 2832 2841 2815 2813 2786 2779 2781 2789 2779 2778 2767 2751 2735 2707 2717 2741 2728 2706 2712 2725 2692 2684 2661 2611 2662 2682 2658 2615 2639 2643 2663 2691 2654 2648 2642 2648 2587 2535 2518 2516 2502 2495 2484 2491 2472 2462 2418 2378 2428 2453 2455 2489 2441 2416 2412 2398 2344 2286 2248 2194 2238 2251 2294 2373 2363 2383 2380 2413 2376 2348 2340 2334 2324 2330 2365 2400 2398 2413 2408 2403 2403 2401 2391 2364 2383 2406 2416 2432 2442 2443 2434 2398 2442 2469 2485 2487 2532 2599 2623 2697 2669 2679 2656 2633 2658 2658 2672 2700 2657 2643 2633 2631 2613 2625 2606 2604 2604 2612 2603 2609 2630 2653 2688 2745 2720 2709 2694 2663 2656 2644 2670 2704 2705 2707 2735 2740 2830 2896 2927 3001 2984 3010 2996 2979 2970 2978 2995 3017 3092 3154 3183 3183 3232 3269 3284 3290 3314 3337 3321 3303 3337 3352 3349 3343 3394 3434 3463 3484 3473 3465 3470 3493 3438 3394 3384 3366 3268 3174 3128 3071 3074 3062 3033 3023 3014 3021 3035 3040 3011 2966 2953 2942 2887 2848 2818 2765 2734 2692 2659 2643 2558 2476 2434 2385 2343 2311 2318 2378 2263 2205 2154 2121 2064 2016 2012 2008 2014 2015 2006 1993 1988 2000 2002 1988
6206 6211 6190 6188 6196 6215 6207 6169 6150 6088 6075 5977 5977 5889 5858 5826 5817 5787 5763 5700 5677 5609 5583 5550 5526 5483 5484 5420 5414 5330 5318 5277 5240 5156 5127 5018 4982 4857 4810 4762 4752 4680 4683 4615 4601 4539 4520 4511 4485 4448 4433 4374 4380 4359 4331 4340 4341 4323 4315 4278 4245 4184 4164 4092 4080 4013 3977 3917 3929 3896 3879 3840 3844 3811 3793 3769 3761 3747 3722 3669 3650 3571 3556 3490 3521 3509 3487 3502 3478 3486 3465 3416 3439 3449 3460 3495 3469 3436 3423 3400 3410 3425 3406 3423 3422 3429 3448 3501 3515 3560 3592 3621 3647 3682 3714 3770 3761 3778 3806 3861 3861 3908 3951 4009 3998 4001 4021 4009 4039 4075 4060 4095 4106 4125 4147 4151 4151 4146 4147 4128 4126 4122 4099 4076 4055 4024 4043 4035 4013 3994 3972 3911 3923 3916 3898 3903 3892 3875 3862 3820 3834 3827 3819 3791 3788 3790 3777 3760 3765 3797 3791 3793 3757 3727 3702 3625 3622 3567 3532 3492 3512 3513 3483 3487 3506 3534 3554 3584 3568 3591 3591 3599 3631 3643 3637 3646 3636 3626 3603 3597 3597 3558 3564 3479 3464 3376 3364 3360 3346 3307 3312 3277 3272 3231 3208 3182 3171 3133 3119 3105 3115 3116 3102 3120 3126 3155 3172 3196 3185 3205 3192 3165 3156 3131 3143 3122 3118 3059 3064 3053 3026 2989 2969 2890 2869 2788 2750 2683 2662 2590 2589 2599 2613 2650 2669 2713 2705 2732 2721 2708 2734 2750 2786 2830 2841 2906 2920 2976 2933 2941 2951 2928 2929 2901 2901 2906 2902 2879 2898 2882 2869 2830 2813 2774 2809 2813 2841 2905 2867 2866 2880 2875 2873 2844 2835 2833 2836 2821 2821 2793 2797 2777 2771 2746 2754 2760 2761 2755 2749 2731 2737 2701 2728 2728 2689 2677 2664 2630 2643 2654 2634 2630 2633 2638 2622 2599 2578 2535 2539 2529 2525 2510 2497 2477 2460 2425 2431 2428 2400 2407 2414 2418 2427 2415 2384 2328 2307 2250 2295 2296 2271 2286 2288 2326 2349 2361 2378 2378 2371 2332 2340 2316 2327 2345 2354 2405 2404 2423 2411 2403 2405 2413 2405 2401 2407 2437 2447 2461 2489 2502 2491 2496 2498 2507 2519 2543 2561 2610 2630 2695 2693 2675 2672 2655 2647 2651 2630 2614 2632 2621 2618 2590 2591 2579 2604 2612 2611 2600 2612 2609 2623 2649 2657 2671 2690 2689 2678 2665 2653 2658 2657 2671 2699 2726 2758 2837 2838 2905 2899 2942 2985 3011 2992 2961 2982 3011 3044 3119 3150 3228 3222 3248 3247 3276 3268 3267 3267 3254 3268 3283 3265 3277 3318 3349 3389 3457 3444 3463 3475 3472 3456 3440 3436 3386 3346 3245 3228 3141 3144 3100 3049 3000 2998 2964 2979 3006 2996 2998 2978 2930 2906 2862 2848 2798 2762 2692 2666 2607 2601 2533 2512 2431 2419 2348 2324 2291 2286 2260 2273 2201 2185 2108 2085 2041 2042 2042 2040 2037 2030 2007 2023 2043 2028
6148 6137 6105 6124 6130 6153 6183 6153 6140 6068 6010 5987 5988 5913 5863 5832 5805 5764 5703 5697 5701 5615 5552 5533 5509 5481 5457 5446 5438 5350 5269 5254 5232 5156 5104 5035 4997 4874 4785 4766 4753 4688 4657 4640 4639 4589 4559 4531 4495 4455 4409 4397 4401 4365 4324 4355 4370 4350 4325 4286 4256 4188 4115 4106 4119 4033 3945 3937 3949 3916 3884 3865 3874 3817 3761 3757 3748 3720 3685 3665 3671 3585 3531 3525 3556 3521 3515 3484 3462 3470 3469 3435 3447 3462 3513 3502 3497 3463 3419 3423 3427 3418 3413 3419 3422 3441 3501 3495 3489 3547 3602 3615 3643 3675 3729 3740 3735 3769 3811 3820 3805 3869 3930 3947 3961 3962 3949 3986 4025 4042 4059 4076 4083 4106 4120 4124 4124 4124 4137 4115 4109 4092 4076 4051 4018 4008 4004 4002 3978 3967 3954 3929 3932 3907 3871 3895 3913 3892 3884 3860 3859 3856 3873 3815 3780 3780 3762 3757 3764 3775 3801 3772 3738 3705 3670 3616 3580 3518 3455 3469 3503 3479 3460 3461 3466 3495 3534 3541 3529 3557 3550 3589 3624 3616 3617 3602 3583 3588 3572 3586 3584 3563 3559 3498 3494 3411 3367 3360 3348 3322 3308 3286 3287 3236 3196 3165 3151 3109 3076 3094 3098 3092 3068 3102 3117 3146 3155 3166 3173 3183 3186 3165 3156 3120 3093 3125 3164 3113 3117 3081 3056 3016 2967 2915 2896 2800 2737 2677 2652 2596 2550 2610 2663 2696 2752 2757 2756 2772 2801 2801 2830 2862 2933 2926 2942 2988 3043 3001 2934 2959 2971 2967 2993 2959 2941 2926 2930 2935 2969 2939 2927 2885 2853 2873 2905 2923 2975 2949 2921 2919 2914 2923 2932 2891 2852 2884 2914 2892 2883 2863 2841 2826 2811 2796 2805 2784 2788 2794 2804 2799 2792 2787 2799 2774 2743 2702 2669 2670 2673 2643 2609 2605 2573 2603 2604 2578 2532 2535 2558 2541 2548 2527 2508 2481 2448 2430 2412 2404 2389 2387 2380 2388 2389 2377 2378 2317 2253 2287 2350 2323 2311 2300 2290 2324 2338 2364 2390 2372 2362 2345 2365 2330 2315 2335 2338 2373 2389 2408 2408 2415 2402 2420 2408 2423 2427 2473 2486 2523 2564 2541 2526 2550 2592 2561 2560 2584 2606 2621 2619 2672 2708 2695 2680 2672 2649 2626 2598 2600 2595 2609 2618 2583 2566 2593 2601 2615 2631 2626 2629 2631 2625 2644 2655 2654 2657 2657 2649 2639 2626 2640 2658 2671 2697 2731 2762 2821 2873 2868 2853 2918 2986 2979 2989 2971 2979 3025 3070 3154 3237 3266 3259 3290 3284 3277 3262 3263 3260 3228 3199 3221 3200 3258 3294 3337 3408 3421 3423 3446 3481 3453 3450 3426 3426 3386 3359 3262 3161 3153 3161 3084 3028 2984 2968 2946 2925 2955 2961 2947 2947 2905 2868 2827 2790 2756 2712 2647 2601 2575 2572 2504 2442 2418 2424 2344 2273 2274 2285 2259 2254 2220 2227 2134 2070 2063 2072 2063 2076 2065 2064 2039 2051 2059 2054
6104 6085 6079 6075 6060 6087 6100 6122 6111 6034 6027 5973 5957 5913 5901 5835 5815 5762 5748 5687 5649 5600 5591 5522 5509 5478 5480 5471 5435 5365 5337 5241 5221 5135 5109 5024 4964 4860 4853 4766 4717 4662 4682 4650 4642 4620 4595 4559 4532 4471 4453 4405 4390 4376 4393 4388 4386 4384 4337 4285 4264 4198 4181 4099 4085 4057 4032 3940 3938 3936 3911 3862 3860 3824 3810 3753 3732 3702 3686 3635 3623 3569 3579 3526 3507 3505 3501 3457 3470 3466 3437 3411 3430 3442 3470 3503 3528 3503 3487 3447 3428 3410 3425 3421 3394 3414 3453 3492 3525 3537 3547 3597 3605 3647 3664 3727 3733 3752 3757 3804 3808 3834 3836 3889 3922 3939 3945 3964 3972 4010 4023 4068 4071 4096 4081 4103 4089 4089 4088 4086 4083 4064 4059 4037 4012 3987 3993 3991 3966 3944 3939 3919 3934 3909 3903 3894 3894 3899 3894 3879 3879 3866 3847 3819 3815 3790 3767 3744 3735 3741 3742 3759 3738 3685 3659 3591 3555 3470 3478 3428 3431 3441 3444 3432 3435 3448 3476 3520 3540 3561 3554 3585 3586 3583 3579 3562 3583 3571 3573 3593 3577 3553 3519 3461 3455 3410 3415 3367 3356 3327 3309 3273 3255 3233 3204 3134 3109 3078 3096 3099 3086 3086 3095 3104 3117 3159 3140 3140 3158 3168 3161 3156 3144 3101 3120 3124 3118 3115 3125 3101 3096 3054 3005 2909 2877 2781 2759 2639 2624 2595 2632 2629 2657 2719 2750 2807 2797 2799 2828 2866 2886 2937 2952 3000 3039 3062 3039 3051 3033 2991 2978 2977 2990 3001 2975 2930 2946 2962 2967 2979 2976 2932 2955 2960 2953 3002 2988 2996 3017 2976 2974 2972 2960 2939 2941 2938 2943 2952 2945 2936 2914 2876 2858 2824 2802 2785 2814 2831 2846 2870 2860 2859 2854 2827 2794 2722 2726 2710 2676 2636 2623 2608 2603 2598 2592 2578 2563 2517 2521 2532 2538 2544 2526 2492 2482 2438 2419 2388 2381 2372 2373 2366 2351 2329 2332 2309 2321 2296 2311 2338 2333 2313 2321 2342 2336 2369 2368 2358 2356 2323 2326 2326 2341 2344 2354 2363 2382 2413 2423 2450 2447 2460 2450 2458 2481 2544 2556 2584 2565 2575 2581 2588 2584 2588 2613 2628 2614 2650 2649 2666 2666 2719 2720 2707 2667 2609 2611 2593 2595 2603 2573 2560 2602 2627 2617 2618 2631 2645 2649 2663 2650 2648 2640 2635 2645 2633 2619 2618 2628 2620 2638 2660 2694 2739 2756 2812 2814 2844 2876 2892 2898 2931 2946 2957 3003 3041 3095 3192 3224 3342 3362 3370 3318 3286 3289 3266 3238 3202 3198 3205 3221 3264 3257 3299 3325 3399 3401 3417 3409 3411 3402 3390 3393 3375 3361 3286 3245 3149 3112 3050 3039 2942 2937 2928 2929 2931 2902 2885 2891 2878 2847 2788 2775 2724 2673 2584 2580 2520 2497 2469 2450 2377 2373 2333 2325 2250 2247 2238 2226 2198 2178 2134 2135 2069 2076 2063 2075 2086 2059 2035 2062 2088 2108
6081 6030 6009 5999 5976 6020 6062 6070 6105 6016 5963 5953 5934 5899 5870 5839 5803 5773 5739 5690 5606 5592 5542 5532 5486 5482 5463 5458 5448 5371 5307 5261 5239 5130 5046 4970 4869 4847 4792 4749 4656 4673 4663 4653 4641 4601 4562 4541 4541 4477 4441 4405 4371 4390 4409 4410 4449 4367 4312 4271 4249 4212 4173 4121 4072 4050 4013 3966 3934 3922 3899 3873 3873 3834 3791 3755 3715 3691 3661 3628 3604 3576 3552 3510 3466 3489 3486 3466 3445 3438 3410 3410 3398 3436 3491 3521 3593 3532 3504 3468 3438 3441 3442 3409 3328 3428 3487 3514 3571 3554 3568 3578 3577 3614 3640 3681 3724 3734 3738 3765 3785 3792 3817 3864 3930 3909 3916 3933 3967 3967 3991 4016 4061 4044 4043 4052 4045 4045 4053 4048 4045 4037 4026 4001 3951 3963 3977 3960 3926 3928 3918 3923 3954 3909 3880 3888 3915 3901 3886 3875 3888 3867 3844 3810 3781 3773 3757 3722 3695 3700 3707 3715 3710 3665 3623 3562 3491 3458 3434 3424 3402 3409 3402 3406 3401 3436 3473 3506 3546 3535 3542 3574 3626 3565 3547 3556 3582 3559 3548 3558 3590 3538 3481 3440 3392 3398 3390 3370 3364 3324 3290 3252 3208 3192 3162 3110 3030 3053 3058 3076 3084 3072 3094 3099 3138 3131 3146 3142 3169 3147 3147 3140 3136 3107 3100 3128 3140 3132 3121 3117 3113 3051 3003 2934 2851 2791 2723 2650 2527 2618 2652 2688 2733 2769 2811 2822 2830 2854 2892 2919 2942 2993 3043 3077 3163 3117 3102 3075 3048 3028 3012 3003 3014 3007 2977 2965 2954 2977 2997 3000 3026 2991 3003 2995 2999 3028 3049 3060 3121 3056 3029 3025 3015 2981 2958 2980 3031 2993 2981 2968 2962 2928 2892 2863 2790 2833 2837 2864 2896 2894 2908 2907 2938 2867 2828 2781 2731 2732 2689 2654 2576 2599 2597 2604 2620 2583 2556 2526 2505 2515 2520 2521 2522 2505 2491 2445 2402 2387 2352 2359 2367 2351 2329 2322 2303 2312 2304 2331 2359 2338 2332 2329 2320 2333 2343 2373 2408 2366 2353 2324 2293 2317 2332 2339 2394 2381 2414 2416 2441 2451 2471 2481 2482 2500 2515 2583 2671 2618 2615 2606 2598 2612 2637 2618 2646 2618 2621 2642 2676 2657 2663 2691 2748 2693 2674 2632 2595 2591 2586 2580 2534 2578 2605 2634 2657 2647 2663 2666 2657 2671 2663 2664 2652 2652 2658 2629 2569 2611 2628 2630 2648 2674 2720 2745 2777 2798 2838 2856 2895 2902 2917 2927 2912 2969 3028 3077 3168 3216 3294 3360 3501 3395 3357 3329 3322 3273 3223 3195 3128 3184 3216 3232 3266 3273 3308 3339 3380 3375 3387 3365 3329 3353 3357 3354 3358 3272 3186 3144 3090 3061 3003 2949 2851 2898 2891 2902 2869 2872 2843 2830 2777 2751 2720 2669 2596 2559 2507 2476 2400 2419 2382 2360 2341 2316 2294 2256 2229 2217 2185 2165 2129 2123 2113 2102 2103 2093 2082 2068 2042 2056 2064 2112 2184
5976 5946 5959 5937 5948 5958 5958 5993 5979 5963 5974 5945 5927 5881 5886 5850 5838 5788 5771 5730 5705 5620 5602 5578 5556 5503 5476 5452 5428 5365 5336 5260 5223 5101 5064 4941 4952 4868 4845 4785 4781 4713 4681 4658 4633 4584 4558 4503 4501 4457 4441 4403 4422 4407 4396 4396 4360 4325 4309 4238 4256 4231 4199 4140 4128 4061 4033 3980 3966 3922 3884 3858 3860 3849 3825 3763 3743 3687 3664 3614 3621 3579 3552 3499 3520 3500 3491 3478 3464 3431 3426 3421 3409 3415 3443 3499 3492 3528 3523 3485 3494 3476 3467 3445 3467 3485 3467 3508 3511 3542 3572 3572 3568 3592 3603 3635 3661 3725 3724 3734 3726 3732 3760 3820 3809 3853 3872 3887 3888 3901 3923 3947 3962 3976 4000 4020 4006 3993 4008 4009 4007 4014 4001 3993 3980 3940 3946 3947 3946 3925 3917 3901 3902 3896 3893 3865 3884 3906 3882 3849 3862 3872 3848 3798 3805 3765 3737 3692 3698 3658 3666 3686 3665 3645 3610 3543 3530 3438 3438 3433 3422 3394 3402 3390 3407 3424 3430 3485 3469 3491 3526 3543 3517 3504 3527 3534 3524 3535 3516 3502 3521 3529 3502 3428 3441 3400 3377 3359 3347 3315 3299 3237 3236 3168 3156 3115 3115 3047 3047 3066 3036 3026 3045 3063 3063 3084 3094 3113 3115 3107 3124 3122 3118 3094 3123 3149 3141 3154 3155 3133 3098 3036 3032 2976 2939 2810 2787 2711 2737 2699 2691 2740 2745 2813 2809 2841 2855 2898 2926 2979 3002 3051 3057 3102 3089 3142 3140 3100 3090 3063 3035 3012 3037 3039 3033 3001 2991 2995 2976 2999 3004 3005 3026 3021 3049 3064 3060 3075 3083 3101 3113 3086 3051 3015 3010 2995 3005 3009 3020 2995 3007 2983 2974 2947 2944 2920 2889 2894 2881 2905 2913 2925 2909 2878 2890 2843 2845 2798 2756 2717 2691 2615 2603 2601 2586 2578 2573 2527 2537 2503 2504 2501 2517 2515 2500 2449 2455 2409 2372 2346 2344 2342 2344 2330 2336 2335 2347 2368 2336 2325 2344 2354 2340 2329 2353 2374 2355 2347 2358 2328 2328 2317 2285 2286 2306 2354 2374 2397 2408 2443 2469 2514 2518 2546 2548 2602 2575 2603 2635 2638 2627 2625 2614 2603 2599 2580 2601 2624 2608 2626 2634 2634 2636 2643 2667 2653 2638 2590 2601 2598 2612 2614 2615 2648 2642 2653 2679 2700 2690 2703 2693 2696 2673 2664 2662 2658 2648 2629 2603 2625 2639 2670 2685 2744 2737 2765 2799 2849 2862 2906 2926 2948 2963 2980 3004 3072 3108 3213 3239 3305 3297 3354 3382 3351 3328 3283 3274 3227 3212 3187 3172 3183 3189 3222 3234 3272 3280 3317 3348 3335 3351 3337 3327 3327 3305 3259 3246 3151 3158 3102 3059 3001 2989 2922 2902 2919 2905 2892 2861 2824 2801 2719 2693 2637 2625 2552 2535 2479 2477 2426 2378 2341 2329 2296 2286 2254 2251 2216 2201 2151 2154 2119 2131 2126 2125 2127 2100 2063 2082 2086 2075 2112 2146
5901 5878 5875 5868 5889 5893 5905 5915 5901 5898 5883 5897 5920 5878 5880 5852 5847 5791 5764 5742 5731 5654 5604 5606 5601 5535 5464 5452 5434 5358 5272 5248 5225 5100 4975 4957 4954 4887 4858 4831 4837 4755 4699 4665 4629 4573 4507 4494 4485 4429 4363 4401 4437 4404 4413 4360 4313 4277 4227 4227 4246 4201 4179 4148 4139 4071 4021 3969 3952 3883 3825 3832 3835 3833 3817 3764 3731 3684 3641 3629 3633 3578 3528 3515 3531 3511 3520 3483 3463 3436 3408 3393 3391 3417 3463 3459 3450 3483 3487 3493 3514 3497 3512 3496 3499 3519 3548 3526 3509 3552 3603 3570 3543 3580 3611 3635 3645 3688 3713 3708 3702 3702 3706 3744 3748 3794 3818 3834 3849 3862 3879 3917 3937 3950 3946 3966 3968 3972 3988 3968 3952 3962 3953 3966 3964 3947 3949 3936 3937 3920 3919 3906 3893 3875 3860 3875 3885 3883 3859 3849 3844 3831 3835 3807 3814 3752 3711 3696 3686 3646 3625 3633 3623 3599 3544 3533 3517 3451 3391 3416 3428 3414 3425 3408 3412 3408 3413 3431 3429 3470 3527 3495 3480 3466 3446 3475 3483 3481 3448 3477 3505 3494 3463 3452 3458 3407 3360 3340 3325 3296 3283 3249 3249 3186 3134 3139 3137 3078 3045 3023 2997 2996 3009 3010 3012 3036 3043 3072 3097 3097 3098 3101 3109 3110 3114 3140 3162 3165 3194 3139 3104 3053 3004 2983 2967 2859 2779 2784 2818 2794 2799 2782 2777 2821 2851 2871 2873 2942 2997 3054 3087 3113 3134 3104 3069 3125 3156 3109 3097 3066 3018 3060 3087 3077 3081 3035 2992 2986 2959 3002 3017 3043 3055 3075 3109 3105 3102 3114 3110 3127 3146 3111 3074 3048 3015 3038 3059 3051 3048 3063 3071 3038 3007 3006 3020 2978 2954 2925 2891 2916 2927 2933 2927 2912 2902 2902 2913 2843 2779 2764 2746 2673 2621 2608 2569 2576 2568 2564 2562 2542 2508 2521 2534 2527 2514 2486 2472 2406 2331 2327 2336 2327 2338 2337 2353 2352 2382 2372 2350 2339 2339 2341 2347 2347 2389 2371 2357 2348 2352 2324 2316 2285 2247 2260 2254 2309 2354 2371 2381 2434 2479 2518 2544 2557 2563 2585 2580 2602 2629 2635 2633 2630 2633 2593 2578 2564 2556 2576 2564 2585 2601 2605 2607 2623 2626 2638 2638 2627 2622 2638 2651 2655 2666 2665 2665 2679 2709 2696 2694 2703 2719 2692 2672 2668 2675 2663 2650 2626 2591 2617 2636 2657 2679 2709 2720 2769 2807 2847 2858 2919 2957 2981 3008 3023 3053 3093 3120 3200 3272 3260 3235 3288 3323 3322 3324 3278 3264 3231 3214 3193 3192 3167 3138 3179 3178 3210 3223 3284 3361 3347 3346 3331 3317 3313 3279 3256 3216 3191 3194 3113 3043 3036 3030 2968 2919 2926 2919 2895 2860 2838 2819 2732 2640 2622 2593 2553 2514 2506 2498 2432 2347 2326 2297 2269 2253 2235 2243 2210 2208 2162 2163 2139 2153 2139 2137 2126 2108 2091 2100 2091 2060 2106 2143
5813 5790 5795 5774 5792 5823 5844 5862 5863 5845 5856 5843 5843 5832 5845 5833 5823 5768 5772 5745 5711 5662 5668 5643 5617 5574 5534 5458 5429 5363 5336 5235 5204 5101 5070 4958 4907 4870 4877 4845 4830 4774 4751 4675 4651 4575 4549 4483 4458 4413 4418 4401 4368 4359 4358 4321 4305 4243 4235 4197 4175 4149 4163 4137 4122 4065 4030 3924 3898 3835 3857 3813 3828 3833 3792 3745 3729 3679 3657 3628 3603 3574 3550 3505 3499 3493 3486 3472 3474 3445 3408 3355 3373 3401 3410 3427 3452 3468 3472 3488 3482 3486 3515 3530 3541 3545 3535 3542 3550 3556 3545 3562 3551 3574 3591 3652 3653 3672 3663 3684 3683 3668 3688 3704 3713 3758 3768 3785 3798 3819 3858 3908 3922 3944 3937 3932 3925 3942 3941 3924 3937 3932 3940 3957 3939 3936 3933 3913 3922 3899 3909 3912 3888 3854 3879 3892 3895 3882 3862 3847 3812 3776 3784 3782 3769 3718 3728 3697 3662 3615 3626 3600 3610 3586 3571 3528 3509 3461 3456 3414 3405 3409 3405 3406 3406 3384 3394 3399 3405 3433 3424 3433 3449 3435 3441 3439 3439 3460 3453 3454 3457 3479 3466 3460 3438 3411 3378 3319 3301 3261 3267 3230 3230 3193 3196 3171 3138 3086 3052 2986 2972 2953 2953 2959 2971 3006 3008 3037 3050 3088 3077 3077 3089 3126 3129 3136 3152 3152 3142 3126 3117 3068 3040 2987 2961 2880 2890 2831 2849 2861 2848 2812 2826 2843 2879 2922 2941 3002 3044 3154 3160 3183 3147 3113 3126 3134 3098 3083 3094 3089 3105 3124 3111 3101 3093 3066 3035 3000 3019 3033 3047 3096 3089 3117 3143 3145 3155 3170 3155 3154 3142 3140 3118 3091 3087 3084 3086 3088 3114 3141 3120 3094 3079 3051 3039 3021 3008 2962 2957 2942 2940 2953 2931 2944 2947 2953 2923 2884 2876 2817 2790 2711 2700 2641 2611 2592 2600 2601 2600 2597 2577 2544 2552 2547 2529 2509 2469 2414 2379 2298 2279 2292 2314 2330 2333 2339 2364 2391 2374 2344 2332 2324 2322 2325 2345 2365 2365 2337 2316 2300 2293 2262 2265 2253 2244 2276 2294 2352 2380 2436 2464 2535 2551 2577 2576 2595 2581 2599 2610 2641 2645 2630 2599 2558 2565 2543 2549 2562 2551 2550 2568 2579 2601 2619 2624 2635 2639 2658 2658 2682 2679 2692 2689 2683 2698 2692 2690 2684 2695 2699 2692 2681 2675 2663 2668 2669 2666 2637 2633 2619 2619 2643 2672 2695 2726 2786 2814 2877 2903 2957 2968 3014 3018 3053 3072 3129 3155 3196 3193 3228 3230 3242 3250 3292 3267 3242 3239 3221 3205 3180 3176 3155 3165 3178 3166 3168 3188 3238 3272 3348 3340 3325 3328 3331 3313 3270 3250 3204 3174 3116 3113 3073 3047 3002 2993 2949 2936 2910 2893 2850 2822 2751 2726 2618 2583 2554 2547 2534 2511 2459 2413 2322 2292 2230 2225 2192 2197 2175 2156 2128 2130 2123 2134 2140 2146 2132 2123 2096 2113 2121 2112 2111 2126
5748 5738 5716 5718 5697 5760 5802 5824 5842 5828 5836 5821 5814 5799 5797 5800 5811 5757 5731 5707 5676 5649 5638 5630 5650 5561 5503 5460 5434 5365 5315 5255 5208 5100 4998 4928 4827 4844 4842 4827 4843 4770 4718 4681 4657 4571 4510 4472 4431 4391 4374 4362 4351 4333 4316 4284 4243 4214 4189 4156 4129 4122 4122 4108 4109 4053 3993 3915 3812 3835 3831 3833 3844 3795 3756 3714 3676 3648 3591 3592 3569 3541 3489 3484 3473 3465 3449 3458 3459 3413 3371 3357 3330 3389 3422 3434 3453 3470 3485 3478 3467 3500 3533 3550 3578 3563 3556 3556 3557 3558 3555 3537 3467 3554 3595 3637 3679 3661 3654 3672 3667 3681 3678 3695 3684 3734 3784 3779 3771 3814 3858 3905 3959 3937 3936 3920 3880 3916 3933 3922 3904 3916 3920 3926 3912 3920 3920 3930 3929 3915 3891 3895 3867 3860 3877 3901 3947 3877 3837 3806 3768 3746 3737 3740 3744 3712 3686 3664 3627 3604 3604 3606 3630 3569 3548 3518 3505 3455 3433 3409 3407 3390 3377 3384 3410 3379 3382 3383 3375 3386 3402 3392 3403 3401 3413 3410 3414 3410 3417 3422 3449 3429 3421 3415 3421 3372 3326 3295 3265 3251 3252 3224 3217 3186 3173 3168 3162 3074 3000 2967 2904 2923 2903 2917 2913 2956 2979 3008 3032 3057 3048 3061 3056 3106 3145 3157 3206 3155 3128 3109 3080 3051 3004 2993 2973 2922 2884 2897 2925 2912 2904 2885 2851 2920 2975 3003 2992 3082 3148 3208 3307 3240 3205 3167 3125 3122 3108 3081 3051 3097 3110 3150 3201 3149 3118 3077 2996 3034 3054 3077 3103 3108 3129 3164 3255 3189 3196 3183 3195 3179 3167 3145 3096 3112 3102 3125 3160 3160 3168 3184 3199 3136 3100 3084 3078 3060 3032 3006 2973 2977 2977 2958 2903 2951 2964 2959 2956 2916 2890 2865 2855 2761 2703 2656 2593 2631 2640 2636 2634 2628 2606 2597 2611 2571 2529 2494 2442 2397 2332 2290 2195 2277 2301 2318 2328 2338 2376 2368 2379 2334 2311 2302 2301 2319 2345 2344 2369 2317 2273 2267 2259 2250 2229 2221 2202 2255 2294 2330 2379 2437 2506 2539 2614 2584 2589 2580 2568 2602 2622 2634 2680 2612 2576 2551 2528 2521 2513 2528 2536 2551 2582 2590 2606 2623 2638 2638 2638 2662 2657 2696 2721 2720 2730 2720 2754 2722 2722 2701 2691 2690 2694 2672 2639 2662 2668 2670 2683 2645 2627 2640 2625 2676 2715 2734 2747 2816 2873 2913 2971 2996 3044 3053 3050 3082 3101 3160 3243 3232 3229 3228 3179 3226 3231 3245 3211 3193 3169 3167 3158 3159 3157 3148 3136 3157 3182 3169 3170 3234 3280 3303 3327 3317 3311 3332 3337 3288 3248 3209 3161 3119 3069 3071 3071 3024 2991 2974 2968 2935 2896 2873 2827 2785 2718 2634 2522 2530 2507 2518 2538 2441 2375 2324 2271 2216 2182 2161 2171 2124 2078 2076 2064 2088 2112 2134 2159 2134 2127 2119 2130 2130 2117 2121 2125
5693 5700 5689 5685 5706 5721 5744 5792 5786 5791 5807 5793 5775 5754 5753 5760 5736 5721 5721 5678 5665 5622 5608 5591 5570 5518 5520 5448 5423 5351 5329 5265 5216 5094 5053 4931 4921 4837 4801 4779 4779 4746 4735 4675 4647 4545 4528 4466 4431 4349 4344 4324 4326 4306 4293 4258 4243 4182 4153 4109 4126 4090 4089 4067 4070 4045 4029 3932 3941 3865 3842 3847 3804 3749 3740 3681 3692 3647 3615 3581 3558 3533 3509 3469 3463 3448 3449 3454 3421 3380 3395 3372 3392 3404 3403 3436 3440 3475 3483 3473 3491 3516 3529 3559 3554 3576 3566 3571 3560 3564 3570 3564 3565 3581 3573 3622 3612 3640 3660 3683 3686 3714 3708 3715 3697 3713 3740 3779 3787 3808 3825 3898 3884 3911 3941 3932 3933 3912 3920 3927 3920 3911 3911 3918 3920 3913 3939 3961 3941 3943 3927 3910 3879 3842 3858 3889 3857 3844 3834 3772 3755 3704 3713 3698 3711 3700 3688 3646 3628 3573 3581 3591 3556 3512 3517 3493 3467 3423 3416 3385 3385 3370 3347 3344 3346 3342 3366 3379 3361 3337 3337 3331 3345 3355 3361 3376 3357 3350 3353 3368 3369 3367 3381 3358 3356 3331 3320 3270 3263 3227 3213 3197 3191 3161 3181 3166 3115 3051 3041 2981 2971 2932 2899 2893 2902 2927 2939 2986 3008 3063 3061 3063 3067 3097 3105 3142 3128 3134 3138 3102 3093 3053 3045 3008 2995 2953 2953 2949 2940 2959 2974 2974 2997 3013 3048 3123 3131 3189 3175 3224 3216 3268 3264 3227 3200 3124 3108 3083 3122 3141 3132 3168 3162 3177 3176 3131 3137 3086 3090 3119 3090 3105 3117 3155 3144 3163 3185 3171 3197 3203 3202 3178 3181 3159 3137 3155 3175 3224 3220 3228 3186 3153 3144 3108 3114 3112 3092 3057 3052 3019 3004 3000 2997 2995 2970 2966 2969 2937 2941 2900 2862 2776 2766 2690 2723 2700 2682 2669 2675 2677 2653 2627 2612 2597 2564 2499 2476 2402 2385 2336 2341 2323 2293 2313 2302 2311 2325 2327 2326 2303 2294 2272 2284 2305 2307 2300 2294 2289 2272 2238 2247 2251 2230 2203 2233 2248 2247 2297 2342 2427 2445 2501 2513 2556 2568 2571 2593 2619 2598 2593 2579 2565 2564 2545 2538 2501 2511 2504 2522 2539 2563 2593 2602 2632 2640 2641 2665 2697 2697 2727 2711 2738 2718 2716 2712 2723 2730 2708 2698 2679 2673 2677 2674 2678 2664 2663 2647 2636 2675 2692 2697 2724 2734 2779 2799 2858 2856 2933 2935 3014 3052 3105 3100 3124 3120 3169 3182 3263 3272 3277 3269 3254 3243 3247 3201 3150 3151 3120 3134 3141 3147 3144 3144 3135 3148 3159 3198 3249 3235 3260 3274 3308 3332 3352 3325 3300 3285 3225 3203 3131 3112 3073 3062 3035 3025 2989 2984 2966 2946 2922 2905 2847 2789 2678 2650 2538 2502 2494 2447 2393 2400 2328 2282 2182 2146 2099 2091 2072 2057 2036 2055 2055 2079 2125 2107 2118 2128 2125 2134 2153 2142 2132 2130
5633 5626 5625 5656 5702 5716 5766 5758 5761 5773 5805 5761 5720 5711 5686 5682 5666 5669 5676 5646 5629 5586 5545 5541 5533 5486 5467 5417 5390 5321 5266 5231 5191 5087 4982 4939 4920 4829 4762 4756 4749 4706 4676 4661 4650 4545 4446 4431 4399 4338 4272 4287 4300 4284 4257 4238 4219 4158 4080 4096 4118 4086 4071 4062 4049 4044 4030 3979 3974 3891 3846 3828 3790 3751 3688 3687 3686 3627 3558 3541 3528 3498 3467 3457 3448 3434 3424 3413 3404 3384 3369 3386 3421 3422 3443 3432 3429 3481 3533 3499 3490 3527 3575 3555 3550 3552 3541 3553 3551 3564 3595 3565 3560 3591 3623 3612 3592 3619 3638 3673 3695 3718 3736 3708 3683 3720 3784 3773 3777 3804 3826 3857 3869 3906 3962 3949 3953 3942 3962 3935 3912 3917 3911 3921 3929 3946 3973 3959 3943 3933 3929 3903 3873 3851 3834 3841 3819 3802 3776 3736 3708 3686 3684 3693 3709 3685 3664 3620 3607 3555 3535 3532 3518 3474 3435 3423 3406 3376 3351 3349 3352 3319 3267 3294 3324 3321 3333 3346 3346 3314 3305 3297 3294 3305 3311 3317 3289 3295 3280 3312 3326 3332 3353 3328 3317 3293 3261 3232 3229 3194 3163 3160 3156 3148 3180 3127 3072 3021 2970 2971 2973 2923 2869 2878 2887 2914 2931 2971 3005 3052 3087 3065 3063 3094 3126 3109 3092 3102 3112 3099 3091 3054 3039 3015 3018 2972 2939 2960 2969 3005 3041 3058 3100 3133 3208 3223 3240 3278 3296 3267 3226 3259 3256 3247 3244 3163 3100 3120 3156 3166 3170 3187 3193 3204 3196 3187 3216 3163 3159 3129 3082 3103 3106 3126 3130 3154 3153 3185 3221 3225 3232 3213 3220 3175 3139 3189 3222 3237 3268 3227 3198 3162 3118 3123 3137 3125 3123 3104 3100 3063 3026 3025 3017 3016 3016 3007 3010 2979 2973 2921 2882 2820 2745 2762 2801 2768 2766 2734 2717 2695 2674 2648 2618 2585 2551 2502 2475 2413 2362 2359 2375 2341 2343 2308 2283 2298 2337 2305 2298 2265 2225 2233 2251 2280 2324 2286 2242 2238 2192 2211 2229 2216 2208 2222 2254 2255 2244 2304 2352 2426 2474 2488 2490 2519 2533 2563 2594 2600 2613 2574 2539 2517 2466 2497 2531 2514 2512 2524 2535 2559 2585 2594 2602 2644 2684 2676 2687 2704 2728 2734 2722 2723 2699 2695 2682 2702 2735 2705 2684 2664 2648 2661 2649 2661 2678 2649 2624 2651 2690 2713 2746 2773 2810 2834 2847 2884 2888 2922 2921 3029 3120 3124 3129 3138 3138 3165 3195 3253 3305 3298 3317 3288 3292 3237 3176 3156 3126 3112 3107 3109 3145 3130 3141 3145 3164 3179 3203 3230 3264 3251 3251 3294 3343 3342 3337 3311 3280 3226 3211 3130 3083 3066 3072 3028 3008 2991 2991 2955 2930 2939 2958 2874 2805 2717 2668 2555 2457 2440 2397 2368 2344 2296 2244 2144 2033 2018 2011 1987 1951 1996 2053 2045 2074 2087 2076 2105 2112 2128 2133 2149 2155 2143 2134
5549 5547 5585 5615 5626 5675 5684 5716 5728 5735 5725 5727 5711 5685 5662 5617 5621 5613 5605 5602 5578 5550 5533 5496 5479 5428 5418 5365 5341 5278 5268 5205 5179 5082 5047 4925 4878 4799 4791 4737 4700 4653 4666 4645 4604 4541 4510 4415 4374 4334 4317 4254 4260 4273 4252 4220 4185 4153 4144 4080 4076 4066 4080 4061 4058 4055 4025 3983 3951 3882 3891 3832 3818 3779 3751 3693 3663 3617 3592 3497 3483 3465 3472 3445 3436 3418 3405 3371 3382 3383 3375 3384 3377 3420 3416 3421 3461 3489 3480 3501 3510 3529 3513 3539 3548 3543 3547 3552 3553 3548 3550 3544 3571 3600 3591 3612 3621 3609 3631 3677 3693 3729 3700 3701 3691 3703 3714 3753 3790 3808 3808 3837 3847 3885 3893 3949 3945 3941 3938 3942 3934 3935 3929 3928 3935 3970 3957 3961 3953 3920 3923 3903 3892 3856 3847 3823 3807 3771 3741 3689 3655 3648 3663 3682 3668 3668 3630 3564 3555 3508 3521 3484 3482 3434 3424 3359 3352 3326 3345 3311 3308 3287 3281 3241 3251 3288 3306 3326 3297 3271 3283 3260 3252 3261 3275 3294 3277 3262 3266 3275 3273 3282 3292 3287 3297 3264 3236 3169 3165 3157 3148 3125 3121 3098 3096 3093 3067 2992 2987 2960 2935 2918 2903 2865 2873 2913 2917 2963 2990 3054 3035 3048 3059 3093 3082 3077 3087 3070 3084 3093 3061 3034 3030 2998 2988 2981 2984 2986 2995 3051 3062 3119 3149 3211 3236 3321 3360 3388 3341 3324 3317 3289 3272 3261 3234 3186 3185 3143 3148 3198 3202 3219 3249 3251 3226 3205 3206 3193 3183 3159 3146 3120 3115 3115 3138 3172 3166 3196 3209 3245 3222 3222 3217 3183 3216 3242 3231 3237 3226 3216 3228 3182 3169 3132 3122 3131 3140 3138 3135 3107 3098 3057 3044 3037 3038 3038 3030 2997 2988 2931 2929 2878 2861 2814 2801 2806 2803 2785 2776 2715 2705 2674 2634 2577 2551 2483 2456 2414 2403 2363 2350 2323 2324 2296 2290 2264 2266 2259 2263 2234 2227 2186 2202 2242 2252 2279 2266 2229 2207 2185 2175 2178 2210 2224 2232 2274 2286 2324 2358 2454 2449 2490 2488 2497 2523 2554 2549 2574 2568 2553 2543 2500 2494 2448 2454 2515 2535 2548 2558 2577 2575 2596 2611 2661 2658 2694 2703 2706 2728 2759 2762 2736 2710 2684 2677 2669 2683 2696 2669 2645 2662 2672 2655 2640 2643 2631 2633 2655 2685 2724 2757 2812 2837 2902 2930 2943 2927 2947 2976 3062 3061 3144 3159 3164 3159 3161 3189 3250 3258 3296 3310 3289 3279 3233 3221 3173 3142 3096 3053 3043 3074 3090 3118 3140 3157 3193 3203 3204 3204 3230 3249 3274 3284 3339 3352 3327 3266 3191 3158 3098 3095 3037 3018 2997 2999 2976 2968 2934 2954 2949 2953 2887 2845 2719 2667 2559 2522 2412 2388 2340 2321 2271 2218 2118 2066 1932 1918 1917 1946 1944 1958 2001 2037 2075 2099 2115 2118 2142 2148 2155 2147 2154 2156
5468 5500 5545 5565 5589 5612 5643 5659 5697 5688 5677 5666 5629 5643 5627 5602 5571 5561 5539 5526 5487 5480 5460 5450 5447 5399 5347 5315 5257 5240 5199 5185 5165 5075 4993 4904 4808 4773 4709 4690 4651 4635 4619 4602 4555 4513 4434 4397 4303 4313 4283 4268 4243 4242 4215 4182 4111 4140 4124 4109 4080 4084 4078 4062 4047 4039 4016 3973 3912 3901 3878 3845 3816 3782 3743 3709 3656 3619 3568 3509 3414 3461 3451 3441 3415 3409 3385 3379 3351 3355 3331 3345 3336 3385 3402 3437 3493 3492 3504 3491 3479 3492 3494 3519 3537 3539 3544 3556 3572 3554 3557 3549 3547 3573 3593 3606 3641 3619 3648 3671 3728 3696 3678 3662 3627 3677 3718 3749 3816 3801 3813 3825 3840 3864 3871 3912 3930 3929 3919 3910 3897 3924 3941 3935 3931 3953 3969 3959 3961 3927 3929 3906 3881 3863 3837 3819 3802 3754 3688 3632 3507 3598 3616 3640 3640 3625 3582 3542 3486 3486 3485 3479 3478 3440 3387 3355 3289 3321 3338 3317 3285 3265 3247 3237 3209 3259 3288 3290 3259 3257 3257 3226 3185 3235 3254 3253 3243 3249 3239 3256 3257 3264 3273 3270 3285 3237 3194 3147 3073 3099 3083 3093 3098 3065 3039 3032 3003 2964 2926 2928 2894 2891 2859 2861 2847 2889 2907 2962 3012 3022 3035 3034 3009 3062 3095 3087 3076 3073 3081 3059 3008 3011 2999 2969 2936 2956 2954 2983 3005 3064 3112 3165 3226 3264 3313 3385 3525 3435 3414 3376 3361 3342 3314 3284 3233 3206 3168 3160 3151 3205 3237 3276 3357 3284 3258 3235 3231 3205 3166 3158 3149 3138 3144 3135 3160 3157 3166 3192 3245 3225 3202 3218 3234 3225 3220 3260 3307 3252 3232 3228 3247 3194 3167 3152 3109 3146 3157 3159 3175 3145 3130 3095 3056 3063 3060 3069 3069 3029 3016 2971 2934 2905 2871 2855 2839 2834 2821 2819 2838 2762 2714 2682 2613 2594 2528 2485 2379 2398 2363 2372 2354 2327 2302 2283 2258 2260 2259 2242 2224 2211 2192 2170 2156 2199 2239 2239 2233 2193 2172 2159 2147 2188 2211 2225 2225 2265 2293 2335 2410 2454 2502 2503 2494 2526 2552 2548 2537 2553 2553 2535 2509 2509 2489 2461 2388 2498 2549 2568 2596 2592 2594 2593 2605 2641 2676 2690 2730 2724 2762 2770 2825 2747 2701 2684 2656 2668 2685 2664 2600 2636 2649 2663 2662 2657 2653 2625 2571 2670 2738 2768 2804 2831 2888 2951 3066 2991 2971 2983 3009 3062 3120 3150 3210 3181 3182 3182 3209 3242 3293 3310 3351 3302 3277 3237 3188 3172 3125 3071 2947 3018 3056 3070 3099 3119 3156 3182 3251 3193 3179 3200 3229 3241 3275 3311 3401 3286 3210 3145 3064 3059 3037 3004 2957 2967 2951 2962 2956 2946 2942 2968 3049 2909 2818 2705 2585 2523 2449 2404 2345 2324 2276 2222 2142 2078 1973 1919 1791 1885 1915 1940 1939 1984 2019 2068 2134 2118 2139 2149 2186 2161 2147 2164 2182
5441 5441 5459 5512 5503 5542 5558 5580 5601 5643 5637 5632 5646 5631 5619 5594 5574 5522 5498 5478 5455 5423 5418 5400 5391 5375 5352 5292 5283 5228 5212 5174 5144 5060 5013 4891 4892 4779 4736 4665 4670 4618 4614 4591 4581 4523 4507 4439 4428 4332 4310 4292 4285 4239 4229 4182 4200 4173 4166 4153 4143 4113 4093 4065 4071 4040 4036 3983 3985 3934 3890 3855 3848 3790 3790 3744 3723 3638 3624 3558 3562 3516 3473 3455 3442 3419 3419 3411 3387 3357 3347 3330 3356 3384 3392 3433 3435 3483 3473 3482 3471 3467 3479 3507 3497 3535 3539 3559 3539 3540 3544 3551 3541 3552 3560 3578 3566 3578 3610 3634 3626 3650 3661 3644 3658 3660 3661 3712 3716 3767 3792 3813 3829 3863 3858 3899 3895 3926 3907 3885 3911 3925 3927 3940 3941 3943 3938 3945 3933 3899 3910 3913 3905 3881 3852 3815 3800 3757 3718 3647 3671 3621 3616 3624 3614 3612 3602 3537 3531 3467 3466 3472 3476 3464 3438 3385 3386 3334 3327 3336 3303 3244 3252 3252 3248 3252 3255 3288 3269 3243 3226 3202 3236 3240 3211 3221 3249 3252 3251 3253 3249 3246 3234 3236 3226 3207 3201 3152 3153 3085 3076 3068 3047 3026 3019 2995 2988 2937 2948 2933 2916 2893 2891 2874 2876 2889 2905 2967 2952 2987 3019 3045 3039 3054 3063 3100 3079 3066 3061 3055 3035 3005 2972 2944 2971 2953 2973 2989 3023 3089 3119 3206 3213 3306 3322 3384 3359 3414 3455 3408 3423 3406 3375 3328 3310 3237 3209 3178 3196 3236 3238 3292 3255 3271 3280 3246 3246 3233 3207 3159 3165 3142 3143 3121 3125 3133 3140 3163 3169 3211 3212 3215 3232 3265 3263 3274 3234 3233 3235 3217 3209 3183 3206 3202 3203 3187 3171 3166 3170 3170 3167 3138 3137 3100 3111 3109 3082 3035 3029 3004 3003 2937 2934 2897 2888 2873 2847 2835 2819 2781 2790 2728 2718 2661 2619 2553 2523 2438 2416 2411 2379 2330 2323 2278 2284 2259 2241 2227 2222 2196 2182 2147 2164 2159 2171 2207 2174 2139 2155 2132 2173 2219 2218 2243 2249 2271 2276 2316 2352 2453 2485 2528 2540 2564 2544 2551 2550 2548 2541 2526 2547 2540 2541 2521 2541 2542 2532 2580 2571 2604 2593 2580 2601 2624 2624 2660 2666 2701 2713 2737 2725 2726 2738 2696 2695 2662 2665 2675 2669 2651 2653 2672 2671 2676 2672 2648 2691 2716 2725 2808 2792 2821 2862 2950 2929 2984 3014 3005 3018 3057 3084 3128 3134 3171 3182 3176 3199 3218 3240 3303 3287 3291 3292 3250 3247 3203 3167 3118 3108 3029 3011 3036 3052 3081 3105 3128 3124 3139 3151 3163 3160 3186 3193 3231 3208 3207 3205 3115 3113 3038 3012 2985 2992 2964 2963 2968 2948 2953 2939 2935 2899 2884 2846 2699 2664 2500 2476 2412 2410 2335 2288 2201 2188 2079 2052 1982 1988 1920 1913 1965 1951 1978 1993 2047 2045 2086 2118 2131 2145 2158 2166 2174 2166
5415 5413 5418 5420 5416 5472 5523 5528 5540 5570 5578 5608 5644 5619 5625 5579 5555 5486 5424 5403 5383 5376 5363 5350 5332 5321 5297 5268 5268 5218 5189 5164 5144 5047 4939 4913 4907 4792 4695 4689 4688 4639 4597 4590 4593 4549 4512 4495 4510 4398 4314 4323 4329 4283 4252 4238 4232 4222 4228 4205 4182 4145 4114 4103 4101 4081 4076 4018 4008 3929 3859 3866 3870 3822 3812 3768 3767 3691 3644 3611 3609 3551 3510 3467 3445 3427 3433 3417 3396 3363 3351 3354 3382 3387 3416 3427 3422 3434 3434 3442 3433 3438 3465 3465 3454 3502 3526 3531 3516 3526 3515 3518 3505 3528 3563 3528 3517 3540 3588 3582 3575 3597 3622 3618 3650 3638 3647 3657 3667 3725 3773 3804 3829 3838 3832 3870 3886 3900 3889 3890 3917 3916 3948 3937 3940 3930 3934 3927 3919 3900 3868 3891 3897 3870 3831 3812 3793 3735 3667 3698 3728 3699 3715 3658 3607 3615 3621 3567 3539 3483 3441 3466 3485 3463 3426 3434 3440 3385 3349 3318 3295 3255 3229 3238 3243 3264 3271 3283 3257 3242 3200 3217 3246 3224 3198 3239 3269 3273 3258 3264 3259 3238 3198 3203 3191 3175 3160 3168 3184 3120 3080 3050 3012 2990 2958 2974 2982 2937 2919 2917 2913 2892 2906 2878 2885 2886 2920 2937 2950 2990 3034 3020 3023 3047 3091 3073 3058 3062 3049 3034 3002 2985 2934 2954 2989 2990 3016 3030 3063 3115 3179 3202 3230 3302 3375 3357 3325 3392 3474 3449 3466 3422 3406 3376 3361 3269 3189 3193 3205 3231 3273 3257 3223 3236 3248 3235 3249 3226 3207 3196 3196 3175 3161 3128 3102 3110 3106 3136 3138 3175 3179 3226 3248 3272 3281 3252 3209 3208 3186 3197 3205 3197 3195 3223 3259 3239 3224 3205 3190 3194 3186 3176 3183 3156 3182 3139 3125 3063 3010 3035 3058 3002 2968 2934 2913 2876 2842 2845 2839 2822 2814 2784 2772 2699 2652 2612 2573 2500 2437 2433 2413 2367 2333 2311 2300 2271 2220 2212 2206 2178 2163 2145 2159 2155 2164 2139 2114 2115 2118 2139 2172 2215 2266 2267 2272 2280 2295 2327 2349 2453 2551 2556 2566 2581 2567 2568 2550 2561 2555 2572 2569 2581 2594 2589 2613 2599 2621 2598 2554 2593 2593 2595 2608 2617 2607 2625 2628 2658 2687 2685 2675 2684 2706 2698 2721 2685 2669 2680 2667 2676 2689 2690 2688 2699 2703 2710 2748 2772 2808 2825 2802 2847 2873 2905 2896 2960 3003 3023 3040 3079 3142 3125 3120 3146 3172 3191 3221 3225 3230 3257 3261 3277 3278 3261 3258 3212 3161 3157 3162 3089 3033 3029 3038 3067 3112 3089 3075 3075 3053 3086 3112 3121 3129 3126 3120 3112 3097 3081 3090 3014 2964 2965 2983 2964 2966 2935 2922 2910 2914 2880 2835 2804 2754 2673 2639 2503 2409 2417 2447 2359 2273 2225 2196 2097 2008 2041 2077 2020 1979 1979 1947 1975 2010 2025 2028 2077 2124 2139 2155 2151 2146 2157 2142
5385 5380 5364 5334 5354 5407 5411 5471 5476 5521 5534 5579 5583 5579 5574 5543 5518 5443 5414 5328 5336 5338 5326 5308 5304 5283 5268 5217 5211 5189 5191 5150 5124 5045 5022 4915 4868 4790 4783 4710 4698 4655 4632 4582 4590 4569 4561 4521 4512 4436 4431 4358 4338 4312 4306 4287 4270 4256 4256 4260 4233 4171 4170 4135 4123 4110 4067 4007 3992 3915 3926 3882 3864 3819 3804 3749 3748 3715 3691 3633 3619 3571 3544 3459 3450 3411 3427 3429 3399 3351 3363 3354 3351 3367 3402 3440 3419 3398 3408 3420 3395 3387 3411 3434 3455 3495 3492 3526 3538 3534 3522 3502 3490 3492 3475 3455 3467 3478 3491 3533 3528 3541 3547 3557 3574 3596 3603 3605 3641 3693 3718 3802 3804 3828 3839 3865 3876 3902 3876 3869 3864 3877 3903 3922 3918 3904 3919 3910 3925 3916 3914 3887 3889 3872 3853 3812 3790 3725 3750 3753 3740 3735 3710 3689 3673 3623 3600 3573 3553 3486 3500 3466 3473 3478 3485 3486 3459 3417 3380 3293 3282 3253 3257 3228 3254 3293 3291 3317 3302 3271 3257 3223 3221 3215 3245 3268 3283 3313 3289 3286 3263 3250 3225 3187 3170 3145 3167 3178 3170 3132 3102 3041 3006 2965 2972 2961 2946 2913 2919 2903 2876 2858 2872 2850 2857 2852 2877 2913 2936 2992 2975 2978 2997 3022 3027 3043 3074 3078 3052 3031 3027 3000 2976 2949 2972 3005 3015 3054 3081 3132 3138 3194 3238 3297 3293 3347 3346 3355 3381 3449 3449 3412 3421 3412 3379 3291 3284 3201 3202 3213 3227 3242 3235 3203 3206 3200 3212 3215 3226 3222 3224 3202 3178 3130 3116 3102 3118 3140 3151 3173 3210 3265 3256 3294 3266 3246 3237 3204 3200 3183 3177 3207 3216 3239 3253 3289 3273 3240 3254 3233 3213 3198 3184 3162 3164 3142 3144 3083 3096 3070 3058 3046 3009 2961 2929 2876 2893 2865 2876 2857 2838 2822 2783 2711 2717 2672 2636 2553 2532 2472 2452 2394 2386 2333 2336 2306 2263 2195 2166 2148 2146 2112 2126 2141 2112 2073 2086 2089 2111 2136 2152 2205 2224 2288 2285 2285 2315 2350 2378 2462 2483 2579 2603 2629 2612 2607 2607 2592 2615 2639 2622 2624 2620 2629 2622 2620 2637 2637 2644 2623 2607 2602 2615 2629 2627 2608 2612 2619 2629 2642 2634 2631 2655 2669 2688 2691 2703 2710 2703 2700 2697 2712 2723 2731 2733 2741 2770 2817 2835 2884 2885 2893 2885 2904 2910 2958 2981 3045 3039 3079 3083 3111 3113 3124 3142 3198 3198 3231 3222 3235 3248 3281 3264 3259 3252 3227 3210 3189 3167 3133 3094 3011 3016 3040 3037 3042 3035 3033 3024 3018 3017 3060 3044 3024 3031 3024 3025 3024 2996 2965 2972 2928 2944 2944 2925 2887 2890 2854 2855 2838 2803 2745 2694 2603 2561 2466 2475 2403 2410 2384 2338 2230 2192 2105 2134 2100 2098 2104 2077 2028 1995 1968 1979 2016 2014 2070 2083 2146 2158 2145 2152 2167 2156
5361 5337 5327 5292 5257 5321 5352 5381 5391 5446 5498 5532 5596 5549 5531 5495 5464 5407 5331 5306 5254 5288 5275 5279 5264 5260 5241 5204 5142 5166 5158 5131 5112 5043 4986 4914 4831 4786 4727 4726 4732 4664 4606 4598 4612 4579 4561 4552 4581 4480 4421 4387 4369 4324 4299 4290 4288 4281 4276 4272 4276 4220 4192 4158 4134 4094 4051 4012 3973 3939 3902 3893 3897 3837 3780 3750 3719 3692 3651 3641 3628 3580 3540 3472 3423 3425 3423 3399 3386 3356 3353 3349 3333 3383 3419 3425 3424 3410 3395 3388 3341 3380 3391 3415 3426 3467 3496 3517 3569 3546 3538 3499 3452 3466 3449 3422 3373 3424 3437 3461 3452 3491 3516 3523 3523 3552 3564 3590 3622 3659 3711 3761 3815 3826 3836 3865 3906 3881 3847 3846 3824 3868 3899 3899 3901 3902 3924 3923 3943 3928 3935 3918 3929 3879 3834 3811 3793 3754 3730 3762 3808 3741 3691 3677 3665 3627 3600 3563 3534 3512 3512 3498 3509 3497 3492 3502 3509 3434 3372 3311 3236 3253 3254 3250 3269 3294 3312 3328 3349 3304 3280 3266 3248 3252 3251 3294 3356 3323 3291 3289 3259 3254 3207 3193 3152 3155 3157 3181 3211 3130 3054 3016 2939 2958 2952 2946 2955 2912 2878 2874 2824 2858 2870 2845 2822 2843 2861 2887 2921 2960 2983 2970 2955 2993 3020 3041 3084 3050 3042 3021 3031 2987 2955 2972 3001 3004 3015 3061 3123 3127 3166 3197 3283 3275 3301 3309 3308 3352 3396 3424 3462 3416 3394 3398 3410 3331 3285 3240 3205 3235 3251 3244 3222 3213 3200 3195 3185 3209 3220 3229 3266 3214 3185 3147 3072 3111 3128 3149 3188 3217 3267 3285 3289 3285 3279 3253 3217 3218 3207 3174 3134 3189 3214 3247 3290 3297 3304 3290 3322 3262 3234 3214 3192 3190 3172 3165 3172 3129 3106 3092 3108 3035 2973 2952 2911 2914 2920 2912 2942 2872 2836 2813 2786 2749 2714 2684 2670 2593 2533 2504 2506 2454 2407 2380 2375 2319 2252 2194 2104 2134 2119 2103 2088 2097 2076 2057 2021 2077 2105 2125 2152 2187 2232 2264 2302 2319 2353 2375 2406 2462 2543 2582 2656 2641 2648 2648 2664 2657 2681 2681 2673 2665 2661 2657 2648 2657 2679 2679 2695 2667 2650 2646 2639 2654 2663 2634 2615 2625 2627 2620 2579 2622 2645 2653 2686 2686 2690 2703 2735 2711 2712 2733 2761 2762 2775 2787 2821 2843 2892 2916 2957 2942 2941 2936 2906 2990 3028 3046 3031 3073 3104 3093 3078 3108 3128 3161 3193 3196 3202 3225 3249 3250 3256 3234 3245 3202 3166 3172 3187 3120 3073 3022 2982 3009 3028 2998 2956 2980 2970 2970 2938 2968 2981 2958 2948 2951 2934 2935 2898 2910 2908 2919 2940 2909 2887 2865 2853 2829 2807 2775 2718 2674 2595 2536 2424 2432 2392 2400 2444 2370 2293 2235 2161 2150 2138 2149 2180 2136 2101 2064 2008 1997 1987 1980 1960 2035 2088 2133 2219 2165 2143 2150 2159
5295 5281 5272 5253 5271 5271 5270 5313 5328 5377 5393 5458 5460 5490 5493 5445 5447 5390 5358 5313 5314 5288 5278 5271 5261 5253 5249 5216 5213 5177 5133 5106 5085 5031 5013 4926 4904 4798 4773 4735 4699 4663 4638 4592 4590 4575 4568 4547 4524 4483 4472 4402 4383 4317 4315 4287 4291 4307 4296 4278 4261 4241 4234 4173 4161 4081 4064 4020 4019 3968 3948 3892 3884 3855 3820 3755 3741 3683 3687 3653 3631 3582 3549 3469 3482 3444 3400 3360 3363 3334 3354 3356 3379 3413 3398 3420 3419 3424 3407 3397 3396 3403 3392 3412 3418 3451 3454 3477 3494 3546 3540 3507 3505 3473 3436 3412 3422 3411 3406 3423 3425 3455 3468 3497 3505 3528 3542 3571 3574 3610 3646 3717 3740 3827 3842 3855 3862 3872 3868 3844 3855 3875 3854 3874 3876 3879 3883 3915 3908 3919 3926 3922 3911 3882 3850 3807 3807 3769 3763 3760 3747 3731 3715 3663 3653 3621 3603 3545 3552 3519 3510 3505 3511 3511 3516 3521 3482 3438 3421 3346 3342 3269 3259 3249 3269 3303 3297 3334 3319 3317 3326 3313 3301 3295 3282 3302 3302 3335 3346 3321 3319 3302 3272 3229 3215 3168 3171 3180 3156 3124 3108 3031 3032 2978 2947 2916 2913 2902 2911 2894 2888 2881 2848 2838 2839 2839 2824 2854 2877 2944 2943 2966 2977 2977 2995 3020 2996 2999 2997 2983 2980 2963 2978 2985 2976 2996 3012 3052 3036 3090 3110 3148 3169 3221 3256 3281 3302 3350 3347 3391 3387 3399 3404 3377 3359 3339 3319 3270 3291 3274 3261 3262 3253 3230 3218 3195 3215 3219 3210 3211 3213 3206 3228 3201 3189 3144 3126 3141 3172 3242 3270 3319 3293 3281 3273 3271 3263 3244 3212 3174 3201 3202 3206 3248 3253 3305 3297 3295 3279 3262 3264 3235 3245 3236 3206 3174 3177 3155 3136 3084 3067 3013 3017 2964 2968 2950 2921 2921 2903 2855 2853 2810 2811 2786 2751 2681 2671 2619 2579 2507 2525 2510 2480 2408 2398 2343 2313 2226 2221 2166 2121 2096 2108 2083 2086 2061 2086 2093 2087 2107 2123 2159 2189 2235 2270 2336 2360 2394 2398 2439 2469 2551 2562 2633 2647 2674 2673 2694 2711 2733 2716 2703 2700 2693 2692 2683 2698 2708 2698 2701 2691 2694 2691 2687 2673 2653 2644 2642 2630 2635 2630 2634 2608 2613 2633 2680 2678 2677 2689 2700 2731 2747 2754 2782 2793 2813 2818 2844 2875 2933 2946 2977 2989 2993 3025 3071 3058 3082 3071 3079 3069 3080 3084 3102 3094 3125 3130 3160 3175 3214 3206 3217 3204 3179 3183 3172 3159 3148 3122 3089 3078 3025 3029 2986 2979 2967 2965 2961 2952 2957 2931 2893 2885 2879 2898 2898 2902 2887 2882 2869 2874 2900 2878 2865 2858 2835 2833 2803 2784 2737 2716 2640 2592 2525 2520 2446 2402 2364 2361 2360 2339 2259 2258 2197 2186 2181 2170 2161 2155 2122 2097 2026 1990 1959 1993 2025 2028 2080 2091 2153 2158 2132 2130
5244 5229 5195 5212 5235 5241 5240 5264 5272 5327 5347 5395 5394 5426 5442 5429 5423 5348 5265 5285 5324 5287 5299 5267 5246 5244 5263 5226 5219 5162 5110 5087 5046 5019 4983 4930 4906 4808 4731 4699 4672 4614 4565 4567 4588 4559 4541 4518 4507 4462 4423 4392 4395 4321 4288 4281 4274 4293 4312 4276 4251 4244 4247 4208 4200 4104 4021 4025 4038 3984 3960 3911 3889 3843 3775 3761 3749 3709 3693 3662 3641 3580 3519 3485 3477 3421 3373 3346 3338 3337 3342 3374 3397 3409 3426 3426 3414 3407 3384 3391 3389 3400 3412 3419 3420 3448 3465 3473 3458 3508 3539 3512 3502 3455 3409 3418 3419 3416 3417 3397 3386 3424 3469 3469 3481 3507 3546 3543 3552 3598 3637 3684 3705 3793 3874 3872 3887 3875 3851 3847 3856 3849 3844 3853 3853 3857 3839 3869 3876 3896 3922 3904 3905 3859 3783 3801 3821 3779 3733 3764 3769 3716 3659 3650 3640 3603 3581 3546 3546 3506 3485 3497 3517 3513 3526 3511 3478 3446 3394 3380 3383 3315 3283 3266 3271 3280 3282 3309 3316 3327 3326 3322 3319 3301 3284 3306 3320 3346 3373 3364 3363 3337 3300 3283 3258 3225 3187 3182 3165 3127 3068 3053 3065 3000 2956 2920 2883 2888 2895 2895 2899 2869 2851 2823 2810 2802 2784 2828 2850 2907 2944 2962 2985 3000 3030 2992 2946 2942 2925 2934 2934 2929 2935 2959 2970 2983 3000 3011 2990 3046 3082 3119 3142 3198 3239 3257 3276 3314 3341 3364 3365 3376 3378 3350 3326 3306 3258 3297 3335 3316 3305 3296 3270 3254 3228 3237 3248 3227 3225 3218 3215 3218 3241 3228 3227 3190 3149 3169 3179 3261 3334 3324 3307 3287 3251 3269 3259 3245 3213 3207 3222 3226 3240 3252 3248 3284 3301 3286 3256 3249 3238 3257 3277 3252 3224 3203 3209 3172 3135 3090 3067 3032 2986 2988 2987 2950 2905 2918 2919 2873 2805 2810 2814 2781 2751 2693 2672 2596 2521 2523 2550 2509 2497 2443 2436 2352 2309 2255 2242 2175 2121 2127 2136 2123 2113 2112 2116 2116 2130 2122 2123 2167 2211 2242 2278 2346 2411 2412 2408 2459 2481 2522 2524 2594 2626 2663 2678 2704 2754 2750 2747 2730 2732 2718 2732 2719 2755 2720 2706 2696 2675 2716 2735 2721 2714 2660 2621 2626 2628 2630 2626 2619 2609 2605 2594 2650 2672 2684 2692 2719 2743 2771 2775 2805 2818 2838 2841 2870 2902 2950 2984 3010 3029 3061 3096 3135 3174 3131 3095 3099 3086 3079 3053 3072 3072 3103 3110 3132 3136 3173 3192 3195 3172 3158 3125 3118 3073 3090 3086 3048 3013 3017 3033 2992 2982 2937 2904 2915 2936 2915 2904 2872 2831 2846 2837 2858 2876 2857 2841 2841 2830 2848 2842 2818 2792 2790 2810 2769 2744 2704 2680 2601 2487 2501 2516 2432 2374 2331 2329 2308 2296 2268 2286 2235 2206 2205 2203 2184 2160 2152 2139 2059 1970 1983 2002 2024 2050 2049 2044 2098 2128 2104 2101
5206 5198 5196 5167 5181 5219 5216 5234 5258 5312 5317 5381 5376 5381 5388 5407 5368 5314 5308 5239 5233 5240 5262 5255 5255 5217 5215 5208 5193 5142 5132 5087 5060 5017 4974 4905 4871 4799 4761 4661 4627 4556 4564 4524 4535 4535 4524 4479 4478 4437 4414 4348 4336 4286 4302 4275 4262 4280 4266 4263 4263 4239 4231 4212 4188 4116 4100 4021 3993 3971 3960 3906 3913 3856 3835 3767 3741 3711 3703 3664 3643 3580 3556 3478 3445 3393 3378 3314 3309 3335 3360 3404 3395 3401 3418 3446 3428 3406 3402 3396 3398 3396 3415 3434 3441 3458 3464 3493 3483 3490 3483 3503 3472 3437 3449 3433 3415 3418 3389 3362 3362 3386 3402 3432 3458 3475 3489 3504 3536 3593 3605 3677 3692 3767 3787 3873 3892 3891 3858 3838 3834 3822 3841 3842 3863 3858 3848 3848 3850 3869 3862 3868 3887 3868 3845 3794 3782 3794 3797 3794 3761 3706 3694 3638 3615 3571 3569 3514 3486 3474 3498 3483 3497 3498 3510 3519 3521 3475 3453 3397 3366 3328 3318 3264 3254 3266 3287 3304 3331 3350 3342 3333 3321 3306 3312 3321 3335 3359 3361 3401 3395 3385 3367 3346 3326 3290 3254 3199 3198 3151 3120 3049 3037 3004 2991 2928 2895 2872 2884 2895 2863 2845 2837 2794 2801 2776 2805 2824 2838 2891 2903 2953 2988 3008 2984 2975 2944 2899 2898 2895 2874 2886 2912 2946 2941 2967 2980 3003 2997 3025 3047 3104 3126 3193 3189 3235 3251 3290 3307 3360 3354 3365 3353 3319 3321 3302 3322 3325 3325 3350 3355 3347 3341 3289 3287 3277 3240 3217 3230 3221 3217 3211 3232 3245 3246 3243 3235 3208 3223 3292 3285 3338 3340 3311 3305 3295 3274 3267 3246 3222 3224 3242 3256 3273 3278 3282 3272 3294 3277 3240 3262 3278 3278 3272 3254 3206 3206 3189 3149 3075 3082 3065 3055 3018 2998 2959 2967 2929 2931 2913 2878 2812 2787 2776 2740 2669 2657 2575 2579 2515 2508 2482 2478 2433 2401 2322 2318 2246 2222 2172 2183 2157 2162 2161 2160 2158 2133 2128 2126 2129 2142 2177 2197 2247 2288 2359 2371 2437 2468 2508 2499 2534 2548 2594 2608 2676 2667 2690 2716 2767 2755 2739 2730 2717 2711 2706 2720 2714 2730 2705 2736 2760 2760 2749 2706 2652 2641 2614 2623 2633 2610 2608 2616 2606 2616 2654 2654 2696 2715 2743 2761 2819 2823 2846 2851 2882 2869 2893 2916 2984 3010 3051 3082 3129 3166 3199 3173 3176 3175 3137 3120 3098 3067 3061 3079 3108 3114 3122 3138 3152 3169 3200 3180 3158 3130 3104 3084 3056 3037 3007 3022 2999 2983 2969 2951 2897 2884 2862 2860 2866 2870 2863 2856 2838 2819 2824 2821 2827 2830 2827 2813 2821 2798 2773 2757 2725 2731 2720 2707 2656 2659 2598 2565 2479 2441 2393 2361 2260 2256 2250 2261 2233 2245 2252 2252 2233 2235 2215 2205 2190 2155 2103 2074 2002 1994 2021 2024 2025 2045 2069 2059 2058 2059
5178 5175 5175 5166 5146 5174 5178 5200 5246 5279 5306 5345 5397 5363 5373 5347 5312 5283 5258 5223 5190 5219 5229 5234 5249 5213 5192 5188 5159 5118 5083 5058 5029 4986 4931 4869 4800 4747 4681 4626 4562 4534 4506 4509 4517 4510 4496 4477 4455 4405 4365 4332 4289 4263 4254 4234 4207 4239 4250 4245 4239 4219 4222 4193 4179 4112 4065 4015 3960 3953 3926 3922 3931 3883 3831 3778 3713 3713 3689 3673 3635 3592 3528 3473 3391 3381 3331 3292 3215 3326 3366 3406 3434 3427 3430 3437 3434 3406 3395 3401 3419 3430 3444 3455 3463 3472 3486 3490 3484 3486 3482 3460 3412 3431 3426 3427 3400 3393 3359 3350 3286 3359 3404 3427 3457 3472 3497 3495 3504 3556 3600 3640 3687 3740 3803 3838 3930 3854 3819 3818 3826 3825 3845 3858 3908 3865 3834 3830 3844 3842 3836 3851 3892 3842 3814 3787 3760 3772 3782 3780 3813 3722 3664 3628 3592 3576 3553 3497 3376 3457 3490 3504 3523 3509 3508 3533 3565 3502 3464 3414 3347 3334 3299 3275 3203 3280 3310 3341 3388 3371 3370 3349 3319 3314 3304 3328 3376 3361 3367 3402 3423 3404 3377 3379 3369 3322 3269 3251 3256 3178 3118 3067 3027 3006 2970 2912 2824 2873 2888 2868 2818 2818 2812 2801 2783 2792 2810 2827 2853 2873 2918 2957 3048 2994 2971 2928 2874 2875 2852 2840 2792 2867 2884 2919 2916 2950 2982 2976 2960 3027 3069 3094 3125 3165 3186 3213 3242 3272 3303 3336 3353 3361 3364 3332 3288 3314 3338 3353 3369 3377 3391 3397 3425 3348 3315 3283 3240 3247 3236 3227 3211 3240 3257 3263 3255 3269 3262 3258 3244 3301 3334 3351 3377 3338 3309 3304 3283 3268 3236 3229 3219 3249 3288 3289 3317 3276 3265 3261 3275 3251 3274 3280 3326 3283 3263 3224 3208 3175 3126 3091 3055 3068 3072 3049 3030 3001 2995 2978 2977 2923 2871 2825 2758 2751 2703 2674 2633 2591 2555 2535 2515 2485 2448 2413 2354 2314 2270 2229 2164 2171 2162 2181 2209 2194 2188 2175 2135 2139 2131 2150 2132 2192 2244 2275 2338 2366 2411 2445 2519 2529 2547 2560 2586 2604 2641 2660 2679 2699 2729 2746 2760 2733 2717 2711 2689 2704 2729 2738 2748 2755 2774 2797 2859 2754 2690 2640 2585 2617 2625 2611 2573 2605 2625 2613 2598 2642 2674 2703 2749 2763 2791 2828 2887 2890 2904 2897 2886 2914 2946 3021 3106 3117 3167 3209 3307 3231 3221 3207 3215 3177 3153 3110 3023 3079 3097 3125 3154 3141 3171 3165 3189 3178 3170 3135 3088 3083 3053 3033 3013 2997 2998 2972 2953 2934 2908 2869 2797 2818 2811 2824 2816 2821 2821 2805 2785 2807 2798 2798 2793 2787 2764 2773 2770 2735 2691 2691 2687 2658 2642 2626 2639 2574 2506 2462 2407 2360 2276 2230 2143 2226 2233 2224 2199 2228 2237 2255 2286 2226 2213 2193 2169 2113 2054 2032 1983 2033 2050 2044 2039 2058 2068 2048 2018
5161 5152 5172 5177 5157 5153 5130 5142 5179 5253 5278 5298 5289 5301 5314 5298 5292 5251 5239 5208 5220 5218 5197 5204 5197 5195 5204 5194 5161 5091 5080 5036 5021 4968 4938 4841 4819 4708 4686 4602 4602 4515 4507 4491 4493 4492 4490 4480 4439 4363 4360 4326 4297 4223 4216 4200 4215 4221 4224 4228 4209 4177 4180 4159 4140 4089 4076 4015 4012 3958 3945 3927 3921 3916 3889 3803 3803 3740 3719 3705 3679 3627 3581 3496 3484 3412 3364 3309 3363 3389 3374 3420 3409 3445 3436 3439 3411 3390 3391 3396 3419 3462 3461 3480 3464 3483 3494 3499 3492 3489 3478 3445 3462 3449 3449 3452 3424 3398 3401 3393 3387 3362 3367 3416 3420 3459 3468 3478 3503 3527 3550 3598 3629 3706 3695 3746 3734 3778 3792 3790 3795 3809 3820 3840 3838 3863 3848 3796 3803 3822 3810 3809 3796 3797 3803 3781 3769 3753 3747 3733 3724 3706 3682 3618 3624 3588 3577 3545 3544 3488 3491 3523 3506 3508 3518 3542 3518 3504 3497 3451 3431 3364 3353 3337 3344 3341 3319 3363 3359 3378 3398 3377 3361 3328 3319 3313 3324 3344 3379 3420 3412 3432 3444 3425 3405 3361 3339 3282 3249 3189 3161 3076 3084 3026 2993 2926 2951 2911 2886 2873 2852 2799 2807 2817 2806 2802 2807 2824 2820 2833 2856 2910 2905 2949 2936 2895 2906 2876 2847 2821 2871 2908 2901 2931 2925 2935 2945 2959 3000 3055 3051 3080 3100 3156 3153 3192 3208 3256 3276 3330 3326 3365 3359 3358 3348 3331 3339 3380 3374 3401 3416 3428 3403 3365 3365 3301 3318 3297 3262 3242 3272 3281 3278 3298 3308 3319 3324 3321 3323 3334 3329 3356 3344 3356 3348 3331 3313 3288 3260 3241 3251 3250 3261 3279 3256 3241 3234 3211 3227 3216 3228 3244 3247 3271 3258 3220 3213 3178 3150 3108 3115 3082 3088 3077 3059 3020 3012 3013 2987 2931 2928 2860 2841 2769 2742 2691 2669 2604 2586 2556 2533 2498 2464 2419 2406 2311 2289 2239 2241 2187 2195 2196 2209 2218 2215 2220 2208 2164 2179 2208 2208 2217 2229 2274 2293 2356 2371 2414 2450 2545 2560 2576 2572 2597 2605 2645 2663 2700 2708 2731 2722 2719 2722 2723 2713 2695 2717 2761 2762 2796 2789 2795 2754 2720 2703 2633 2656 2646 2620 2613 2618 2615 2613 2624 2631 2645 2654 2696 2706 2772 2781 2818 2856 2926 2919 2918 2923 2934 2959 3048 3057 3147 3178 3236 3191 3200 3228 3216 3220 3204 3198 3167 3165 3137 3111 3144 3116 3118 3136 3149 3147 3156 3155 3125 3118 3088 3056 3010 3011 2970 2964 2938 2947 2907 2909 2877 2873 2802 2795 2804 2803 2785 2787 2776 2806 2822 2800 2774 2776 2766 2760 2740 2724 2706 2683 2661 2630 2583 2584 2570 2567 2555 2536 2459 2441 2365 2319 2241 2289 2278 2237 2233 2243 2224 2236 2264 2223 2193 2210 2203 2184 2128 2141 2092 2095 2079 2043 2062 2050 2056 2037 2049 2031
5153 5156 5182 5152 5126 5111 5082 5117 5144 5221 5317 5282 5254 5269 5262 5268 5248 5224 5188 5195 5196 5187 5179 5181 5160 5178 5179 5168 5169 5102 5034 5020 5000 4952 4915 4836 4799 4701 4634 4618 4613 4523 4460 4474 4484 4475 4472 4444 4419 4357 4296 4287 4277 4205 4152 4173 4187 4202 4242 4207 4182 4164 4146 4124 4090 4063 4022 4008 4013 3957 3936 3930 3915 3906 3908 3846 3841 3775 3718 3716 3698 3641 3568 3520 3500 3425 3347 3378 3425 3444 3473 3448 3408 3432 3429 3412 3385 3364 3346 3384 3425 3460 3483 3474 3452 3486 3533 3502 3496 3494 3495 3477 3474 3475 3484 3450 3420 3412 3414 3425 3434 3413 3404 3416 3401 3449 3481 3484 3510 3536 3574 3595 3614 3646 3641 3652 3612 3666 3672 3724 3763 3777 3805 3810 3804 3817 3826 3785 3763 3765 3766 3759 3742 3755 3743 3733 3730 3721 3742 3703 3676 3651 3593 3597 3626 3596 3583 3580 3590 3562 3578 3541 3504 3518 3499 3517 3519 3495 3470 3447 3446 3397 3366 3385 3402 3395 3370 3395 3386 3423 3450 3407 3372 3348 3318 3332 3335 3362 3379 3420 3431 3452 3498 3465 3459 3389 3347 3298 3259 3196 3123 3111 3116 3049 2993 2983 2997 2955 2938 2893 2850 2815 2797 2797 2796 2801 2821 2811 2813 2815 2830 2850 2844 2865 2854 2867 2883 2856 2818 2857 2904 2937 2973 2961 2952 2959 2972 2988 3004 3061 3110 3096 3096 3129 3140 3181 3200 3253 3279 3310 3306 3355 3360 3362 3342 3355 3358 3375 3378 3413 3467 3443 3430 3401 3370 3350 3361 3318 3271 3292 3332 3322 3324 3344 3358 3373 3403 3377 3375 3378 3384 3375 3332 3351 3328 3326 3324 3280 3231 3255 3278 3281 3296 3256 3216 3202 3168 3197 3219 3193 3178 3210 3201 3218 3217 3192 3192 3145 3107 3113 3145 3128 3138 3091 3070 3027 2988 3011 3012 2976 2944 2890 2867 2801 2750 2718 2678 2614 2552 2549 2525 2489 2427 2442 2447 2355 2255 2259 2268 2238 2236 2240 2260 2245 2216 2251 2263 2243 2210 2253 2279 2274 2296 2300 2301 2340 2377 2406 2432 2519 2602 2590 2571 2589 2593 2634 2669 2697 2723 2727 2712 2711 2689 2711 2720 2714 2724 2742 2765 2785 2817 2764 2730 2679 2602 2626 2657 2630 2637 2621 2620 2636 2643 2632 2630 2653 2680 2685 2683 2745 2785 2837 2889 2922 2947 2941 2936 2952 2971 3039 3089 3153 3226 3195 3164 3185 3189 3211 3241 3217 3209 3196 3206 3165 3142 3127 3105 3110 3125 3119 3114 3138 3152 3116 3092 3075 3040 3022 3014 2968 2935 2935 2947 2917 2900 2889 2905 2828 2777 2795 2813 2789 2772 2780 2807 2802 2819 2780 2766 2750 2743 2717 2686 2655 2598 2595 2588 2541 2498 2507 2504 2502 2492 2446 2434 2349 2263 2295 2362 2322 2297 2284 2285 2263 2257 2234 2198 2177 2158 2177 2194 2166 2176 2145 2157 2104 2048 2048 2033 2025 2007 2032 2026
5131 5140 5135 5124 5114 5086 5096 5102 5117 5173 5194 5261 5277 5259 5257 5266 5241 5212 5208 5188 5179 5155 5169 5183 5178 5179 5148 5132 5141 5116 5085 5013 4987 4928 4885 4789 4746 4664 4673 4623 4580 4506 4514 4464 4455 4454 4440 4405 4405 4352 4330 4249 4230 4170 4181 4153 4153 4160 4167 4176 4176 4152 4125 4103 4083 4053 4028 3984 3961 3922 3945 3943 3925 3885 3873 3834 3838 3803 3788 3744 3732 3673 3630 3518 3495 3443 3462 3434 3440 3489 3473 3491 3481 3448 3424 3397 3374 3336 3363 3372 3407 3473 3461 3483 3474 3479 3472 3480 3500 3496 3496 3495 3499 3496 3482 3447 3450 3419 3442 3459 3461 3454 3448 3445 3455 3458 3440 3468 3483 3536 3542 3594 3612 3623 3607 3610 3595 3604 3623 3671 3680 3734 3753 3793 3784 3777 3763 3755 3731 3712 3720 3722 3731 3741 3717 3680 3676 3659 3668 3662 3661 3629 3603 3552 3562 3590 3594 3604 3597 3592 3583 3559 3585 3561 3543 3510 3501 3490 3474 3422 3422 3412 3436 3436 3449 3469 3458 3464 3458 3479 3443 3429 3417 3376 3379 3365 3370 3391 3406 3452 3438 3450 3460 3481 3464 3390 3375 3307 3286 3213 3198 3130 3101 3061 3059 3016 3004 2977 2957 2913 2877 2817 2806 2780 2778 2787 2789 2789 2803 2785 2793 2818 2805 2815 2825 2839 2838 2848 2873 2887 2905 2965 2952 2988 2983 2978 2985 3017 3021 3077 3068 3099 3108 3126 3147 3193 3217 3279 3276 3327 3355 3392 3372 3390 3380 3392 3382 3386 3387 3408 3426 3450 3448 3441 3422 3370 3366 3345 3350 3326 3340 3351 3374 3398 3408 3415 3416 3410 3424 3422 3423 3429 3414 3389 3352 3324 3322 3277 3286 3271 3276 3301 3265 3235 3224 3183 3189 3192 3164 3162 3198 3217 3198 3185 3178 3139 3125 3105 3118 3095 3119 3148 3119 3082 3087 3031 3045 3033 3031 3020 2970 2892 2883 2818 2804 2754 2714 2623 2619 2564 2528 2509 2507 2476 2456 2410 2369 2275 2256 2264 2281 2270 2284 2287 2295 2306 2319 2336 2322 2315 2306 2305 2312 2332 2318 2326 2354 2402 2422 2499 2523 2613 2615 2595 2610 2631 2654 2698 2703 2744 2737 2724 2721 2713 2707 2718 2719 2720 2739 2765 2743 2717 2718 2666 2646 2612 2582 2583 2610 2615 2654 2669 2639 2633 2639 2658 2667 2682 2713 2743 2780 2856 2891 2928 2936 2966 2955 2969 2996 3051 3092 3151 3143 3155 3176 3190 3186 3200 3215 3214 3222 3205 3192 3176 3149 3119 3101 3093 3095 3089 3113 3133 3106 3098 3100 3083 3064 3025 3002 2953 2960 2923 2928 2914 2900 2875 2879 2830 2832 2786 2794 2788 2776 2765 2759 2760 2770 2764 2757 2727 2718 2700 2671 2631 2601 2536 2529 2495 2487 2457 2458 2458 2445 2401 2393 2337 2349 2314 2333 2353 2347 2324 2319 2289 2260 2220 2204 2161 2175 2155 2159 2166 2163 2156 2155 2134 2109 2049 2029 2004 2030 2046 2062
