239 233 230 228 228 229 232 234 238 235 235 233 232 230 228 227 225 222 219 216 214 213 213 212 213 209 208 206 206 207 207 207 207 210 214 215 218 217 218 220 223 220 218 216 216 214 211 209 206 206 205 204 204 205 208 208 208 209 211 211 213 215 219 221 224 
233 231 230 227 228 229 229 233 232 234 235 234 233 230 229 228 227 224 221 217 216 214 212 211 210 207 207 206 207 208 207 208 209 209 211 215 215 217 218 219 219 220 218 215 216 216 215 212 211 207 205 204 205 205 207 210 209 208 209 210 212 215 216 220 221 
230 227 225 226 227 227 228 230 230 232 235 233 234 231 229 228 228 223 220 217 217 213 209 210 211 208 205 206 208 207 209 210 212 212 214 216 216 217 219 219 219 218 216 217 218 216 217 215 214 210 206 207 209 208 210 210 211 211 213 213 213 216 218 219 221 
226 225 226 225 225 227 227 229 229 229 230 231 233 233 232 230 226 221 221 216 216 213 214 212 212 211 209 207 206 206 208 211 212 215 216 219 219 219 218 219 218 218 218 219 217 215 216 217 216 213 213 212 211 211 211 212 213 214 214 217 218 219 218 220 221 
224 224 224 223 224 226 227 228 230 229 230 230 234 232 232 230 227 223 220 218 215 215 214 214 217 213 210 208 206 208 210 212 216 217 218 220 224 220 218 219 219 219 219 219 219 216 216 217 219 217 216 215 215 213 212 214 216 215 217 218 223 220 220 220 223 
224 224 223 222 224 226 225 227 226 227 227 227 229 232 233 231 229 224 224 222 221 218 216 216 215 215 213 209 211 212 212 214 215 220 221 221 221 221 221 221 221 221 221 221 219 216 218 218 218 220 220 218 217 214 215 216 215 216 215 216 217 219 219 218 220 
225 224 225 223 225 224 225 225 224 224 224 226 229 231 235 232 232 227 226 223 224 220 218 217 216 214 214 213 214 215 219 217 219 223 228 225 224 223 221 222 224 224 225 222 220 219 219 219 220 221 223 220 221 218 216 217 218 216 215 216 217 218 219 219 221 
224 224 223 222 223 221 222 224 223 221 223 227 228 231 230 231 231 227 227 223 224 223 221 218 217 214 216 216 215 216 218 219 221 225 225 228 229 227 226 225 225 227 225 225 224 221 220 220 220 221 220 220 222 222 221 219 218 218 218 218 217 218 218 220 220 
224 222 222 222 224 221 220 221 223 222 223 225 230 230 231 231 234 228 226 224 225 222 221 219 218 218 218 218 217 220 223 222 224 226 229 230 233 230 228 228 229 228 227 225 226 223 222 221 220 221 221 222 225 223 223 221 222 220 219 218 220 219 219 220 221 
221 221 221 221 220 220 220 220 221 222 222 223 225 228 228 230 228 227 226 223 224 222 223 220 222 222 222 222 222 225 224 224 226 229 229 232 231 233 234 232 230 229 228 225 225 223 224 223 223 222 222 224 223 224 224 223 222 221 220 218 220 222 222 222 221 
219 218 218 217 217 216 217 219 222 222 223 225 227 227 226 226 226 224 222 224 228 226 225 225 226 225 226 225 226 227 230 228 228 230 234 233 232 235 239 235 234 231 229 227 227 226 226 226 226 225 224 224 225 224 225 223 223 220 221 220 223 223 224 222 221 
216 215 214 214 214 213 216 219 220 224 224 227 227 228 226 224 223 223 224 225 226 229 229 230 230 229 228 228 228 228 229 230 230 230 232 235 236 238 236 237 236 232 232 228 229 229 230 230 230 228 226 224 224 224 223 223 221 218 220 221 222 223 221 221 220 
214 211 209 210 212 213 216 218 222 223 226 227 232 227 225 223 222 222 223 225 230 230 231 232 237 231 229 230 233 232 233 232 231 233 236 237 240 238 239 238 238 235 235 232 232 232 234 234 237 231 228 227 227 224 222 220 219 217 219 219 223 221 220 219 218 
210 209 208 208 210 213 214 217 218 223 223 226 224 225 225 222 223 223 222 225 226 231 231 233 232 232 232 231 232 234 234 235 235 236 235 237 236 236 238 239 238 237 236 234 236 235 236 238 236 233 233 229 227 224 221 217 218 215 215 215 216 219 219 218 218 
208 206 203 206 210 211 215 215 217 220 224 223 222 222 222 222 222 221 221 224 226 229 233 232 232 232 231 232 234 234 237 236 237 237 239 237 236 236 240 239 239 237 237 237 240 239 242 240 241 236 234 229 227 221 217 217 218 215 214 213 213 215 218 217 218 
206 206 206 206 205 209 210 214 215 218 218 221 222 222 222 223 222 220 222 225 225 227 229 233 233 233 231 232 231 232 234 236 236 237 236 236 236 235 237 240 239 238 238 239 239 240 240 242 243 238 235 227 225 218 219 217 215 214 214 213 211 210 212 215 216 
205 205 205 205 204 207 210 212 216 216 218 219 222 221 222 222 224 221 222 224 229 228 231 232 236 232 230 231 232 232 234 234 236 234 234 234 236 235 237 237 240 236 237 238 240 240 241 244 252 240 235 227 223 219 216 215 214 213 212 211 210 209 210 212 216 
205 205 205 206 206 207 206 208 208 212 212 215 216 219 220 220 219 219 220 221 222 228 228 229 229 231 232 231 231 232 231 233 231 229 230 230 232 234 233 232 232 232 235 236 236 239 240 241 237 237 235 226 227 221 219 216 215 212 211 209 209 207 208 210 211 
205 204 207 205 206 206 206 204 202 206 208 211 214 216 219 218 217 216 216 218 220 225 229 228 228 229 230 231 233 231 230 230 229 228 228 228 230 230 233 229 228 230 233 233 235 236 240 235 232 230 228 225 226 219 218 217 218 214 212 210 210 207 206 207 208 
202 201 203 204 205 205 203 202 202 203 205 210 211 213 214 216 215 213 216 217 219 224 224 228 228 230 230 233 232 230 230 229 228 226 226 226 225 226 225 225 226 227 227 230 231 233 231 230 229 225 224 220 217 213 216 216 217 215 212 209 209 208 206 205 205 
200 200 202 202 204 203 202 201 200 202 205 209 215 213 213 213 212 215 218 219 222 224 227 227 227 229 231 232 236 230 230 229 229 226 226 224 221 220 220 220 221 223 225 227 230 228 228 225 223 221 219 214 208 210 210 213 219 211 207 207 208 205 204 202 202 
198 198 198 200 200 201 201 201 201 202 204 209 208 213 213 212 214 217 218 222 222 226 226 228 228 228 229 231 229 227 229 228 227 225 224 223 221 216 216 215 217 221 223 226 224 224 223 222 222 219 217 212 213 209 207 208 205 206 207 205 204 203 202 200 199 
197 196 196 197 198 199 200 200 200 202 206 206 206 210 214 214 217 218 222 222 223 226 231 230 229 230 233 229 227 226 225 225 226 223 222 221 220 216 214 213 215 218 224 222 221 220 219 219 220 217 217 212 213 208 206 203 199 200 199 201 203 200 199 197 195 
196 196 196 197 197 199 198 199 200 203 202 203 206 209 210 214 214 216 218 221 223 227 227 232 233 233 230 228 229 226 224 223 222 221 221 219 217 214 214 211 212 214 216 220 220 218 217 215 216 215 213 209 209 204 203 199 198 197 197 198 198 198 197 195 193 
197 197 197 196 197 198 199 199 199 202 205 205 206 209 211 213 215 216 218 221 224 226 229 232 238 233 231 230 231 227 223 222 219 220 220 218 216 214 214 212 210 214 218 217 219 216 216 215 216 212 209 207 206 202 199 196 193 193 195 195 197 194 193 191 190 
198 199 197 195 196 197 197 199 200 204 204 207 208 211 212 215 214 217 218 221 221 224 225 229 228 231 233 232 231 229 228 224 224 222 220 219 218 215 216 215 215 215 214 214 214 214 214 214 213 211 209 205 204 200 198 195 194 190 190 192 191 190 190 189 187 
199 199 200 197 197 197 198 199 201 204 208 209 211 213 218 216 216 218 220 221 222 223 223 224 224 227 233 232 233 230 228 227 229 224 222 221 221 218 218 217 217 216 217 215 213 212 210 211 211 208 205 204 203 198 193 194 195 190 188 188 187 186 185 185 184 
198 198 197 197 197 197 198 198 200 205 206 212 213 215 214 215 217 219 220 222 225 226 223 220 221 223 225 231 231 230 229 228 228 226 225 222 221 221 220 219 218 218 217 217 216 214 212 211 208 205 206 203 201 197 196 193 192 189 190 187 185 183 183 182 181 
197 197 197 197 196 198 200 200 202 205 209 212 218 216 216 216 219 219 223 224 232 227 225 221 219 222 225 227 231 228 226 227 231 226 224 222 222 221 221 219 219 218 219 218 218 214 212 210 209 206 205 202 200 197 193 193 193 190 189 185 183 182 180 180 179 
197 197 199 200 199 199 199 202 202 206 207 211 211 215 216 217 217 217 218 221 222 226 226 223 223 221 220 224 224 226 226 226 225 225 224 222 222 220 221 220 218 216 217 218 217 215 213 209 209 207 206 203 202 198 197 194 192 189 188 184 185 183 182 181 180 
199 200 203 201 201 200 201 201 201 206 210 210 210 214 217 216 218 218 218 220 221 223 223 222 223 221 219 220 221 223 223 224 226 223 220 221 222 221 224 220 218 217 218 216 216 214 213 211 211 207 205 204 204 199 197 195 195 190 188 186 187 183 181 180 180 
202 203 201 201 201 201 201 203 205 208 207 210 211 214 213 215 218 220 219 220 220 222 221 222 221 221 221 219 221 223 222 223 224 223 223 222 220 219 219 219 219 216 217 215 215 214 214 212 210 208 207 204 202 198 198 194 194 191 189 186 185 184 183 181 180 
204 203 204 201 199 200 202 203 208 207 209 209 212 213 215 216 220 219 220 220 223 222 222 221 221 220 221 222 226 223 224 223 227 223 222 221 222 220 219 219 218 218 219 216 215 215 214 212 210 208 205 204 202 200 199 196 195 191 187 186 183 184 183 181 181 
204 204 204 202 201 198 199 200 202 205 205 205 207 212 212 215 215 218 218 220 220 222 222 222 221 220 220 222 221 222 222 221 221 220 222 221 221 220 220 220 221 222 220 218 219 218 216 214 213 210 209 205 203 201 200 198 196 191 191 188 188 187 185 182 182 
204 204 206 204 202 201 200 201 201 203 205 204 205 209 212 211 212 214 216 218 218 220 222 221 221 220 219 219 219 220 221 220 221 220 220 220 221 220 221 221 224 223 224 222 222 220 218 215 214 211 211 206 204 201 201 198 198 194 193 190 190 189 188 185 185 
206 205 206 207 206 204 203 203 203 203 203 203 205 207 206 208 210 213 214 218 219 221 220 222 221 220 219 217 217 218 218 219 218 219 219 219 219 221 222 222 224 225 225 225 224 222 219 216 215 212 210 206 204 200 200 197 197 194 194 191 192 192 190 188 186 
209 208 209 208 208 206 206 206 208 206 207 205 205 206 207 209 210 212 216 218 222 221 221 220 221 220 221 218 217 216 216 215 215 217 219 219 219 222 224 224 228 226 226 226 228 222 218 216 215 212 210 206 202 201 201 199 199 195 194 192 195 193 191 188 186 
209 209 209 208 207 207 208 208 208 207 208 206 207 207 208 211 210 212 214 218 217 220 220 219 220 220 220 218 218 214 214 213 215 217 218 221 221 224 223 225 226 227 228 227 224 220 221 218 217 212 211 208 207 203 201 200 197 194 193 190 192 194 193 189 187 
211 209 210 208 207 208 209 209 211 210 213 210 209 209 210 212 213 215 219 218 216 219 222 221 222 222 224 220 219 215 214 215 217 218 220 221 222 225 227 227 229 230 233 228 224 221 220 220 221 215 212 210 209 204 202 198 195 192 189 190 192 192 194 190 188 
211 209 210 210 209 209 208 209 209 209 211 212 212 210 212 215 216 219 218 220 221 221 220 222 222 222 221 219 219 216 216 217 217 219 220 223 224 227 226 228 230 232 230 228 227 222 223 222 221 218 216 212 209 203 203 198 195 191 191 191 191 191 191 189 187 
213 212 212 211 209 208 208 209 210 210 212 213 214 214 217 217 220 220 221 221 224 222 221 222 223 222 222 220 219 217 215 217 218 220 222 225 229 228 230 230 234 232 231 229 226 226 226 224 224 219 214 212 210 205 202 197 189 191 190 192 195 193 192 189 184 
215 215 214 213 211 208 210 212 211 212 212 214 214 217 216 216 217 220 221 222 222 223 224 224 223 223 223 222 222 220 219 220 220 223 224 226 225 227 229 231 230 232 231 231 231 231 229 226 225 221 219 215 214 208 206 200 201 196 194 195 194 195 194 191 189 
218 217 217 214 214 211 212 213 214 213 212 214 216 218 220 218 218 220 222 222 224 224 225 224 224 224 225 224 224 222 219 222 224 226 229 227 225 228 232 231 230 230 230 232 234 234 235 230 228 223 219 218 219 212 209 206 208 202 197 197 197 197 196 194 193 
221 220 218 215 215 213 215 217 217 217 216 215 217 220 220 221 221 222 222 223 225 227 225 225 225 225 225 226 227 226 226 226 226 229 227 229 229 230 229 231 229 228 231 234 235 236 235 233 232 227 224 219 218 214 214 210 211 208 206 200 201 200 198 198 196 
225 223 222 219 216 217 218 221 224 221 221 220 222 222 225 224 224 224 226 226 230 227 226 226 225 226 227 227 231 229 228 229 231 230 229 230 231 231 231 230 228 230 234 235 240 237 237 235 235 229 225 222 221 218 215 215 219 212 209 206 207 203 200 199 199 
227 226 225 224 223 222 222 225 222 222 224 224 224 224 226 228 227 225 226 228 227 227 229 228 227 227 227 227 228 231 231 231 231 233 233 233 232 234 233 232 232 233 232 234 235 238 239 238 236 231 229 223 224 222 220 219 217 215 214 208 208 207 205 201 200 
232 229 228 226 227 226 228 227 226 227 228 227 227 229 233 232 230 229 228 229 229 229 232 230 229 228 229 228 230 231 232 232 233 233 235 234 235 234 235 234 234 234 235 235 236 239 241 239 238 232 227 226 228 223 221 221 221 217 214 211 211 208 206 202 200 
235 233 231 228 228 227 229 232 233 233 231 231 231 233 234 238 237 234 232 232 230 230 231 232 232 230 229 228 231 233 232 233 232 231 232 234 234 233 235 236 236 236 236 238 239 242 240 240 240 234 233 226 225 223 225 224 223 220 218 214 213 210 208 204 202 
241 235 231 229 229 230 232 235 241 236 234 234 234 237 240 241 246 238 234 233 233 232 234 233 234 231 230 230 234 233 233 233 235 232 232 233 235 235 237 236 238 237 239 240 243 242 244 243 247 238 234 229 226 225 225 224 227 222 219 216 215 212 210 205 203 
237 235 235 231 233 233 232 235 234 236 239 238 239 242 240 242 240 240 240 236 234 232 233 232 232 230 231 231 231 232 231 231 231 232 232 231 233 235 235 235 236 235 237 240 239 241 241 242 239 237 237 231 231 227 225 223 224 223 222 219 218 214 212 206 205 
236 235 235 235 238 234 232 235 236 237 241 241 245 244 245 242 240 239 240 236 236 234 236 233 233 231 232 231 231 230 229 229 229 231 232 232 234 235 236 236 237 236 236 237 238 239 241 238 236 234 233 232 233 228 226 226 225 224 222 220 220 216 213 210 208 
236 234 235 237 236 234 236 237 236 237 239 242 244 244 244 243 242 237 236 235 235 234 234 233 233 232 232 232 230 229 229 229 230 232 231 233 234 235 235 236 236 236 236 237 237 236 236 235 234 230 231 231 230 229 230 230 229 226 225 222 220 218 217 213 212 
238 236 235 237 240 237 236 238 240 239 242 243 249 246 246 244 243 238 235 234 232 233 234 233 232 232 232 231 230 228 227 229 232 232 233 234 236 234 236 236 238 236 235 237 240 236 235 232 230 230 230 230 229 229 229 231 237 230 228 224 220 219 218 216 216 
237 237 238 239 238 239 239 239 238 240 240 242 242 246 247 246 244 240 238 235 235 234 233 233 233 232 232 232 230 228 227 228 228 231 232 234 232 232 234 235 235 236 236 236 234 235 233 231 232 231 230 230 229 229 229 231 231 232 231 227 226 222 220 219 218 
237 237 238 238 239 239 241 240 240 239 238 240 240 244 248 245 244 240 236 236 238 236 235 233 233 232 233 232 231 228 225 227 229 230 232 232 232 232 233 234 235 234 234 234 232 231 229 231 233 231 231 229 228 227 227 230 232 231 231 228 228 224 222 221 221 
235 236 236 237 238 240 239 241 240 238 240 241 241 243 242 244 243 240 240 238 237 237 235 232 232 232 232 232 230 228 228 228 227 228 229 230 232 233 232 234 234 233 234 234 233 231 231 231 231 231 230 229 228 226 228 231 232 232 229 227 227 225 225 224 224 
234 234 235 236 239 238 239 240 241 240 242 242 245 242 242 242 242 239 238 238 240 237 236 233 232 232 232 231 230 229 228 228 229 229 231 231 233 232 232 234 238 234 235 234 235 231 230 231 233 230 227 227 227 227 230 232 238 230 227 225 225 224 224 225 227 
232 231 233 236 235 237 238 240 239 240 242 243 242 240 241 240 238 237 238 239 238 238 236 234 234 234 233 232 231 230 229 227 229 230 230 232 232 231 232 234 232 231 232 232 232 231 232 232 230 230 228 226 226 225 226 230 227 226 227 222 224 223 223 225 225 
232 230 231 233 235 236 236 238 240 240 245 242 243 241 241 238 236 236 235 237 239 237 235 234 235 235 236 233 230 230 229 229 231 231 232 232 234 232 233 233 233 231 229 230 231 230 231 230 231 228 226 226 227 225 224 225 224 223 223 222 224 222 222 222 224 
229 228 231 233 233 236 236 238 237 237 238 239 241 241 239 236 236 236 236 237 237 237 236 234 235 235 234 234 233 231 230 231 232 233 233 233 234 233 233 233 233 232 231 229 228 228 229 229 229 228 227 226 226 225 224 223 222 220 221 221 219 220 220 219 221 
228 229 231 232 235 234 235 236 237 236 237 238 242 239 237 235 233 235 236 236 240 237 237 236 237 235 235 233 232 231 231 232 236 234 235 235 240 235 235 234 234 231 230 228 229 228 229 228 228 226 224 225 228 224 221 221 223 220 220 217 215 217 218 219 221 
228 229 230 232 231 231 233 235 235 236 235 236 236 238 237 234 234 235 234 234 235 237 237 236 235 235 234 233 232 232 231 232 232 233 233 235 234 235 236 234 232 229 229 227 228 229 228 227 226 224 224 224 223 222 221 220 219 219 218 215 217 215 216 218 219 
228 229 232 231 231 231 232 233 234 233 233 234 235 235 235 232 233 233 236 234 235 236 237 235 235 233 234 232 231 231 230 231 232 231 231 232 231 233 235 233 233 229 228 228 229 227 227 225 225 222 222 222 223 220 217 218 219 217 216 216 218 216 217 217 218 
228 228 229 230 232 233 231 231 233 232 233 234 234 234 231 229 228 228 231 232 234 235 234 235 233 231 232 232 232 232 231 232 232 231 232 232 232 233 231 231 229 228 228 228 227 226 225 224 222 220 221 220 220 218 219 216 216 215 216 215 215 214 216 217 217 
230 230 232 232 234 233 232 233 237 234 233 234 237 233 229 226 221 226 231 232 234 234 234 233 231 231 233 232 231 231 232 233 236 233 233 232 233 232 231 229 225 226 226 226 226 225 224 222 220 220 222 221 222 220 220 218 218 216 217 216 217 215 215 216 218 
