991 994 994 1000 1000 1000 1000 1000 1000 1000 1000 1000 1000 1000 1000 1000 1000 1000 1000 1000 1000 1000 1000 1000 1000 1000 1000 1000 1000 1000 1000 1000 1000 1000 1000 1000 1000 1000 1000 1000 1000 1000 1000 1000 1000 1000 1000 1000 1000 1000 1000 1000 1000 1000 1000 1000 1000 1000 1000 1000 1000 1000 1000 1000 1000 1000 1000 1000 1000 1000 1000 1000 1000 1000 1000 1000 1000 1000 1000 1000 1000 1000 1000 1000 1000 1000 1000 1000 1000 1000 1000 1000 1000 1000 1000 1000 1000 1000 1000 1000 1000 1000 1000 1000 1000 1000 1000 1000 1000 1000 1000 1000 1000 1000 1000 1000 1000 1000 1000 1000 1000 1000 1000 1000 1000 1000 1000 1000 1000 1000 1000 1000 1000 1000 1000 1000 1000 1000 1000 1000 1000 1000 1000 1000 1000 1000 1000 1000 1000 1000 1000 1000 1000 1000 1000 1000 1000 1000 1000 1000 1000 1000 1000 1000 1000 1000 1000 1000 1000 1000 1000 1000 1000 1000 1000 1000 1000 1000 1000 1000 1000 1000 1000 1000 1000 1000 1000 1000 1000 1000 1000 1000 1000 1000 1000 1000 1000 1000 1000 1000 1000 1000 1000 1000 1000 1000 1000 1000 1000 1000 1000 1000 1000 1000 1000 1000 1000 1000 1000 1000 1000 1000 1000 1000 1000 1000 991 944 940 903 897 901 893 881 887 869 845 808 799 775 755 695 680 624 628 588 558 533 532 520 503 467 447 399 380 348 345 320 293 221 221 171 153 159 144 144 148 134 132 122 116 95 101 81 72 53 37 4 -3 -19 -26 -58 -62 -91 -102 -141 -157 -195 -210 -266 -277 -348 -345 -401 -421 -447 -462 -488 -496 -524 -528 -553 -556 -554 -572 -596 -605 -618 -624 -644 -647 -675 -678 -692 -701 -729 -729 -732 -736 -750 -750 -769 -777 -795 -793 -802 -815 -832 -833 -856 -857 -863 -861 -856 -847 -849 -843 -835 -828 -813 -803 -770 -758 -747 -736 -722 -730 -717 -721 -714 -711 -708 -709 -710 -702 -701 -692 -689 -675 -670 -664 -640 -651 -661 -651 -657 -650 -638 -614 -586 -575 -536 -535 -512 -500 -476 -479 -459 -460 -463 -464 -483 -484 -510 -512 -551 -564 -594 -605 -632 -648 -651 -660 -665 -663 -691 -700 -717 -718 -724 -726 -721 -711 -707 -716 -724 -730 -754 -741 -751 -759 -771 -751 -739 -744 -737 -737 -729 -716 -718 -714 -715 -716 -709 -711 -714 -727 -726 -724 -723 -728 -727 -738 -738 -735 -735 -754 -776 -785 -814 -819 -844 -844 -844 -843 -843 -849 -846 -824 -801 -786 -736 -736 -696 -681 -669 -656 -631 -633 -633 -631 -624 -628 -631 -618 -619 -629 -629 -637 -659 -655 -646 -641 -629 -614 -597 -597 -587 -582 -576 -585 -601 -617 -643 -636 -648 -656 -672 -678 -698 -703 -711 -713 -717 -728 -738 -741 -752 -756 -787 -813 -865 -884 -931 -931 -942 -954 -953 -956 -962 -962 -969 -980
984 988 987 995 998 1000 1000 1000 1000 1000 1000 1000 1000 1000 1000 1000 1000 1000 1000 1000 1000 1000 1000 1000 1000 1000 1000 1000 1000 1000 1000 1000 1000 1000 1000 1000 1000 1000 1000 1000 1000 1000 1000 1000 1000 1000 1000 1000 1000 1000 1000 1000 1000 1000 1000 1000 1000 1000 1000 1000 1000 1000 1000 1000 1000 1000 1000 1000 1000 1000 1000 1000 1000 1000 1000 1000 1000 1000 1000 1000 1000 1000 1000 1000 1000 1000 1000 1000 1000 1000 1000 1000 1000 1000 1000 1000 1000 1000 1000 1000 1000 1000 1000 1000 1000 1000 1000 1000 1000 1000 1000 1000 1000 1000 1000 1000 1000 1000 1000 1000 1000 1000 1000 1000 1000 1000 1000 1000 1000 1000 1000 1000 1000 1000 1000 1000 1000 1000 1000 1000 1000 1000 1000 1000 1000 1000 1000 1000 1000 1000 1000 1000 1000 1000 1000 1000 1000 1000 1000 1000 1000 1000 1000 1000 1000 1000 1000 1000 1000 1000 1000 1000 1000 1000 1000 1000 1000 1000 1000 1000 1000 1000 1000 1000 1000 1000 1000 1000 1000 1000 1000 1000 1000 1000 1000 1000 1000 1000 1000 1000 1000 1000 1000 1000 1000 1000 1000 1000 1000 1000 1000 1000 1000 1000 1000 1000 1000 1000 1000 1000 1000 1000 1000 1000 1000 1000 996 980 982 944 921 916 906 898 903 869 842 811 781 780 774 720 674 651 656 596 550 540 532 507 478 457 442 390 345 338 334 295 258 227 220 163 109 108 94 99 105 101 105 95 87 87 90 71 51 32 13 -8 -30 -31 -35 -62 -83 -103 -122 -158 -193 -214 -234 -281 -330 -340 -338 -400 -446 -466 -483 -513 -542 -544 -538 -557 -556 -572 -581 -613 -646 -641 -639 -662 -678 -702 -716 -736 -746 -751 -749 -755 -751 -760 -766 -791 -818 -814 -812 -826 -843 -840 -835 -858 -868 -878 -884 -876 -865 -870 -874 -860 -862 -838 -827 -789 -754 -749 -742 -734 -725 -734 -746 -739 -733 -733 -733 -725 -716 -712 -705 -687 -668 -672 -676 -668 -674 -669 -663 -659 -660 -639 -617 -589 -559 -544 -545 -526 -521 -498 -488 -476 -475 -479 -481 -497 -521 -521 -521 -555 -579 -605 -620 -649 -667 -680 -686 -691 -685 -702 -713 -731 -746 -742 -739 -735 -726 -732 -744 -753 -774 -761 -748 -760 -774 -762 -751 -740 -726 -735 -741 -732 -718 -713 -705 -707 -707 -707 -704 -709 -722 -722 -727 -727 -730 -739 -748 -744 -740 -753 -769 -791 -817 -830 -836 -857 -871 -874 -876 -878 -891 -878 -863 -833 -804 -787 -778 -734 -697 -694 -678 -663 -654 -648 -652 -644 -647 -642 -637 -643 -657 -650 -653 -663 -678 -665 -661 -638 -616 -613 -619 -606 -597 -597 -597 -617 -639 -634 -627 -646 -664 -676 -685 -705 -723 -722 -721 -723 -722 -736 -746 -762 -773 -807 -827 -884 -930 -951 -959 -974 -980 -981 -984 -987 -995 -1000 -1000
981 989 985 993 1000 1000 1000 1000 1000 1000 1000 1000 1000 1000 1000 1000 1000 1000 1000 1000 1000 1000 1000 1000 1000 1000 1000 1000 1000 1000 1000 1000 1000 1000 1000 1000 1000 1000 1000 1000 1000 1000 1000 1000 1000 1000 1000 1000 1000 1000 1000 1000 1000 1000 1000 1000 1000 1000 1000 1000 1000 1000 1000 1000 1000 1000 1000 1000 1000 1000 1000 1000 1000 1000 1000 1000 1000 1000 1000 1000 1000 1000 1000 1000 1000 1000 1000 1000 1000 1000 1000 1000 1000 1000 1000 1000 1000 1000 1000 1000 1000 1000 1000 1000 1000 1000 1000 1000 1000 1000 1000 1000 1000 1000 1000 1000 1000 1000 1000 1000 1000 1000 1000 1000 1000 1000 1000 1000 1000 1000 1000 1000 1000 1000 1000 1000 1000 1000 1000 1000 1000 1000 1000 1000 1000 1000 1000 1000 1000 1000 1000 1000 1000 1000 1000 1000 1000 1000 1000 1000 1000 1000 1000 1000 1000 1000 1000 1000 1000 1000 1000 1000 1000 1000 1000 1000 1000 1000 1000 1000 1000 1000 1000 1000 1000 1000 1000 1000 1000 1000 1000 1000 1000 1000 1000 1000 1000 1000 1000 1000 1000 1000 1000 1000 1000 1000 1000 1000 1000 1000 1000 1000 1000 1000 1000 1000 1000 1000 1000 1000 1000 1000 1000 1000 1000 1000 1000 998 988 970 960 938 924 905 888 864 853 814 812 792 780 738 714 653 636 590 589 546 533 500 482 442 422 376 366 326 311 269 259 210 190 152 136 73 66 53 58 62 63 69 70 77 73 65 45 11 1 -22 -21 -40 -50 -73 -86 -119 -143 -177 -193 -235 -259 -297 -307 -347 -376 -418 -432 -491 -508 -541 -546 -573 -580 -582 -582 -597 -596 -631 -632 -663 -677 -687 -706 -740 -765 -791 -775 -782 -785 -791 -779 -775 -779 -812 -814 -834 -840 -849 -848 -851 -863 -875 -880 -897 -897 -899 -900 -893 -884 -870 -868 -853 -843 -807 -796 -755 -746 -748 -750 -750 -752 -765 -760 -758 -757 -744 -744 -728 -712 -689 -693 -675 -679 -682 -680 -678 -674 -657 -655 -644 -625 -595 -578 -537 -536 -527 -525 -509 -505 -484 -494 -497 -500 -505 -513 -534 -546 -569 -583 -629 -646 -677 -683 -716 -725 -728 -720 -719 -730 -748 -746 -761 -755 -756 -752 -754 -759 -771 -766 -770 -772 -767 -758 -753 -758 -745 -744 -739 -738 -743 -730 -711 -706 -701 -704 -711 -702 -697 -706 -716 -719 -730 -741 -754 -756 -752 -760 -768 -775 -803 -815 -853 -867 -877 -885 -907 -901 -904 -904 -914 -902 -865 -863 -831 -812 -766 -765 -734 -715 -692 -680 -653 -652 -653 -656 -655 -658 -659 -657 -662 -662 -662 -671 -676 -669 -648 -643 -621 -617 -621 -619 -619 -618 -631 -619 -627 -633 -646 -657 -684 -694 -715 -718 -736 -739 -735 -743 -740 -748 -777 -800 -842 -855 -916 -926 -985 -1000 -1000 -1000 -1000 -1000 -1000 -1000 -1000 -1000
971 978 977 995 1000 1000 1000 1000 1000 1000 1000 1000 1000 1000 1000 1000 1000 1000 1000 1000 1000 1000 1000 1000 1000 1000 1000 1000 1000 1000 1000 1000 1000 1000 1000 1000 1000 1000 1000 1000 1000 1000 1000 1000 1000 1000 1000 1000 1000 1000 1000 1000 1000 1000 1000 1000 1000 1000 1000 1000 1000 1000 1000 1000 1000 1000 1000 1000 1000 1000 1000 1000 1000 1000 1000 1000 1000 1000 1000 1000 1000 1000 1000 1000 1000 1000 1000 1000 1000 1000 1000 1000 1000 1000 1000 1000 1000 1000 1000 1000 1000 1000 1000 1000 1000 1000 1000 1000 1000 1000 1000 1000 1000 1000 1000 1000 1000 1000 1000 1000 1000 1000 1000 1000 1000 1000 1000 1000 1000 1000 1000 1000 1000 1000 1000 1000 1000 1000 1000 1000 1000 1000 1000 1000 1000 1000 1000 1000 1000 1000 1000 1000 1000 1000 1000 1000 1000 1000 1000 1000 1000 1000 1000 1000 1000 1000 1000 1000 1000 1000 1000 1000 1000 1000 1000 1000 1000 1000 1000 1000 1000 1000 1000 1000 1000 1000 1000 1000 1000 1000 1000 1000 1000 1000 1000 1000 1000 1000 1000 1000 1000 1000 1000 1000 1000 1000 1000 1000 1000 1000 1000 1000 1000 1000 1000 1000 1000 1000 1000 1000 1000 1000 1000 1000 1000 1000 1000 1000 989 972 951 945 934 904 879 855 832 815 802 799 812 746 694 664 630 597 566 546 538 499 455 432 395 358 322 310 304 264 223 188 141 130 99 68 31 33 23 28 18 30 29 43 65 40 14 -3 -34 -31 -38 -44 -59 -83 -117 -144 -194 -205 -241 -263 -312 -322 -353 -374 -410 -444 -481 -507 -554 -563 -588 -602 -625 -617 -612 -613 -601 -638 -656 -681 -713 -730 -758 -792 -851 -820 -813 -816 -822 -815 -804 -805 -781 -826 -846 -853 -861 -871 -882 -879 -886 -899 -913 -917 -924 -922 -924 -917 -911 -889 -876 -864 -850 -827 -798 -770 -727 -756 -760 -769 -770 -776 -774 -783 -795 -778 -774 -752 -718 -710 -705 -699 -692 -697 -687 -690 -689 -668 -656 -634 -604 -594 -563 -547 -523 -529 -521 -515 -508 -504 -508 -511 -526 -527 -535 -542 -562 -586 -615 -649 -702 -701 -722 -745 -791 -761 -750 -755 -771 -768 -764 -767 -758 -765 -762 -770 -787 -781 -782 -777 -779 -774 -767 -765 -762 -749 -742 -741 -747 -736 -727 -710 -694 -700 -699 -701 -695 -697 -707 -714 -711 -737 -753 -766 -788 -772 -774 -778 -791 -809 -837 -865 -924 -906 -920 -919 -924 -921 -925 -930 -940 -908 -895 -872 -849 -811 -782 -766 -739 -717 -697 -677 -651 -658 -664 -667 -673 -673 -671 -674 -667 -680 -693 -685 -674 -659 -642 -627 -610 -620 -618 -623 -627 -627 -621 -628 -622 -651 -674 -692 -713 -724 -739 -752 -762 -768 -777 -765 -755 -796 -837 -860 -891 -935 -977 -1000 -1000 -1000 -1000 -1000 -1000 -1000 -1000 -1000 -1000
974 976 983 1000 1000 1000 1000 1000 1000 1000 1000 1000 1000 1000 1000 1000 1000 1000 1000 1000 1000 1000 1000 1000 1000 1000 1000 1000 1000 1000 1000 1000 1000 1000 1000 1000 1000 1000 1000 1000 1000 1000 1000 1000 1000 1000 1000 1000 1000 1000 1000 1000 1000 1000 1000 1000 1000 1000 1000 1000 1000 1000 1000 1000 1000 1000 1000 1000 1000 1000 1000 1000 1000 1000 1000 1000 1000 1000 1000 1000 1000 1000 1000 1000 1000 1000 1000 1000 1000 1000 1000 1000 1000 1000 1000 1000 1000 1000 1000 1000 1000 1000 1000 1000 1000 1000 1000 1000 1000 1000 1000 1000 1000 1000 1000 1000 1000 1000 1000 1000 1000 1000 1000 1000 1000 1000 1000 1000 1000 1000 1000 1000 1000 1000 1000 1000 1000 1000 1000 1000 1000 1000 1000 1000 1000 1000 1000 1000 1000 1000 1000 1000 1000 1000 1000 1000 1000 1000 1000 1000 1000 1000 1000 1000 1000 1000 1000 1000 1000 1000 1000 1000 1000 1000 1000 1000 1000 1000 1000 1000 1000 1000 1000 1000 1000 1000 1000 1000 1000 1000 1000 1000 1000 1000 1000 1000 1000 1000 1000 1000 1000 1000 1000 1000 1000 1000 1000 1000 1000 1000 1000 1000 1000 1000 1000 1000 1000 1000 1000 1000 1000 1000 1000 1000 1000 1000 1000 1000 1000 978 971 958 939 901 882 846 841 812 805 791 775 743 734 682 661 602 578 534 533 503 482 437 410 342 328 289 288 260 233 180 175 131 104 69 65 25 11 10 5 4 3 4 6 17 12 -6 -11 -31 -34 -40 -59 -86 -106 -146 -163 -210 -234 -265 -278 -326 -347 -389 -411 -470 -475 -505 -516 -571 -595 -623 -627 -649 -646 -644 -654 -664 -666 -695 -715 -762 -782 -821 -802 -825 -849 -850 -850 -845 -857 -861 -862 -867 -861 -873 -878 -895 -888 -898 -908 -925 -930 -934 -938 -943 -942 -943 -927 -902 -902 -877 -877 -853 -841 -801 -812 -791 -783 -798 -789 -797 -793 -805 -798 -802 -803 -790 -773 -731 -729 -725 -730 -728 -714 -706 -686 -673 -656 -634 -637 -615 -598 -566 -561 -546 -532 -525 -525 -519 -516 -513 -524 -542 -535 -539 -560 -600 -617 -651 -660 -705 -722 -754 -747 -777 -785 -781 -784 -792 -793 -788 -787 -787 -775 -778 -778 -786 -785 -777 -785 -784 -784 -779 -762 -748 -746 -739 -735 -729 -723 -708 -711 -709 -701 -699 -697 -691 -703 -725 -732 -757 -756 -772 -765 -775 -780 -782 -787 -807 -815 -847 -859 -904 -919 -925 -927 -932 -936 -941 -938 -934 -934 -915 -896 -850 -848 -809 -791 -743 -734 -708 -692 -665 -670 -678 -680 -690 -686 -696 -696 -698 -693 -697 -692 -673 -663 -637 -645 -634 -628 -631 -630 -631 -634 -644 -646 -662 -670 -698 -702 -729 -743 -773 -777 -801 -795 -788 -803 -818 -834 -871 -892 -956 -968 -1000 -1000 -1000 -1000 -1000 -1000 -1000 -1000 -1000 -1000
977 976 982 998 1000 1000 1000 1000 1000 1000 1000 1000 1000 1000 1000 1000 1000 1000 1000 1000 1000 1000 1000 1000 1000 1000 1000 1000 1000 1000 1000 1000 1000 1000 1000 1000 1000 1000 1000 1000 1000 1000 1000 1000 1000 1000 1000 1000 1000 1000 1000 1000 1000 1000 1000 1000 1000 1000 1000 1000 1000 1000 1000 1000 1000 1000 1000 1000 1000 1000 1000 1000 1000 1000 1000 1000 1000 1000 1000 1000 1000 1000 1000 1000 1000 1000 1000 1000 1000 1000 1000 1000 1000 1000 1000 1000 1000 1000 1000 1000 1000 1000 1000 1000 1000 1000 1000 1000 1000 1000 1000 1000 1000 1000 1000 1000 1000 1000 1000 1000 1000 1000 1000 1000 1000 1000 1000 1000 1000 1000 1000 1000 1000 1000 1000 1000 1000 1000 1000 1000 1000 1000 1000 1000 1000 1000 1000 1000 1000 1000 1000 1000 1000 1000 1000 1000 1000 1000 1000 1000 1000 1000 1000 1000 1000 1000 1000 1000 1000 1000 1000 1000 1000 1000 1000 1000 1000 1000 1000 1000 1000 1000 1000 1000 1000 1000 1000 1000 1000 1000 1000 1000 1000 1000 1000 1000 1000 1000 1000 1000 1000 1000 1000 1000 1000 1000 1000 1000 1000 1000 1000 1000 1000 1000 1000 1000 1000 1000 1000 1000 1000 1000 1000 1000 1000 1000 1000 1000 1000 983 961 957 947 900 847 834 829 799 785 776 766 730 700 677 666 601 546 534 529 490 452 421 406 335 287 278 283 235 190 171 167 121 78 70 70 26 -22 -11 -16 -17 -14 -16 -24 -16 -25 -22 -21 -31 -31 -53 -74 -101 -134 -162 -181 -226 -267 -278 -280 -331 -361 -400 -433 -475 -517 -509 -510 -572 -632 -640 -650 -665 -669 -678 -696 -702 -706 -730 -747 -790 -832 -819 -804 -836 -873 -879 -892 -887 -902 -907 -918 -914 -925 -915 -900 -908 -899 -916 -928 -949 -976 -965 -965 -965 -959 -955 -941 -929 -921 -906 -904 -881 -862 -854 -860 -835 -819 -812 -804 -807 -801 -814 -811 -821 -828 -811 -800 -768 -744 -750 -762 -744 -733 -710 -678 -660 -631 -638 -646 -626 -609 -580 -569 -546 -534 -536 -538 -530 -525 -533 -534 -542 -533 -550 -567 -610 -658 -664 -670 -700 -728 -730 -736 -764 -793 -792 -813 -810 -821 -811 -810 -797 -779 -787 -787 -798 -791 -791 -797 -797 -796 -773 -754 -743 -735 -737 -732 -719 -711 -701 -700 -703 -703 -702 -700 -706 -703 -725 -742 -759 -785 -774 -762 -772 -778 -782 -785 -803 -817 -838 -851 -895 -924 -929 -932 -936 -947 -950 -953 -952 -949 -934 -927 -895 -884 -850 -833 -778 -746 -717 -698 -682 -688 -684 -688 -690 -688 -706 -720 -714 -713 -711 -708 -689 -670 -659 -669 -652 -640 -641 -640 -639 -637 -648 -657 -673 -698 -703 -707 -733 -758 -780 -796 -813 -830 -821 -831 -850 -892 -899 -905 -961 -1000 -1000 -994 -1000 -1000 -1000 -1000 -1000 -1000 -1000 -1000
975 970 984 1000 1000 1000 1000 1000 1000 1000 1000 1000 1000 1000 1000 1000 1000 1000 1000 1000 1000 1000 1000 1000 1000 1000 1000 1000 1000 1000 1000 1000 1000 1000 1000 1000 1000 1000 1000 1000 1000 1000 1000 1000 1000 1000 1000 1000 1000 1000 1000 1000 1000 1000 1000 1000 1000 1000 1000 1000 1000 1000 1000 1000 1000 1000 1000 1000 1000 1000 1000 1000 1000 1000 1000 1000 1000 1000 1000 1000 1000 1000 1000 1000 1000 1000 1000 1000 1000 1000 1000 1000 1000 1000 1000 1000 1000 1000 1000 1000 1000 1000 1000 1000 1000 1000 1000 1000 1000 1000 1000 1000 1000 1000 1000 1000 1000 1000 1000 1000 1000 1000 1000 1000 1000 1000 1000 1000 1000 1000 1000 1000 1000 1000 1000 1000 1000 1000 1000 1000 1000 1000 1000 1000 1000 1000 1000 1000 1000 1000 1000 1000 1000 1000 1000 1000 1000 1000 1000 1000 1000 1000 1000 1000 1000 1000 1000 1000 1000 1000 1000 1000 1000 1000 1000 1000 1000 1000 1000 1000 1000 1000 1000 1000 1000 1000 1000 1000 1000 1000 1000 1000 1000 1000 1000 1000 1000 1000 1000 1000 1000 1000 1000 1000 1000 1000 1000 1000 1000 1000 1000 1000 1000 1000 1000 1000 1000 1000 1000 1000 1000 1000 1000 1000 1000 1000 1000 1000 994 983 977 963 945 905 874 814 795 770 780 764 752 711 702 661 640 593 584 528 519 477 449 391 365 308 300 255 242 209 196 149 137 111 101 64 54 31 19 -17 -36 -44 -34 -30 -39 -35 -37 -38 -39 -42 -49 -67 -77 -112 -138 -189 -209 -249 -265 -303 -317 -358 -367 -417 -440 -483 -486 -507 -530 -575 -594 -656 -672 -695 -691 -706 -715 -744 -750 -773 -786 -819 -808 -820 -833 -843 -861 -901 -897 -912 -926 -949 -945 -946 -956 -964 -955 -938 -934 -940 -946 -970 -971 -985 -998 -993 -986 -977 -973 -954 -942 -924 -928 -908 -903 -894 -884 -871 -854 -828 -836 -826 -835 -842 -843 -844 -833 -828 -821 -797 -794 -772 -771 -754 -746 -723 -702 -658 -661 -641 -641 -637 -613 -576 -563 -537 -552 -550 -549 -541 -552 -560 -554 -560 -555 -564 -577 -618 -630 -679 -692 -698 -693 -702 -716 -753 -758 -783 -799 -814 -817 -828 -822 -812 -814 -804 -818 -829 -813 -800 -805 -812 -793 -764 -760 -735 -744 -744 -727 -707 -707 -688 -695 -703 -710 -708 -721 -732 -727 -733 -734 -755 -756 -778 -778 -774 -775 -785 -791 -804 -811 -840 -858 -901 -900 -936 -932 -933 -946 -962 -969 -975 -960 -945 -947 -920 -904 -876 -851 -790 -777 -718 -701 -679 -682 -683 -688 -696 -707 -723 -725 -725 -728 -727 -722 -705 -694 -663 -663 -666 -663 -654 -654 -651 -650 -654 -648 -675 -680 -709 -714 -740 -756 -795 -806 -827 -824 -835 -841 -860 -884 -929 -949 -973 -974 -1000 -1000 -1000 -1000 -1000 -1000 -1000 -1000 -1000 -1000
978 975 985 996 1000 1000 1000 1000 1000 1000 1000 1000 1000 1000 1000 1000 1000 1000 1000 1000 1000 1000 1000 1000 1000 1000 1000 1000 1000 1000 1000 1000 1000 1000 1000 1000 1000 1000 1000 1000 1000 1000 1000 1000 1000 1000 1000 1000 1000 1000 1000 1000 1000 1000 1000 1000 1000 1000 1000 1000 1000 1000 1000 1000 1000 1000 1000 1000 1000 1000 1000 1000 1000 1000 1000 1000 1000 1000 1000 1000 1000 1000 1000 1000 1000 1000 1000 1000 1000 1000 1000 1000 1000 1000 1000 1000 1000 1000 1000 1000 1000 1000 1000 1000 1000 1000 1000 1000 1000 1000 1000 1000 1000 1000 1000 1000 1000 1000 1000 1000 1000 1000 1000 1000 1000 1000 1000 1000 1000 1000 1000 1000 1000 1000 1000 1000 1000 1000 1000 1000 1000 1000 1000 1000 1000 1000 1000 1000 1000 1000 1000 1000 1000 1000 1000 1000 1000 1000 1000 1000 1000 1000 1000 1000 1000 1000 1000 1000 1000 1000 1000 1000 1000 1000 1000 1000 1000 1000 1000 1000 1000 1000 1000 1000 1000 1000 1000 1000 1000 1000 1000 1000 1000 1000 1000 1000 1000 1000 1000 1000 1000 1000 1000 1000 1000 1000 1000 1000 1000 1000 1000 1000 1000 1000 1000 1000 1000 1000 1000 1000 1000 1000 1000 1000 1000 1000 1000 1000 970 965 952 949 954 890 832 798 750 763 759 751 749 707 671 646 609 582 551 532 528 459 400 360 309 272 232 220 220 176 144 123 98 85 63 53 45 21 -8 -29 -62 -50 -47 -59 -78 -61 -53 -53 -53 -60 -66 -88 -100 -141 -180 -216 -264 -288 -327 -334 -340 -376 -414 -446 -502 -509 -521 -524 -522 -588 -636 -668 -707 -704 -716 -727 -744 -765 -790 -810 -849 -836 -849 -841 -838 -869 -898 -903 -904 -933 -953 -974 -984 -988 -997 -995 -995 -975 -959 -968 -976 -987 -1000 -1000 -1000 -1000 -1000 -1000 -1000 -973 -952 -952 -962 -927 -906 -906 -909 -879 -858 -859 -872 -864 -869 -872 -887 -867 -850 -842 -834 -824 -810 -805 -815 -776 -746 -727 -696 -685 -670 -662 -658 -631 -596 -574 -532 -549 -555 -561 -573 -567 -569 -573 -573 -568 -563 -575 -593 -623 -656 -687 -735 -708 -702 -697 -684 -734 -760 -778 -809 -808 -814 -824 -829 -826 -830 -837 -863 -845 -838 -825 -817 -813 -799 -780 -748 -753 -746 -739 -723 -714 -702 -693 -681 -708 -729 -732 -743 -742 -744 -739 -746 -747 -749 -761 -776 -780 -780 -790 -799 -808 -818 -841 -875 -898 -915 -926 -935 -947 -959 -976 -992 -984 -969 -965 -975 -929 -894 -870 -855 -803 -767 -718 -661 -675 -669 -677 -688 -703 -721 -736 -766 -748 -742 -740 -745 -721 -700 -682 -653 -667 -665 -669 -673 -660 -656 -652 -627 -664 -679 -698 -712 -747 -783 -805 -845 -837 -839 -841 -841 -881 -918 -953 -1000 -993 -1000 -1000 -998 -1000 -1000 -1000 -1000 -1000 -1000 -1000 -1000
960 967 974 982 980 990 996 1000 1000 1000 1000 1000 1000 1000 1000 1000 1000 1000 1000 1000 1000 1000 1000 1000 1000 1000 1000 1000 1000 1000 1000 1000 1000 1000 1000 1000 1000 1000 1000 1000 1000 1000 1000 1000 1000 1000 1000 1000 1000 1000 1000 1000 1000 1000 1000 1000 1000 1000 1000 1000 1000 1000 1000 1000 1000 1000 1000 1000 1000 1000 1000 1000 1000 1000 1000 1000 1000 1000 1000 1000 1000 1000 1000 1000 1000 1000 1000 1000 1000 1000 1000 1000 1000 1000 1000 1000 1000 1000 1000 1000 1000 1000 1000 1000 1000 1000 1000 1000 1000 1000 1000 1000 1000 1000 1000 1000 1000 1000 1000 1000 1000 1000 1000 1000 1000 1000 1000 1000 1000 1000 1000 1000 1000 1000 1000 1000 1000 1000 1000 1000 1000 1000 1000 1000 1000 1000 1000 1000 1000 1000 1000 1000 1000 1000 1000 1000 1000 1000 1000 1000 1000 1000 1000 1000 1000 1000 1000 1000 1000 1000 1000 1000 1000 1000 1000 1000 1000 1000 1000 1000 1000 1000 1000 1000 1000 1000 1000 1000 1000 1000 1000 1000 1000 1000 1000 1000 1000 1000 1000 1000 1000 1000 1000 1000 1000 1000 1000 1000 1000 1000 1000 1000 1000 1000 1000 1000 1000 1000 1000 1000 1000 1000 1000 1000 1000 1000 1000 1000 1000 958 944 928 908 871 860 798 809 774 753 733 725 699 689 643 628 576 557 524 491 434 414 342 322 241 220 175 158 132 130 101 102 71 60 43 39 18 9 -31 -27 -50 -67 -83 -76 -80 -81 -70 -80 -80 -94 -121 -129 -174 -192 -234 -250 -315 -335 -366 -371 -392 -409 -453 -470 -533 -541 -546 -570 -619 -625 -675 -671 -701 -724 -745 -754 -783 -795 -830 -817 -829 -844 -860 -870 -897 -896 -911 -929 -966 -976 -1000 -1000 -1000 -1000 -1000 -1000 -1000 -1000 -999 -993 -1000 -1000 -1000 -1000 -1000 -1000 -1000 -1000 -987 -981 -971 -955 -932 -936 -918 -907 -881 -886 -879 -885 -892 -892 -890 -894 -889 -881 -858 -865 -857 -841 -825 -814 -792 -783 -746 -742 -716 -697 -681 -662 -636 -628 -593 -594 -572 -564 -569 -569 -588 -589 -590 -587 -576 -580 -580 -594 -625 -635 -681 -672 -698 -709 -703 -718 -741 -735 -762 -770 -796 -817 -827 -825 -834 -841 -852 -850 -852 -860 -846 -839 -825 -822 -810 -802 -783 -764 -746 -738 -724 -711 -701 -712 -721 -724 -748 -740 -751 -743 -733 -738 -740 -739 -743 -759 -790 -792 -798 -799 -811 -816 -833 -854 -904 -906 -921 -937 -962 -973 -991 -990 -1000 -991 -973 -955 -930 -906 -856 -850 -800 -787 -727 -734 -691 -676 -671 -684 -710 -709 -735 -741 -761 -765 -749 -747 -735 -731 -714 -708 -687 -681 -687 -672 -662 -673 -671 -669 -675 -669 -695 -709 -755 -760 -797 -800 -837 -844 -852 -871 -906 -912 -963 -954 -983 -1000 -1000 -1000 -1000 -1000 -1000 -1000 -1000 -1000 -1000 -1000
936 946 969 967 965 971 970 987 992 1000 1000 1000 1000 1000 1000 1000 1000 1000 1000 1000 1000 1000 1000 1000 1000 1000 1000 1000 1000 1000 1000 1000 1000 1000 1000 1000 1000 1000 1000 1000 1000 1000 1000 1000 1000 1000 1000 1000 1000 1000 1000 1000 1000 1000 1000 1000 1000 1000 1000 1000 1000 1000 1000 1000 1000 1000 1000 1000 1000 1000 1000 1000 1000 1000 1000 1000 1000 1000 1000 1000 1000 1000 1000 1000 1000 1000 1000 1000 1000 1000 1000 1000 1000 1000 1000 1000 1000 1000 1000 1000 1000 1000 1000 1000 1000 1000 1000 1000 1000 1000 1000 1000 1000 1000 1000 1000 1000 1000 1000 1000 1000 1000 1000 1000 1000 1000 1000 1000 1000 1000 1000 1000 1000 1000 1000 1000 1000 1000 1000 1000 1000 1000 1000 1000 1000 1000 1000 1000 1000 1000 1000 1000 1000 1000 1000 1000 1000 1000 1000 1000 1000 1000 1000 1000 1000 1000 1000 1000 1000 1000 1000 1000 1000 1000 1000 1000 1000 1000 1000 1000 1000 1000 1000 1000 1000 1000 1000 1000 1000 1000 1000 1000 1000 1000 1000 1000 1000 1000 1000 1000 1000 1000 1000 1000 1000 1000 1000 1000 1000 1000 1000 1000 1000 1000 1000 1000 1000 1000 1000 1000 1000 1000 1000 1000 1000 1000 1000 1000 1000 973 923 911 884 856 817 814 835 788 755 726 709 686 667 642 625 567 521 490 456 406 354 325 308 224 155 123 96 81 68 81 95 59 31 26 33 9 4 -17 -19 -48 -75 -86 -95 -97 -96 -102 -120 -116 -122 -143 -157 -203 -262 -263 -273 -335 -398 -401 -402 -431 -453 -472 -483 -538 -586 -585 -595 -637 -685 -684 -675 -714 -746 -764 -775 -798 -823 -830 -820 -832 -840 -862 -876 -906 -939 -935 -944 -982 -1000 -1000 -1000 -1000 -1000 -1000 -1000 -1000 -1000 -1000 -1000 -1000 -1000 -1000 -1000 -1000 -1000 -1000 -1000 -993 -964 -970 -968 -945 -934 -925 -925 -895 -875 -889 -912 -913 -916 -923 -929 -915 -891 -890 -898 -870 -848 -836 -829 -799 -781 -766 -762 -727 -696 -685 -663 -646 -627 -620 -618 -597 -584 -577 -566 -589 -605 -608 -615 -601 -593 -600 -611 -628 -641 -658 -654 -683 -703 -713 -726 -739 -756 -761 -764 -801 -838 -828 -828 -837 -852 -856 -866 -866 -881 -857 -850 -839 -837 -822 -819 -795 -780 -758 -737 -722 -696 -713 -725 -735 -749 -740 -733 -743 -745 -739 -738 -733 -730 -745 -757 -779 -807 -802 -808 -817 -821 -848 -861 -900 -926 -933 -950 -971 -1000 -1000 -1000 -1000 -1000 -976 -948 -914 -863 -857 -853 -805 -768 -752 -753 -713 -681 -685 -688 -701 -705 -734 -750 -769 -786 -767 -763 -742 -732 -725 -734 -706 -697 -691 -674 -675 -687 -676 -677 -676 -680 -696 -709 -748 -778 -788 -784 -818 -843 -862 -887 -913 -938 -952 -952 -985 -1000 -1000 -1000 -1000 -1000 -1000 -1000 -1000 -1000 -1000 -1000
904 915 934 953 957 962 968 976 975 985 999 1000 1000 1000 1000 1000 1000 1000 1000 1000 1000 1000 1000 1000 1000 1000 1000 1000 1000 1000 1000 1000 1000 1000 1000 1000 1000 1000 1000 1000 1000 1000 1000 1000 1000 1000 1000 1000 1000 1000 1000 1000 1000 1000 1000 1000 1000 1000 1000 1000 1000 1000 1000 1000 1000 1000 1000 1000 1000 1000 1000 1000 1000 1000 1000 1000 1000 1000 1000 1000 1000 1000 1000 1000 1000 1000 1000 1000 1000 1000 1000 1000 1000 1000 1000 1000 1000 1000 1000 1000 1000 1000 1000 1000 1000 1000 1000 1000 1000 1000 1000 1000 1000 1000 1000 1000 1000 1000 1000 1000 1000 1000 1000 1000 1000 1000 1000 1000 1000 1000 1000 1000 1000 1000 1000 1000 1000 1000 1000 1000 1000 1000 1000 1000 1000 1000 1000 1000 1000 1000 1000 1000 1000 1000 1000 1000 1000 1000 1000 1000 1000 1000 1000 1000 1000 1000 1000 1000 1000 1000 1000 1000 1000 1000 1000 1000 1000 1000 1000 1000 1000 1000 1000 1000 1000 1000 1000 1000 1000 1000 1000 1000 1000 1000 1000 1000 1000 1000 1000 1000 1000 1000 1000 1000 1000 1000 1000 1000 1000 1000 1000 1000 1000 1000 1000 1000 1000 1000 1000 1000 1000 1000 1000 1000 1000 1000 1000 1000 1000 983 970 909 888 852 845 806 796 788 769 709 700 670 663 634 603 548 529 460 436 382 368 299 271 195 173 67 36 28 50 60 47 41 38 0 -5 -16 -7 -22 -29 -49 -62 -92 -108 -119 -119 -125 -127 -142 -154 -173 -186 -220 -233 -284 -308 -355 -370 -438 -462 -478 -475 -502 -515 -551 -557 -613 -623 -649 -655 -704 -718 -737 -746 -792 -804 -813 -816 -847 -846 -841 -851 -875 -886 -914 -914 -946 -965 -997 -1000 -1000 -1000 -1000 -1000 -1000 -1000 -1000 -1000 -1000 -1000 -1000 -1000 -1000 -1000 -1000 -1000 -1000 -1000 -992 -994 -980 -966 -947 -948 -925 -923 -902 -909 -893 -902 -932 -939 -959 -965 -951 -935 -916 -903 -879 -875 -843 -825 -797 -801 -776 -763 -737 -733 -701 -682 -661 -662 -643 -633 -617 -611 -589 -589 -597 -605 -625 -626 -623 -622 -618 -620 -635 -638 -657 -664 -677 -690 -722 -728 -736 -743 -762 -776 -807 -799 -821 -826 -834 -840 -855 -859 -868 -863 -854 -860 -846 -838 -823 -815 -799 -796 -770 -762 -733 -733 -731 -726 -745 -734 -733 -746 -745 -740 -740 -736 -726 -740 -753 -747 -763 -775 -797 -805 -828 -842 -879 -887 -911 -906 -937 -946 -969 -994 -1000 -1000 -1000 -1000 -985 -959 -915 -898 -859 -832 -802 -799 -763 -752 -727 -726 -700 -697 -702 -722 -747 -754 -781 -776 -771 -766 -739 -738 -720 -720 -708 -717 -707 -695 -678 -679 -671 -675 -673 -689 -701 -721 -753 -757 -795 -797 -811 -828 -866 -888 -924 -929 -957 -982 -1000 -1000 -1000 -1000 -1000 -1000 -1000 -1000 -1000 -1000 -1000 -1000
861 906 934 942 946 959 970 972 972 987 1000 1000 1000 1000 1000 1000 994 1000 1000 1000 1000 1000 1000 1000 1000 1000 1000 1000 1000 1000 1000 1000 1000 1000 1000 1000 1000 1000 1000 1000 1000 1000 1000 1000 1000 1000 1000 1000 1000 1000 1000 1000 1000 1000 1000 1000 1000 1000 1000 1000 1000 1000 1000 1000 1000 1000 1000 1000 1000 1000 1000 1000 1000 1000 1000 1000 1000 1000 1000 1000 1000 1000 1000 1000 1000 1000 1000 1000 1000 1000 1000 1000 1000 1000 1000 1000 1000 1000 1000 1000 1000 1000 1000 1000 1000 1000 1000 1000 1000 1000 1000 1000 1000 1000 1000 1000 1000 1000 1000 1000 1000 1000 1000 1000 1000 1000 1000 1000 1000 1000 1000 1000 1000 1000 1000 1000 1000 1000 1000 1000 1000 1000 1000 1000 1000 1000 1000 1000 1000 1000 1000 1000 1000 1000 1000 1000 1000 1000 1000 1000 1000 1000 1000 1000 1000 1000 1000 1000 1000 1000 1000 1000 1000 1000 1000 1000 1000 1000 1000 1000 1000 1000 1000 1000 1000 1000 1000 1000 1000 1000 1000 1000 1000 1000 1000 1000 1000 1000 1000 1000 1000 1000 1000 1000 1000 1000 1000 1000 1000 1000 1000 1000 1000 1000 1000 1000 1000 1000 1000 1000 1000 1000 1000 1000 1000 1000 1000 1000 1000 998 960 922 869 859 840 813 775 775 747 718 666 665 641 616 565 537 483 444 382 375 336 298 238 200 122 54 -105 -1 16 37 22 29 17 0 -38 -20 -23 -32 -52 -58 -91 -108 -148 -133 -140 -141 -146 -162 -183 -197 -231 -237 -271 -298 -333 -368 -417 -455 -536 -504 -521 -524 -554 -561 -584 -612 -647 -648 -672 -696 -747 -751 -781 -804 -866 -832 -831 -847 -875 -863 -869 -888 -918 -916 -923 -943 -978 -1000 -1000 -1000 -1000 -1000 -1000 -1000 -1000 -1000 -1000 -1000 -1000 -1000 -1000 -1000 -1000 -1000 -1000 -1000 -1000 -1000 -976 -977 -974 -963 -952 -938 -931 -919 -918 -905 -908 -929 -954 -980 -1000 -979 -947 -935 -929 -903 -882 -855 -815 -812 -803 -784 -759 -754 -734 -717 -673 -688 -684 -670 -645 -638 -623 -609 -586 -617 -632 -639 -651 -637 -634 -633 -637 -647 -652 -669 -682 -687 -709 -728 -753 -745 -749 -763 -780 -793 -806 -814 -814 -827 -843 -851 -862 -859 -864 -855 -862 -848 -835 -822 -802 -804 -796 -784 -767 -751 -732 -733 -734 -735 -734 -739 -758 -749 -745 -737 -734 -734 -743 -746 -745 -766 -784 -791 -790 -823 -856 -884 -940 -915 -917 -931 -955 -972 -1000 -1000 -1000 -1000 -1000 -983 -937 -912 -873 -853 -807 -802 -781 -768 -751 -740 -726 -721 -706 -732 -751 -767 -783 -794 -805 -787 -771 -748 -732 -728 -722 -725 -720 -716 -700 -693 -693 -681 -670 -685 -705 -714 -751 -759 -774 -789 -806 -821 -854 -876 -922 -929 -950 -977 -1000 -1000 -1000 -1000 -1000 -1000 -1000 -1000 -1000 -1000 -1000 -1000 -1000
892 914 907 935 942 961 967 970 978 987 998 1000 1000 1000 1000 1000 1000 1000 1000 1000 1000 1000 1000 1000 1000 1000 1000 1000 1000 1000 1000 1000 1000 1000 1000 1000 1000 1000 1000 1000 1000 1000 1000 1000 1000 1000 1000 1000 1000 1000 1000 1000 1000 1000 1000 1000 1000 1000 1000 1000 1000 1000 1000 1000 1000 1000 1000 1000 1000 1000 1000 1000 1000 1000 1000 1000 1000 1000 1000 1000 1000 1000 1000 1000 1000 1000 1000 1000 1000 1000 1000 1000 1000 1000 1000 1000 1000 1000 1000 1000 1000 1000 1000 1000 1000 1000 1000 1000 1000 1000 1000 1000 1000 1000 1000 1000 1000 1000 1000 1000 1000 1000 1000 1000 1000 1000 1000 1000 1000 1000 1000 1000 1000 1000 1000 1000 1000 1000 1000 1000 1000 1000 1000 1000 1000 1000 1000 1000 1000 1000 1000 1000 1000 1000 1000 1000 1000 1000 1000 1000 1000 1000 1000 1000 1000 1000 1000 1000 1000 1000 1000 1000 1000 1000 1000 1000 1000 1000 1000 1000 1000 1000 1000 1000 1000 1000 1000 1000 1000 1000 1000 1000 1000 1000 1000 1000 1000 1000 1000 1000 1000 1000 1000 1000 1000 1000 1000 1000 1000 1000 1000 1000 1000 1000 1000 1000 1000 1000 1000 1000 1000 1000 1000 1000 1000 1000 1000 1000 1000 1000 1000 950 942 878 860 832 829 792 778 751 735 683 660 624 609 553 518 451 453 402 369 322 311 246 215 134 137 57 31 52 38 36 33 19 18 -6 -21 -34 -28 -42 -62 -103 -100 -125 -140 -154 -157 -180 -180 -201 -201 -229 -256 -306 -315 -367 -382 -430 -433 -481 -509 -519 -534 -557 -577 -607 -595 -624 -636 -664 -686 -740 -757 -778 -779 -820 -831 -838 -845 -868 -879 -892 -882 -909 -912 -925 -945 -987 -1000 -1000 -1000 -1000 -1000 -1000 -1000 -1000 -1000 -1000 -1000 -1000 -1000 -1000 -1000 -1000 -1000 -1000 -1000 -1000 -996 -978 -982 -982 -968 -947 -941 -927 -920 -904 -913 -922 -940 -972 -963 -984 -985 -948 -950 -923 -917 -882 -873 -833 -816 -798 -800 -788 -779 -763 -757 -737 -718 -711 -696 -668 -658 -639 -645 -653 -643 -648 -646 -641 -647 -644 -648 -667 -670 -685 -673 -681 -698 -730 -726 -743 -752 -764 -767 -779 -791 -816 -813 -818 -830 -846 -841 -843 -840 -843 -848 -852 -845 -829 -831 -819 -815 -805 -798 -773 -762 -737 -737 -728 -732 -733 -739 -748 -745 -731 -737 -735 -734 -746 -749 -774 -776 -793 -800 -821 -827 -863 -858 -892 -909 -917 -923 -954 -967 -1000 -991 -1000 -1000 -995 -983 -924 -915 -873 -863 -818 -800 -777 -773 -756 -757 -754 -767 -771 -779 -789 -790 -810 -809 -804 -790 -752 -751 -739 -745 -750 -743 -739 -723 -701 -702 -691 -691 -695 -687 -702 -719 -759 -763 -784 -792 -815 -832 -862 -876 -923 -943 -976 -980 -1000 -1000 -1000 -1000 -1000 -1000 -1000 -1000 -1000 -1000 -1000 -1000
903 915 921 932 939 969 992 987 988 1000 1000 1000 1000 1000 1000 1000 1000 1000 1000 1000 1000 1000 1000 1000 1000 1000 1000 1000 1000 1000 1000 1000 1000 1000 1000 1000 1000 1000 1000 1000 1000 1000 1000 1000 1000 1000 1000 1000 1000 1000 1000 1000 1000 1000 1000 1000 1000 1000 1000 1000 1000 1000 1000 1000 1000 1000 1000 1000 1000 1000 1000 1000 1000 1000 1000 1000 1000 1000 1000 1000 1000 1000 1000 1000 1000 1000 1000 1000 1000 1000 1000 1000 1000 1000 1000 1000 1000 1000 1000 1000 1000 1000 1000 1000 1000 1000 1000 1000 1000 1000 1000 1000 1000 1000 1000 1000 1000 1000 1000 1000 1000 1000 1000 1000 1000 1000 1000 1000 1000 1000 1000 1000 1000 1000 1000 1000 1000 1000 1000 1000 1000 1000 1000 1000 1000 1000 1000 1000 1000 1000 1000 1000 1000 1000 1000 1000 1000 1000 1000 1000 1000 1000 1000 1000 1000 1000 1000 1000 1000 1000 1000 1000 1000 1000 1000 1000 1000 1000 1000 1000 1000 1000 1000 1000 1000 1000 1000 1000 1000 1000 1000 1000 1000 1000 1000 1000 1000 1000 1000 1000 1000 1000 1000 1000 1000 1000 1000 1000 1000 1000 1000 1000 1000 1000 1000 1000 1000 1000 1000 1000 1000 1000 1000 1000 1000 1000 1000 1000 1000 1000 1000 995 983 917 861 855 855 819 794 775 759 715 669 645 621 564 505 487 477 424 373 353 341 286 243 227 238 164 120 92 50 62 55 51 43 17 -7 -9 -14 -26 -52 -71 -81 -105 -133 -147 -157 -181 -196 -195 -194 -228 -261 -299 -319 -361 -401 -405 -407 -452 -503 -519 -540 -558 -592 -576 -568 -591 -610 -640 -668 -713 -766 -750 -740 -773 -803 -819 -845 -857 -883 -874 -861 -881 -897 -920 -945 -983 -1000 -1000 -1000 -1000 -1000 -1000 -1000 -1000 -1000 -1000 -1000 -1000 -1000 -1000 -1000 -1000 -1000 -1000 -983 -980 -967 -978 -995 -980 -970 -949 -938 -926 -921 -908 -911 -929 -958 -954 -942 -959 -972 -972 -984 -953 -937 -912 -895 -860 -820 -818 -813 -811 -808 -798 -797 -776 -754 -739 -724 -701 -680 -671 -668 -674 -687 -671 -664 -657 -655 -648 -650 -666 -691 -684 -677 -685 -699 -716 -722 -742 -749 -769 -779 -788 -792 -811 -812 -826 -844 -842 -835 -830 -814 -829 -834 -838 -839 -838 -842 -830 -837 -822 -820 -791 -774 -757 -751 -739 -736 -738 -744 -747 -746 -732 -739 -727 -724 -729 -735 -762 -795 -792 -803 -816 -836 -829 -823 -858 -890 -895 -907 -927 -947 -947 -924 -959 -988 -984 -1000 -948 -926 -899 -888 -844 -799 -789 -780 -772 -767 -792 -817 -825 -850 -827 -812 -828 -841 -818 -802 -773 -744 -752 -760 -758 -761 -746 -735 -726 -718 -700 -686 -689 -681 -697 -713 -741 -761 -776 -796 -817 -845 -856 -868 -915 -954 -969 -972 -1000 -1000 -1000 -1000 -1000 -1000 -1000 -1000 -1000 -1000 -1000 -1000
908 924 925 935 955 985 977 999 996 1000 1000 1000 1000 1000 1000 1000 1000 1000 1000 1000 1000 1000 1000 1000 1000 1000 1000 1000 1000 1000 1000 1000 1000 1000 1000 1000 1000 1000 1000 1000 1000 1000 1000 1000 1000 1000 1000 1000 1000 1000 1000 1000 1000 1000 1000 1000 1000 1000 1000 1000 1000 1000 1000 1000 1000 1000 1000 1000 1000 1000 1000 1000 1000 1000 1000 1000 1000 1000 1000 1000 1000 1000 1000 1000 1000 1000 1000 1000 1000 1000 1000 1000 1000 1000 1000 1000 1000 1000 1000 1000 1000 1000 1000 1000 1000 1000 1000 1000 1000 1000 1000 1000 1000 1000 1000 1000 1000 1000 1000 1000 1000 1000 1000 1000 1000 1000 1000 1000 1000 1000 1000 1000 1000 1000 1000 1000 1000 1000 1000 1000 1000 1000 1000 1000 1000 1000 1000 1000 1000 1000 1000 1000 1000 1000 1000 1000 1000 1000 1000 1000 1000 1000 1000 1000 1000 1000 1000 1000 1000 1000 1000 1000 1000 1000 1000 1000 1000 1000 1000 1000 1000 1000 1000 1000 1000 1000 1000 1000 1000 1000 1000 1000 1000 1000 1000 1000 1000 1000 1000 1000 1000 1000 1000 1000 1000 1000 1000 1000 1000 1000 1000 1000 1000 1000 1000 1000 1000 1000 1000 1000 1000 1000 1000 1000 1000 1000 1000 1000 1000 1000 1000 1000 1000 947 931 874 857 836 831 797 795 749 726 666 640 579 566 518 494 446 432 377 358 314 323 294 282 241 220 149 137 107 99 88 71 39 40 19 13 1 -18 -48 -57 -82 -104 -147 -166 -194 -182 -189 -207 -229 -256 -313 -329 -359 -358 -383 -388 -418 -448 -516 -524 -546 -537 -540 -552 -562 -586 -620 -640 -681 -686 -717 -724 -730 -749 -793 -805 -835 -841 -860 -858 -858 -879 -916 -933 -977 -965 -984 -993 -1000 -1000 -1000 -1000 -1000 -1000 -1000 -1000 -1000 -1000 -1000 -1000 -1000 -1000 -991 -985 -970 -971 -972 -969 -974 -959 -941 -939 -918 -909 -898 -904 -925 -925 -947 -944 -940 -955 -985 -979 -970 -964 -934 -924 -893 -878 -842 -837 -836 -837 -827 -830 -818 -799 -770 -762 -734 -724 -697 -691 -690 -687 -686 -683 -668 -660 -643 -649 -656 -667 -683 -686 -686 -701 -716 -732 -756 -765 -787 -791 -804 -807 -824 -819 -830 -830 -845 -837 -828 -830 -825 -821 -827 -829 -842 -834 -824 -830 -828 -823 -799 -790 -767 -753 -742 -746 -739 -747 -753 -732 -713 -715 -712 -715 -711 -727 -744 -753 -778 -794 -806 -798 -796 -809 -827 -833 -866 -877 -902 -894 -905 -902 -909 -916 -954 -949 -944 -939 -911 -910 -874 -851 -802 -794 -785 -810 -832 -841 -864 -857 -860 -863 -852 -839 -827 -826 -797 -791 -767 -759 -764 -761 -751 -760 -751 -730 -705 -700 -694 -690 -695 -702 -733 -742 -765 -781 -813 -820 -850 -870 -918 -926 -977 -981 -995 -989 -997 -1000 -1000 -1000 -1000 -1000 -1000 -1000 -1000 -1000
897 921 938 953 982 986 988 992 990 999 1000 1000 1000 1000 1000 1000 1000 1000 1000 1000 1000 1000 1000 1000 1000 1000 1000 1000 1000 1000 1000 1000 1000 1000 1000 1000 1000 1000 1000 1000 1000 1000 1000 1000 1000 1000 1000 1000 1000 1000 1000 1000 1000 1000 1000 1000 1000 1000 1000 1000 1000 1000 1000 1000 1000 1000 1000 1000 1000 1000 1000 1000 1000 1000 1000 1000 1000 1000 1000 1000 1000 1000 1000 1000 1000 1000 1000 1000 1000 1000 1000 1000 1000 1000 1000 1000 1000 1000 1000 1000 1000 1000 1000 1000 1000 1000 1000 1000 1000 1000 1000 1000 1000 1000 1000 1000 1000 1000 1000 1000 1000 1000 1000 1000 1000 1000 1000 1000 1000 1000 1000 1000 1000 1000 1000 1000 1000 1000 1000 1000 1000 1000 1000 1000 1000 1000 1000 1000 1000 1000 1000 1000 1000 1000 1000 1000 1000 1000 1000 1000 1000 1000 1000 1000 1000 1000 1000 1000 1000 1000 1000 1000 1000 1000 1000 1000 1000 1000 1000 1000 1000 1000 1000 1000 1000 1000 1000 1000 1000 1000 1000 1000 1000 1000 1000 1000 1000 1000 1000 1000 1000 1000 1000 1000 1000 1000 1000 1000 1000 1000 1000 1000 1000 1000 1000 1000 1000 1000 1000 1000 1000 1000 1000 1000 1000 1000 1000 1000 1000 1000 1000 1000 1000 969 922 889 858 851 838 832 840 782 731 688 646 590 546 524 507 463 428 402 368 358 346 344 352 294 255 215 173 164 153 129 104 79 59 44 39 12 -12 -31 -49 -78 -107 -142 -192 -182 -191 -194 -216 -242 -288 -316 -384 -364 -374 -365 -353 -407 -452 -488 -531 -523 -523 -520 -517 -556 -596 -617 -649 -657 -681 -687 -684 -704 -735 -761 -790 -810 -824 -832 -832 -851 -882 -905 -943 -944 -955 -953 -953 -975 -997 -1000 -1000 -1000 -1000 -1000 -1000 -1000 -1000 -1000 -1000 -1000 -1000 -984 -969 -962 -961 -961 -965 -947 -926 -923 -930 -908 -885 -886 -875 -904 -918 -929 -932 -944 -954 -973 -991 -975 -970 -947 -935 -906 -883 -865 -852 -860 -873 -868 -870 -840 -811 -797 -791 -764 -741 -723 -700 -700 -705 -695 -691 -676 -665 -661 -644 -669 -682 -687 -684 -708 -727 -744 -759 -779 -797 -811 -825 -822 -823 -830 -832 -831 -833 -835 -831 -831 -833 -830 -821 -819 -816 -824 -832 -826 -828 -824 -828 -802 -775 -759 -730 -748 -754 -750 -763 -741 -720 -705 -690 -698 -698 -711 -730 -734 -756 -766 -798 -788 -788 -778 -777 -798 -818 -836 -851 -860 -863 -858 -848 -869 -879 -900 -911 -909 -902 -910 -931 -876 -840 -816 -790 -820 -843 -867 -902 -887 -889 -885 -891 -879 -866 -858 -842 -826 -801 -783 -764 -770 -771 -770 -780 -758 -732 -714 -685 -690 -686 -692 -701 -728 -757 -767 -788 -806 -823 -844 -867 -906 -943 -967 -1000 -996 -995 -997 -1000 -1000 -1000 -1000 -1000 -1000 -1000 -1000 -1000
910 925 933 958 960 989 987 991 992 990 997 1000 1000 1000 1000 1000 1000 1000 1000 1000 1000 1000 1000 1000 1000 1000 1000 1000 1000 1000 1000 1000 1000 1000 1000 1000 1000 1000 1000 1000 1000 1000 1000 1000 1000 1000 1000 1000 1000 1000 1000 1000 1000 1000 1000 1000 1000 1000 1000 1000 1000 1000 1000 1000 1000 1000 1000 1000 1000 1000 1000 1000 1000 1000 1000 1000 1000 1000 1000 1000 1000 1000 1000 1000 1000 1000 1000 1000 1000 1000 1000 1000 1000 1000 1000 1000 1000 1000 1000 1000 1000 1000 1000 1000 1000 1000 1000 1000 1000 1000 1000 1000 1000 1000 1000 1000 1000 1000 1000 1000 1000 1000 1000 1000 1000 1000 1000 1000 1000 1000 1000 1000 1000 1000 1000 1000 1000 1000 1000 1000 1000 1000 1000 1000 1000 1000 1000 1000 1000 1000 1000 1000 1000 1000 1000 1000 1000 1000 1000 1000 1000 1000 1000 1000 1000 1000 1000 1000 1000 1000 1000 1000 1000 1000 1000 1000 1000 1000 1000 1000 1000 1000 1000 1000 1000 1000 1000 1000 1000 1000 1000 1000 1000 1000 1000 1000 1000 1000 1000 1000 1000 1000 1000 1000 1000 1000 1000 1000 1000 1000 1000 1000 1000 1000 1000 1000 1000 1000 1000 1000 1000 1000 1000 1000 1000 1000 1000 1000 1000 1000 1000 1000 1000 984 964 905 909 873 861 856 837 808 782 709 680 592 573 527 518 472 470 437 440 406 395 385 371 331 326 285 275 226 203 173 159 114 95 62 58 22 14 -15 -29 -76 -86 -123 -120 -151 -171 -181 -201 -238 -247 -282 -288 -340 -348 -351 -372 -406 -409 -456 -455 -492 -505 -503 -523 -550 -560 -603 -593 -618 -640 -667 -663 -670 -686 -727 -743 -791 -796 -812 -817 -833 -851 -882 -878 -901 -916 -921 -922 -937 -937 -975 -975 -1000 -1000 -1000 -1000 -1000 -1000 -995 -1000 -992 -987 -976 -975 -951 -953 -949 -940 -925 -917 -898 -905 -901 -893 -887 -891 -899 -900 -919 -927 -952 -953 -964 -959 -971 -972 -950 -948 -916 -915 -883 -889 -879 -888 -902 -886 -864 -855 -816 -812 -790 -783 -757 -739 -706 -703 -701 -698 -683 -695 -693 -691 -697 -688 -702 -714 -738 -751 -776 -779 -806 -814 -836 -824 -839 -837 -843 -832 -831 -830 -832 -834 -832 -842 -842 -835 -815 -814 -808 -814 -821 -820 -812 -816 -807 -803 -767 -775 -766 -747 -745 -736 -730 -718 -697 -701 -693 -694 -708 -697 -706 -717 -732 -740 -760 -763 -752 -763 -772 -778 -811 -809 -825 -824 -816 -827 -842 -839 -856 -859 -879 -891 -896 -882 -861 -867 -834 -859 -862 -864 -893 -886 -894 -902 -901 -902 -909 -907 -899 -887 -864 -840 -800 -801 -784 -777 -780 -777 -771 -757 -734 -724 -696 -687 -689 -697 -722 -730 -759 -768 -800 -815 -839 -859 -899 -917 -949 -956 -995 -1000 -998 -1000 -1000 -1000 -1000 -1000 -1000 -1000 -1000 -1000
910 929 955 960 958 981 988 994 999 995 998 1000 1000 1000 1000 1000 1000 1000 1000 1000 1000 1000 1000 1000 1000 1000 1000 1000 1000 1000 1000 1000 1000 1000 1000 1000 1000 1000 1000 1000 1000 1000 1000 1000 1000 1000 1000 1000 1000 1000 1000 1000 1000 1000 1000 1000 1000 1000 1000 1000 1000 1000 1000 1000 1000 1000 1000 1000 1000 1000 1000 1000 1000 1000 1000 1000 1000 1000 1000 1000 1000 1000 1000 1000 1000 1000 1000 1000 1000 1000 1000 1000 1000 1000 1000 1000 1000 1000 1000 1000 1000 1000 1000 1000 1000 1000 1000 1000 1000 1000 1000 1000 1000 1000 1000 1000 1000 1000 1000 1000 1000 1000 1000 1000 1000 1000 1000 1000 1000 1000 1000 1000 1000 1000 1000 1000 1000 1000 1000 1000 1000 1000 1000 1000 1000 1000 1000 1000 1000 1000 1000 1000 1000 1000 1000 1000 1000 1000 1000 1000 1000 1000 1000 1000 1000 1000 1000 1000 1000 1000 1000 1000 1000 1000 1000 1000 1000 1000 1000 1000 1000 1000 1000 1000 1000 1000 1000 1000 1000 1000 1000 1000 1000 1000 1000 1000 1000 1000 1000 1000 1000 1000 1000 1000 1000 1000 1000 1000 1000 1000 1000 1000 1000 1000 1000 1000 1000 1000 1000 1000 1000 1000 1000 1000 1000 1000 1000 1000 1000 1000 1000 1000 1000 990 946 931 936 893 860 859 849 809 772 716 689 600 529 521 527 489 466 474 489 451 422 428 423 380 337 330 337 279 241 215 196 146 100 94 90 47 12 0 -13 -57 -96 -106 -100 -133 -161 -177 -197 -221 -253 -252 -244 -292 -319 -335 -358 -384 -422 -426 -422 -464 -495 -500 -517 -536 -570 -570 -558 -590 -626 -635 -637 -650 -665 -695 -720 -760 -792 -798 -802 -824 -857 -853 -849 -872 -900 -883 -876 -884 -883 -913 -929 -970 -1000 -1000 -1000 -996 -987 -985 -991 -977 -965 -969 -973 -949 -944 -936 -927 -902 -882 -886 -895 -876 -854 -881 -896 -901 -908 -916 -920 -942 -964 -961 -948 -962 -977 -964 -959 -936 -928 -913 -912 -906 -922 -917 -906 -890 -871 -842 -834 -810 -794 -772 -754 -722 -705 -704 -705 -701 -713 -707 -712 -711 -710 -722 -734 -763 -808 -805 -810 -831 -858 -838 -825 -838 -844 -842 -834 -833 -826 -835 -841 -845 -866 -851 -850 -826 -814 -809 -811 -813 -816 -816 -817 -810 -810 -787 -795 -766 -748 -733 -716 -708 -683 -691 -697 -690 -688 -684 -678 -691 -701 -707 -714 -729 -743 -736 -742 -745 -754 -775 -782 -797 -806 -793 -790 -801 -812 -822 -824 -857 -881 -876 -870 -858 -843 -864 -903 -897 -914 -916 -914 -920 -914 -915 -912 -917 -930 -923 -920 -888 -854 -831 -821 -804 -782 -791 -788 -772 -746 -744 -736 -707 -679 -690 -693 -721 -738 -750 -756 -799 -834 -849 -875 -912 -953 -945 -940 -981 -1000 -1000 -1000 -1000 -1000 -1000 -1000 -1000 -1000 -1000 -1000
915 929 938 972 978 991 983 1000 993 996 1000 1000 1000 1000 1000 1000 1000 1000 1000 1000 1000 1000 1000 1000 1000 1000 1000 1000 1000 1000 1000 1000 1000 1000 1000 1000 1000 1000 1000 1000 1000 1000 1000 1000 1000 1000 1000 1000 1000 1000 1000 1000 1000 1000 1000 1000 1000 1000 1000 1000 1000 1000 1000 1000 1000 1000 1000 1000 1000 1000 1000 1000 1000 1000 1000 1000 1000 1000 1000 1000 1000 1000 1000 1000 1000 1000 1000 1000 1000 1000 1000 1000 1000 1000 1000 1000 1000 1000 1000 1000 1000 1000 1000 1000 1000 1000 1000 1000 1000 1000 1000 1000 1000 1000 1000 1000 1000 1000 1000 1000 1000 1000 1000 1000 1000 1000 1000 1000 1000 1000 1000 1000 1000 1000 1000 1000 1000 1000 1000 1000 1000 1000 1000 1000 1000 1000 1000 1000 1000 1000 1000 1000 1000 1000 1000 1000 1000 1000 1000 1000 1000 1000 1000 1000 1000 1000 1000 1000 1000 1000 1000 1000 1000 1000 1000 1000 1000 1000 1000 1000 1000 1000 1000 1000 1000 1000 1000 1000 1000 1000 1000 1000 1000 1000 1000 1000 1000 1000 1000 1000 1000 1000 1000 1000 1000 1000 1000 1000 1000 1000 1000 1000 1000 1000 1000 1000 1000 1000 1000 1000 1000 1000 1000 1000 1000 1000 1000 1000 1000 1000 1000 1000 1000 986 984 940 926 905 896 872 851 807 772 694 668 592 579 504 498 493 510 507 496 490 497 485 476 431 413 362 348 315 302 252 234 174 167 127 99 64 55 19 -5 -43 -55 -107 -115 -123 -133 -170 -177 -197 -205 -231 -245 -266 -273 -314 -323 -351 -367 -404 -423 -450 -456 -487 -491 -509 -523 -551 -550 -561 -578 -613 -609 -628 -644 -671 -693 -740 -749 -788 -798 -806 -807 -827 -832 -838 -830 -838 -839 -840 -851 -865 -887 -935 -942 -977 -992 -976 -976 -970 -966 -961 -963 -962 -946 -930 -935 -925 -905 -876 -883 -869 -861 -855 -877 -888 -884 -903 -908 -919 -923 -934 -945 -968 -961 -952 -958 -970 -957 -943 -944 -932 -919 -913 -930 -941 -941 -921 -890 -848 -845 -822 -815 -783 -767 -726 -727 -708 -705 -703 -713 -713 -722 -727 -733 -743 -750 -772 -786 -829 -845 -852 -836 -833 -844 -847 -840 -850 -844 -841 -835 -843 -838 -844 -841 -849 -847 -826 -817 -803 -804 -807 -811 -822 -814 -808 -800 -779 -775 -758 -753 -726 -730 -703 -694 -687 -677 -683 -673 -663 -666 -681 -677 -682 -692 -702 -697 -707 -709 -713 -733 -753 -759 -776 -761 -763 -755 -761 -774 -796 -812 -846 -843 -860 -862 -859 -870 -876 -878 -911 -925 -943 -964 -960 -946 -936 -927 -918 -926 -946 -940 -917 -894 -852 -845 -829 -823 -814 -800 -786 -782 -763 -741 -719 -720 -702 -706 -733 -731 -749 -771 -806 -812 -849 -873 -923 -919 -941 -963 -983 -989 -1000 -1000 -1000 -1000 -1000 -1000 -1000 -1000 -1000 -1000
908 928 944 964 994 985 985 986 988 995 1000 1000 1000 1000 1000 1000 1000 1000 1000 1000 1000 1000 1000 1000 1000 1000 1000 1000 1000 1000 1000 1000 1000 1000 1000 1000 1000 1000 1000 1000 1000 1000 1000 1000 1000 1000 1000 1000 1000 1000 1000 1000 1000 1000 1000 1000 1000 1000 1000 1000 1000 1000 1000 1000 1000 1000 1000 1000 1000 1000 1000 1000 1000 1000 1000 1000 1000 1000 1000 1000 1000 1000 1000 1000 1000 1000 1000 1000 1000 1000 1000 1000 1000 1000 1000 1000 1000 1000 1000 1000 1000 1000 1000 1000 1000 1000 1000 1000 1000 1000 1000 1000 1000 1000 1000 1000 1000 1000 1000 1000 1000 1000 1000 1000 1000 1000 1000 1000 1000 1000 1000 1000 1000 1000 1000 1000 1000 1000 1000 1000 1000 1000 1000 1000 1000 1000 1000 1000 1000 1000 1000 1000 1000 1000 1000 1000 1000 1000 1000 1000 1000 1000 1000 1000 1000 1000 1000 1000 1000 1000 1000 1000 1000 1000 1000 1000 1000 1000 1000 1000 1000 1000 1000 1000 1000 1000 1000 1000 1000 1000 1000 1000 1000 1000 1000 1000 1000 1000 1000 1000 1000 1000 1000 1000 1000 1000 1000 1000 1000 1000 1000 1000 1000 1000 1000 1000 1000 1000 1000 1000 1000 1000 1000 1000 1000 1000 1000 1000 1000 1000 1000 1000 1000 997 964 948 915 899 871 867 868 801 739 689 617 585 533 512 469 508 513 520 522 521 527 533 568 483 436 403 378 347 304 285 270 215 173 141 107 77 47 24 -8 -28 -58 -86 -135 -126 -139 -153 -183 -181 -198 -208 -231 -251 -271 -295 -309 -332 -357 -383 -418 -435 -465 -468 -474 -494 -515 -524 -521 -549 -581 -587 -570 -611 -641 -666 -699 -723 -749 -772 -809 -790 -796 -798 -807 -801 -798 -794 -779 -807 -824 -838 -867 -895 -929 -954 -1000 -968 -955 -952 -948 -948 -941 -938 -930 -917 -915 -900 -875 -868 -860 -856 -841 -857 -870 -880 -892 -899 -917 -920 -934 -940 -959 -957 -961 -955 -965 -954 -941 -942 -945 -931 -906 -932 -954 -956 -982 -928 -887 -865 -842 -835 -821 -798 -766 -743 -720 -713 -704 -721 -733 -734 -735 -744 -753 -759 -777 -787 -809 -842 -892 -862 -851 -840 -839 -840 -841 -843 -841 -838 -825 -835 -842 -835 -830 -836 -850 -818 -792 -791 -795 -800 -807 -806 -810 -803 -797 -775 -754 -748 -736 -734 -745 -699 -671 -664 -657 -651 -651 -644 -635 -651 -670 -672 -683 -671 -668 -672 -675 -697 -724 -736 -754 -739 -723 -719 -693 -732 -752 -770 -797 -817 -844 -843 -848 -860 -876 -879 -884 -916 -946 -976 -1000 -986 -975 -955 -943 -933 -929 -947 -967 -923 -890 -870 -846 -838 -829 -825 -820 -806 -793 -770 -739 -738 -724 -717 -712 -737 -749 -768 -794 -813 -840 -857 -888 -912 -938 -951 -976 -989 -1000 -1000 -1000 -1000 -1000 -1000 -1000 -1000 -1000 -1000 -1000
918 932 927 948 949 971 977 972 984 997 1000 1000 1000 1000 1000 1000 1000 1000 1000 1000 1000 1000 1000 1000 1000 1000 1000 1000 1000 1000 1000 1000 1000 1000 1000 1000 1000 1000 1000 1000 1000 1000 1000 1000 1000 1000 1000 1000 1000 1000 1000 1000 1000 1000 1000 1000 1000 1000 1000 1000 1000 1000 1000 1000 1000 1000 1000 1000 1000 1000 1000 1000 1000 1000 1000 1000 1000 1000 1000 1000 1000 1000 1000 1000 1000 1000 1000 1000 1000 1000 1000 1000 1000 1000 1000 1000 1000 1000 1000 1000 1000 1000 1000 1000 1000 1000 1000 1000 1000 1000 1000 1000 1000 1000 1000 1000 1000 1000 1000 1000 1000 1000 1000 1000 1000 1000 1000 1000 1000 1000 1000 1000 1000 1000 1000 1000 1000 1000 1000 1000 1000 1000 1000 1000 1000 1000 1000 1000 1000 1000 1000 1000 1000 1000 1000 1000 1000 1000 1000 1000 1000 1000 1000 1000 1000 1000 1000 1000 1000 1000 1000 1000 1000 1000 1000 1000 1000 1000 1000 1000 1000 1000 1000 1000 1000 1000 1000 1000 1000 1000 1000 1000 1000 1000 1000 1000 1000 1000 1000 1000 1000 1000 1000 1000 1000 1000 1000 1000 1000 1000 1000 1000 1000 1000 1000 1000 1000 1000 1000 1000 1000 1000 1000 1000 1000 1000 1000 1000 1000 1000 1000 1000 1000 1000 1000 973 952 908 891 860 836 792 777 707 684 600 580 545 564 559 541 541 543 545 554 554 527 499 492 438 435 391 363 317 299 246 222 157 148 91 78 39 39 -6 -13 -46 -63 -108 -111 -122 -123 -148 -158 -175 -199 -238 -255 -287 -283 -312 -323 -353 -368 -408 -427 -449 -454 -478 -489 -509 -515 -533 -552 -586 -590 -607 -615 -653 -660 -707 -712 -744 -730 -749 -758 -763 -755 -763 -760 -764 -769 -785 -782 -798 -811 -850 -865 -911 -905 -940 -950 -937 -939 -943 -933 -922 -913 -893 -895 -886 -886 -864 -859 -857 -866 -863 -868 -873 -876 -885 -896 -913 -918 -934 -936 -941 -948 -944 -947 -941 -951 -942 -948 -944 -951 -956 -944 -949 -940 -925 -922 -885 -886 -855 -840 -822 -806 -763 -749 -722 -736 -744 -746 -755 -756 -763 -763 -765 -772 -791 -801 -840 -830 -854 -860 -840 -845 -834 -838 -842 -844 -846 -837 -832 -828 -826 -821 -817 -809 -804 -795 -775 -781 -793 -785 -788 -790 -798 -788 -770 -766 -745 -741 -730 -711 -679 -676 -644 -635 -616 -622 -628 -625 -621 -632 -654 -639 -631 -641 -638 -655 -677 -684 -714 -702 -706 -710 -700 -712 -723 -714 -735 -749 -784 -802 -820 -835 -858 -870 -882 -899 -923 -933 -978 -958 -970 -985 -966 -965 -942 -937 -946 -931 -920 -918 -892 -883 -851 -850 -837 -841 -828 -815 -785 -792 -772 -752 -732 -744 -755 -760 -780 -782 -815 -826 -853 -858 -900 -908 -950 -956 -988 -996 -1000 -1000 -1000 -1000 -1000 -1000 -1000 -1000 -1000 -1000
916 920 920 936 934 960 971 978 985 1000 1000 1000 1000 1000 1000 1000 1000 1000 1000 1000 1000 1000 1000 1000 1000 1000 1000 1000 1000 1000 1000 1000 1000 1000 1000 1000 1000 1000 1000 1000 1000 1000 1000 1000 1000 1000 1000 1000 1000 1000 1000 1000 1000 1000 1000 1000 1000 1000 1000 1000 1000 1000 1000 1000 1000 1000 1000 1000 1000 1000 1000 1000 1000 1000 1000 1000 1000 1000 1000 1000 1000 1000 1000 1000 1000 1000 1000 1000 1000 1000 1000 1000 1000 1000 1000 1000 1000 1000 1000 1000 1000 1000 1000 1000 1000 1000 1000 1000 1000 1000 1000 1000 1000 1000 1000 1000 1000 1000 1000 1000 1000 1000 1000 1000 1000 1000 1000 1000 1000 1000 1000 1000 1000 1000 1000 1000 1000 1000 1000 1000 1000 1000 1000 1000 1000 1000 1000 1000 1000 1000 1000 1000 1000 1000 1000 1000 1000 1000 1000 1000 1000 1000 1000 1000 1000 1000 1000 1000 1000 1000 1000 1000 1000 1000 1000 1000 1000 1000 1000 1000 1000 1000 1000 1000 1000 1000 1000 1000 1000 1000 1000 1000 1000 1000 1000 1000 1000 1000 1000 1000 1000 1000 1000 1000 1000 1000 1000 1000 1000 1000 1000 1000 1000 1000 1000 1000 1000 1000 1000 1000 1000 1000 1000 1000 1000 1000 1000 1000 1000 1000 1000 1000 1000 1000 1000 983 965 919 881 849 823 783 741 707 693 618 559 585 619 598 595 579 576 577 596 562 528 499 464 465 475 421 367 350 329 272 215 184 173 117 78 74 79 32 6 -20 -40 -72 -80 -86 -86 -111 -126 -155 -186 -225 -266 -268 -263 -294 -321 -341 -356 -394 -433 -429 -427 -462 -497 -503 -503 -535 -568 -579 -587 -607 -632 -641 -642 -677 -698 -695 -680 -700 -711 -707 -701 -710 -709 -723 -730 -753 -769 -772 -774 -802 -832 -841 -842 -885 -925 -921 -923 -923 -922 -907 -897 -883 -873 -879 -882 -864 -842 -866 -886 -884 -896 -883 -877 -888 -894 -904 -909 -925 -937 -946 -948 -949 -942 -950 -958 -963 -965 -959 -960 -962 -967 -952 -935 -920 -896 -904 -918 -874 -842 -829 -820 -779 -746 -746 -760 -761 -781 -775 -774 -779 -792 -780 -781 -791 -799 -817 -820 -840 -855 -851 -856 -846 -840 -846 -848 -839 -832 -832 -830 -819 -802 -797 -786 -776 -751 -755 -764 -762 -767 -768 -768 -775 -777 -758 -753 -736 -737 -711 -702 -666 -639 -619 -612 -592 -587 -598 -601 -605 -621 -612 -603 -604 -612 -625 -638 -660 -673 -679 -667 -681 -681 -689 -704 -709 -706 -718 -726 -767 -810 -810 -819 -852 -892 -904 -917 -937 -948 -953 -941 -960 -966 -970 -980 -946 -918 -932 -930 -912 -893 -890 -900 -872 -869 -863 -871 -850 -830 -816 -820 -791 -768 -760 -765 -775 -794 -786 -784 -816 -845 -846 -841 -878 -895 -934 -951 -985 -1000 -1000 -994 -1000 -1000 -1000 -1000 -1000 -1000 -1000 -1000
916 913 927 942 951 966 966 985 991 1000 1000 1000 1000 1000 1000 1000 1000 1000 1000 1000 1000 1000 1000 1000 1000 1000 1000 1000 1000 1000 1000 1000 1000 1000 1000 1000 1000 1000 1000 1000 1000 1000 1000 1000 1000 1000 1000 1000 1000 1000 1000 1000 1000 1000 1000 1000 1000 1000 1000 1000 1000 1000 1000 1000 1000 1000 1000 1000 1000 1000 1000 1000 1000 1000 1000 1000 1000 1000 1000 1000 1000 1000 1000 1000 1000 1000 1000 1000 1000 1000 1000 1000 1000 1000 1000 1000 1000 1000 1000 1000 1000 1000 1000 1000 1000 1000 1000 1000 1000 1000 1000 1000 1000 1000 1000 1000 1000 1000 1000 1000 1000 1000 1000 1000 1000 1000 1000 1000 1000 1000 1000 1000 1000 1000 1000 1000 1000 1000 1000 1000 1000 1000 1000 1000 1000 1000 1000 1000 1000 1000 1000 1000 1000 1000 1000 1000 1000 1000 1000 1000 1000 1000 1000 1000 1000 1000 1000 1000 1000 1000 1000 1000 1000 1000 1000 1000 1000 1000 1000 1000 1000 1000 1000 1000 1000 1000 1000 1000 1000 1000 1000 1000 1000 1000 1000 1000 1000 1000 1000 1000 1000 1000 1000 1000 1000 1000 1000 1000 1000 1000 1000 1000 1000 1000 1000 1000 1000 1000 1000 1000 1000 1000 1000 1000 1000 1000 1000 1000 1000 1000 1000 1000 1000 1000 1000 986 966 925 898 833 822 779 752 689 663 620 639 618 616 620 621 604 608 591 582 571 550 505 504 485 475 451 433 388 362 299 269 193 165 126 132 102 88 49 37 -2 -24 -63 -53 -56 -66 -87 -100 -134 -160 -211 -219 -257 -260 -283 -298 -337 -349 -379 -387 -407 -422 -448 -461 -505 -512 -536 -543 -576 -584 -605 -611 -639 -651 -663 -651 -658 -657 -660 -658 -656 -662 -667 -675 -689 -700 -728 -726 -749 -747 -755 -762 -780 -798 -835 -852 -901 -904 -904 -900 -887 -891 -872 -880 -878 -876 -869 -875 -882 -877 -893 -892 -888 -900 -897 -893 -903 -908 -923 -931 -960 -960 -963 -963 -961 -974 -988 -975 -970 -967 -966 -963 -960 -956 -926 -930 -917 -902 -883 -873 -833 -828 -789 -787 -759 -753 -761 -778 -793 -795 -789 -789 -785 -792 -795 -797 -809 -812 -831 -836 -856 -861 -856 -853 -854 -841 -830 -838 -836 -833 -820 -809 -785 -775 -763 -751 -732 -725 -727 -742 -750 -752 -757 -741 -732 -727 -711 -701 -676 -674 -644 -631 -581 -573 -555 -572 -578 -571 -578 -574 -570 -567 -573 -590 -612 -625 -653 -648 -664 -672 -673 -670 -672 -684 -705 -701 -705 -714 -749 -757 -792 -805 -840 -864 -925 -940 -963 -948 -946 -956 -965 -955 -971 -959 -945 -946 -935 -922 -907 -897 -875 -867 -869 -880 -878 -880 -874 -859 -832 -832 -804 -801 -775 -783 -787 -782 -788 -808 -822 -821 -847 -850 -878 -892 -940 -947 -986 -972 -983 -984 -984 -998 -1000 -1000 -1000 -1000 -1000 -1000
921 927 937 958 979 976 982 994 1000 1000 1000 1000 1000 1000 1000 1000 1000 1000 1000 1000 1000 1000 1000 1000 1000 1000 1000 1000 1000 1000 1000 1000 1000 1000 1000 1000 1000 1000 1000 1000 1000 1000 1000 1000 1000 1000 1000 1000 1000 1000 1000 1000 1000 1000 1000 1000 1000 1000 1000 1000 1000 1000 1000 1000 1000 1000 1000 1000 1000 1000 1000 1000 1000 1000 1000 1000 1000 1000 1000 1000 1000 1000 1000 1000 1000 1000 1000 1000 1000 1000 1000 1000 1000 1000 1000 1000 1000 1000 1000 1000 1000 1000 1000 1000 1000 1000 1000 1000 1000 1000 1000 1000 1000 1000 1000 1000 1000 1000 1000 1000 1000 1000 1000 1000 1000 1000 1000 1000 1000 1000 1000 1000 1000 1000 1000 1000 1000 1000 1000 1000 1000 1000 1000 1000 1000 1000 1000 1000 1000 1000 1000 1000 1000 1000 1000 1000 1000 1000 1000 1000 1000 1000 1000 1000 1000 1000 1000 1000 1000 1000 1000 1000 1000 1000 1000 1000 1000 1000 1000 1000 1000 1000 1000 1000 1000 1000 1000 1000 1000 1000 1000 1000 1000 1000 1000 1000 1000 1000 1000 1000 1000 1000 1000 1000 1000 1000 1000 1000 1000 1000 1000 1000 1000 1000 1000 1000 1000 1000 1000 1000 1000 1000 1000 1000 1000 1000 1000 1000 1000 1000 1000 1000 1000 1000 989 970 945 911 872 830 796 760 718 676 605 624 626 642 668 646 641 638 644 614 590 566 530 518 500 498 503 456 419 402 397 322 258 200 129 133 127 122 126 69 25 0 -40 -44 -55 -55 -43 -74 -94 -128 -170 -195 -225 -234 -237 -277 -312 -334 -361 -377 -408 -402 -402 -437 -467 -488 -513 -537 -560 -574 -589 -603 -615 -637 -670 -653 -643 -632 -614 -629 -637 -630 -617 -632 -643 -652 -676 -683 -698 -705 -716 -725 -740 -741 -746 -794 -830 -858 -887 -879 -886 -879 -886 -875 -875 -873 -884 -872 -870 -879 -891 -896 -901 -903 -920 -907 -897 -907 -913 -926 -934 -957 -981 -973 -981 -982 -1000 -995 -985 -979 -970 -972 -968 -971 -971 -954 -943 -927 -912 -891 -861 -855 -850 -811 -783 -772 -747 -779 -799 -805 -820 -810 -811 -803 -798 -800 -805 -807 -812 -825 -837 -850 -879 -856 -849 -846 -841 -835 -839 -837 -846 -818 -803 -777 -751 -742 -726 -713 -690 -710 -729 -726 -736 -720 -708 -699 -691 -679 -666 -652 -639 -620 -598 -563 -518 -534 -546 -545 -541 -546 -550 -538 -507 -552 -572 -599 -626 -631 -637 -655 -679 -671 -668 -673 -678 -690 -693 -699 -697 -734 -763 -777 -778 -831 -874 -922 -980 -969 -969 -963 -968 -955 -945 -955 -956 -938 -926 -922 -929 -900 -877 -864 -833 -863 -875 -881 -899 -874 -859 -854 -862 -822 -806 -797 -802 -793 -788 -799 -828 -825 -832 -834 -830 -868 -909 -932 -968 -960 -970 -964 -953 -976 -999 -1000 -1000 -1000 -1000 -1000 -1000
926 937 950 974 965 977 995 1000 1000 1000 1000 1000 1000 1000 1000 1000 1000 1000 1000 1000 1000 1000 1000 1000 1000 1000 1000 1000 1000 1000 1000 1000 1000 1000 1000 1000 1000 1000 1000 1000 1000 1000 1000 1000 1000 1000 1000 1000 1000 1000 1000 1000 1000 1000 1000 1000 1000 1000 1000 1000 1000 1000 1000 1000 1000 1000 1000 1000 1000 1000 1000 1000 1000 1000 1000 1000 1000 1000 1000 1000 1000 1000 1000 1000 1000 1000 1000 1000 1000 1000 1000 1000 1000 1000 1000 1000 1000 1000 1000 1000 1000 1000 1000 1000 1000 1000 1000 1000 1000 1000 1000 1000 1000 1000 1000 1000 1000 1000 1000 1000 1000 1000 1000 1000 1000 1000 1000 1000 1000 1000 1000 1000 1000 1000 1000 1000 1000 1000 1000 1000 1000 1000 1000 1000 1000 1000 1000 1000 1000 1000 1000 1000 1000 1000 1000 1000 1000 1000 1000 1000 1000 1000 1000 1000 1000 1000 1000 1000 1000 1000 1000 1000 1000 1000 1000 1000 1000 1000 1000 1000 1000 1000 1000 1000 1000 1000 1000 1000 1000 1000 1000 1000 1000 1000 1000 1000 1000 1000 1000 1000 1000 1000 1000 1000 1000 1000 1000 1000 1000 1000 1000 1000 1000 1000 1000 1000 1000 1000 1000 1000 1000 1000 1000 1000 1000 1000 1000 1000 1000 1000 1000 1000 1000 1000 992 962 947 904 874 822 810 750 742 692 693 646 646 658 651 657 672 664 652 634 610 573 571 539 520 507 485 453 443 404 386 334 311 222 220 150 136 133 110 76 66 16 13 -20 -46 -67 -66 -72 -77 -115 -124 -174 -188 -220 -238 -277 -282 -328 -328 -360 -378 -392 -408 -432 -440 -469 -489 -541 -549 -572 -586 -605 -607 -625 -620 -637 -628 -615 -620 -608 -609 -611 -609 -604 -598 -601 -607 -630 -639 -660 -671 -690 -693 -700 -723 -767 -773 -814 -815 -840 -859 -859 -866 -867 -866 -857 -863 -867 -872 -875 -881 -902 -898 -904 -904 -914 -913 -916 -925 -936 -938 -955 -954 -969 -982 -982 -989 -1000 -1000 -991 -992 -987 -987 -988 -985 -979 -971 -938 -932 -908 -894 -876 -859 -825 -827 -802 -810 -810 -804 -811 -812 -821 -824 -820 -817 -802 -804 -805 -805 -820 -816 -830 -828 -842 -850 -843 -831 -830 -824 -830 -819 -806 -799 -772 -765 -728 -724 -704 -702 -696 -689 -689 -686 -680 -677 -667 -667 -650 -642 -627 -624 -600 -588 -555 -554 -517 -512 -517 -516 -516 -519 -528 -539 -557 -559 -587 -583 -609 -621 -641 -646 -666 -674 -677 -680 -687 -689 -702 -712 -728 -742 -777 -794 -835 -852 -910 -913 -967 -974 -972 -964 -944 -947 -949 -937 -927 -921 -901 -901 -887 -886 -874 -879 -875 -870 -873 -868 -866 -868 -863 -846 -817 -819 -805 -796 -795 -790 -793 -796 -818 -825 -830 -838 -858 -876 -913 -902 -918 -935 -952 -958 -969 -973 -990 -1000 -1000 -1000 -1000 -1000
922 937 969 973 972 992 1000 1000 1000 1000 1000 1000 1000 1000 1000 1000 1000 1000 1000 1000 1000 1000 1000 1000 1000 1000 1000 1000 1000 1000 1000 1000 1000 1000 1000 1000 1000 1000 1000 1000 1000 1000 1000 1000 1000 1000 1000 1000 1000 1000 1000 1000 1000 1000 1000 1000 1000 1000 1000 1000 1000 1000 1000 1000 1000 1000 1000 1000 1000 1000 1000 1000 1000 1000 1000 1000 1000 1000 1000 1000 1000 1000 1000 1000 1000 1000 1000 1000 1000 1000 1000 1000 1000 1000 1000 1000 1000 1000 1000 1000 1000 1000 1000 1000 1000 1000 1000 1000 1000 1000 1000 1000 1000 1000 1000 1000 1000 1000 1000 1000 1000 1000 1000 1000 1000 1000 1000 1000 1000 1000 1000 1000 1000 1000 1000 1000 1000 1000 1000 1000 1000 1000 1000 1000 1000 1000 1000 1000 1000 1000 1000 1000 1000 1000 1000 1000 1000 1000 1000 1000 1000 1000 1000 1000 1000 1000 1000 1000 1000 1000 1000 1000 1000 1000 1000 1000 1000 1000 1000 1000 1000 1000 1000 1000 1000 1000 1000 1000 1000 1000 1000 1000 1000 1000 1000 1000 1000 1000 1000 1000 1000 1000 1000 1000 1000 1000 1000 1000 1000 1000 1000 1000 1000 1000 1000 1000 1000 1000 1000 1000 1000 1000 1000 1000 1000 1000 1000 1000 1000 1000 1000 1000 1000 995 980 953 936 881 826 806 797 752 730 714 718 681 675 665 663 675 699 683 672 637 592 592 582 551 505 499 481 446 412 397 389 334 293 258 251 181 135 123 104 76 49 37 31 -16 -58 -61 -73 -78 -80 -102 -116 -154 -188 -208 -230 -263 -289 -302 -312 -354 -399 -396 -401 -431 -458 -471 -481 -531 -573 -594 -609 -613 -609 -608 -606 -607 -590 -605 -616 -609 -606 -595 -586 -580 -572 -562 -555 -579 -591 -620 -636 -652 -669 -678 -688 -728 -765 -776 -776 -815 -852 -843 -852 -852 -857 -847 -853 -858 -863 -870 -879 -891 -897 -898 -899 -904 -903 -926 -951 -948 -948 -957 -960 -974 -996 -993 -988 -999 -1000 -1000 -1000 -1000 -1000 -1000 -1000 -1000 -996 -964 -941 -910 -880 -879 -875 -842 -832 -833 -846 -838 -848 -833 -820 -827 -836 -836 -836 -819 -811 -803 -792 -803 -802 -805 -803 -818 -837 -818 -805 -800 -797 -801 -801 -785 -774 -756 -760 -728 -715 -691 -685 -680 -683 -666 -648 -643 -628 -640 -644 -626 -600 -607 -606 -581 -558 -542 -548 -511 -498 -490 -485 -491 -491 -511 -524 -555 -585 -579 -566 -596 -610 -632 -640 -661 -677 -675 -688 -687 -692 -705 -727 -742 -767 -789 -803 -845 -886 -898 -902 -948 -980 -971 -974 -951 -930 -934 -927 -922 -901 -896 -890 -877 -855 -873 -893 -890 -899 -880 -859 -857 -847 -850 -847 -822 -793 -786 -781 -777 -771 -777 -788 -808 -826 -828 -832 -862 -904 -893 -871 -899 -903 -932 -944 -963 -982 -987 -988 -1000 -1000 -1000 -1000
906 921 945 980 983 1000 1000 1000 1000 1000 1000 1000 1000 1000 1000 1000 1000 1000 1000 1000 1000 1000 1000 1000 1000 1000 1000 1000 1000 1000 1000 1000 1000 1000 1000 1000 1000 1000 1000 1000 1000 1000 1000 1000 1000 1000 1000 1000 1000 1000 1000 1000 1000 1000 1000 1000 1000 1000 1000 1000 1000 1000 1000 1000 1000 1000 1000 1000 1000 1000 1000 1000 1000 1000 1000 1000 1000 1000 1000 1000 1000 1000 1000 1000 1000 1000 1000 1000 1000 1000 1000 1000 1000 1000 1000 1000 1000 1000 1000 1000 1000 1000 1000 1000 1000 1000 1000 1000 1000 1000 1000 1000 1000 1000 1000 1000 1000 1000 1000 1000 1000 1000 1000 1000 1000 1000 1000 1000 1000 1000 1000 1000 1000 1000 1000 1000 1000 1000 1000 1000 1000 1000 1000 1000 1000 1000 1000 1000 1000 1000 1000 1000 1000 1000 1000 1000 1000 1000 1000 1000 1000 1000 1000 1000 1000 1000 1000 1000 1000 1000 1000 1000 1000 1000 1000 1000 1000 1000 1000 1000 1000 1000 1000 1000 1000 1000 1000 1000 1000 1000 1000 1000 1000 1000 1000 1000 1000 1000 1000 1000 1000 1000 1000 1000 1000 1000 1000 1000 1000 1000 1000 1000 1000 1000 1000 1000 1000 1000 1000 1000 1000 1000 1000 1000 1000 1000 1000 1000 1000 1000 1000 1000 1000 970 973 937 913 860 845 779 756 732 740 718 712 687 688 664 674 684 687 700 685 652 651 624 605 578 556 506 482 439 431 383 366 323 320 266 242 189 188 123 110 76 80 53 22 -20 -13 -46 -67 -89 -87 -99 -107 -138 -146 -197 -219 -258 -252 -281 -300 -345 -348 -393 -413 -433 -439 -479 -499 -529 -551 -624 -632 -632 -611 -595 -599 -597 -599 -600 -599 -606 -591 -577 -563 -558 -546 -522 -530 -543 -559 -595 -593 -616 -634 -657 -665 -693 -712 -750 -763 -794 -787 -811 -817 -833 -829 -822 -834 -852 -854 -865 -872 -888 -891 -892 -899 -901 -917 -935 -947 -957 -963 -967 -968 -973 -983 -1000 -1000 -1000 -1000 -1000 -1000 -1000 -1000 -1000 -1000 -1000 -1000 -983 -962 -912 -912 -886 -861 -839 -855 -855 -847 -850 -850 -853 -845 -831 -840 -852 -838 -829 -825 -807 -804 -801 -787 -785 -785 -792 -788 -789 -785 -768 -778 -778 -772 -762 -751 -720 -717 -710 -698 -663 -666 -656 -653 -647 -635 -619 -624 -623 -619 -613 -612 -595 -583 -562 -546 -508 -502 -483 -489 -461 -457 -473 -486 -504 -518 -557 -554 -578 -592 -600 -606 -640 -640 -662 -650 -658 -670 -682 -688 -699 -717 -748 -773 -810 -824 -857 -858 -897 -912 -943 -942 -961 -966 -956 -953 -930 -936 -936 -921 -892 -890 -879 -880 -870 -877 -895 -894 -889 -886 -859 -858 -844 -843 -833 -812 -768 -765 -762 -765 -758 -771 -800 -801 -825 -830 -857 -863 -886 -896 -905 -906 -932 -929 -957 -967 -991 -1000 -1000 -1000 -1000 -1000
876 927 957 979 983 1000 1000 1000 1000 1000 1000 1000 1000 1000 1000 1000 1000 1000 1000 1000 1000 1000 1000 1000 1000 1000 1000 1000 1000 1000 1000 1000 1000 1000 1000 1000 1000 1000 1000 1000 1000 1000 1000 1000 1000 1000 1000 1000 1000 1000 1000 1000 1000 1000 1000 1000 1000 1000 1000 1000 1000 1000 1000 1000 1000 1000 1000 1000 1000 1000 1000 1000 1000 1000 1000 1000 1000 1000 1000 1000 1000 1000 1000 1000 1000 1000 1000 1000 1000 1000 1000 1000 1000 1000 1000 1000 1000 1000 1000 1000 1000 1000 1000 1000 1000 1000 1000 1000 1000 1000 1000 1000 1000 1000 1000 1000 1000 1000 1000 1000 1000 1000 1000 1000 1000 1000 1000 1000 1000 1000 1000 1000 1000 1000 1000 1000 1000 1000 1000 1000 1000 1000 1000 1000 1000 1000 1000 1000 1000 1000 1000 1000 1000 1000 1000 1000 1000 1000 1000 1000 1000 1000 1000 1000 1000 1000 1000 1000 1000 1000 1000 1000 1000 1000 1000 1000 1000 1000 1000 1000 1000 1000 1000 1000 1000 1000 1000 1000 1000 1000 1000 1000 1000 1000 1000 1000 1000 1000 1000 1000 1000 1000 1000 1000 1000 1000 1000 1000 1000 1000 1000 1000 1000 1000 1000 1000 1000 1000 1000 1000 1000 1000 1000 1000 1000 1000 1000 1000 1000 1000 1000 1000 956 968 958 926 875 850 806 766 688 724 714 719 713 697 685 682 675 694 702 699 690 668 657 639 627 595 561 526 480 455 424 393 348 333 302 273 221 209 190 151 106 103 88 58 7 4 -20 -35 -76 -75 -87 -92 -114 -118 -136 -175 -234 -226 -239 -253 -286 -314 -344 -373 -428 -421 -446 -475 -531 -537 -573 -618 -701 -629 -609 -591 -598 -588 -594 -592 -600 -579 -565 -543 -513 -520 -521 -504 -483 -520 -544 -560 -571 -597 -628 -636 -644 -676 -718 -729 -743 -756 -767 -771 -773 -802 -811 -810 -808 -833 -847 -862 -872 -887 -906 -902 -908 -916 -936 -953 -993 -969 -978 -976 -985 -980 -994 -1000 -1000 -1000 -1000 -1000 -1000 -1000 -1000 -1000 -1000 -1000 -999 -973 -959 -930 -911 -883 -839 -850 -851 -852 -854 -851 -854 -854 -851 -851 -859 -852 -838 -838 -831 -814 -797 -790 -773 -769 -763 -769 -768 -761 -748 -756 -763 -760 -753 -739 -721 -702 -667 -677 -660 -649 -633 -636 -625 -617 -594 -603 -608 -613 -614 -599 -597 -583 -578 -545 -508 -492 -460 -471 -467 -445 -396 -458 -482 -503 -522 -539 -557 -570 -605 -599 -620 -626 -650 -639 -643 -648 -664 -674 -685 -707 -732 -766 -808 -825 -864 -865 -875 -895 -925 -942 -965 -961 -968 -955 -954 -947 -950 -941 -929 -915 -889 -893 -883 -890 -890 -898 -901 -900 -897 -883 -873 -860 -851 -830 -801 -775 -740 -757 -759 -759 -755 -781 -793 -805 -812 -851 -880 -887 -889 -906 -918 -922 -925 -951 -977 -989 -1000 -1000 -1000 -1000 -1000
928 957 958 997 995 1000 1000 1000 1000 1000 1000 1000 1000 1000 1000 1000 1000 1000 1000 1000 1000 1000 1000 1000 1000 1000 1000 1000 1000 1000 1000 1000 1000 1000 1000 1000 1000 1000 1000 1000 1000 1000 1000 1000 1000 1000 1000 1000 1000 1000 1000 1000 1000 1000 1000 1000 1000 1000 1000 1000 1000 1000 1000 1000 1000 1000 1000 1000 1000 1000 1000 1000 1000 1000 1000 1000 1000 1000 1000 1000 1000 1000 1000 1000 1000 1000 1000 1000 1000 1000 1000 1000 1000 1000 1000 1000 1000 1000 1000 1000 1000 1000 1000 1000 1000 1000 1000 1000 1000 1000 1000 1000 1000 1000 1000 1000 1000 1000 1000 1000 1000 1000 1000 1000 1000 1000 1000 1000 1000 1000 1000 1000 1000 1000 1000 1000 1000 1000 1000 1000 1000 1000 1000 1000 1000 1000 1000 1000 1000 1000 1000 1000 1000 1000 1000 1000 1000 1000 1000 1000 1000 1000 1000 1000 1000 1000 1000 1000 1000 1000 1000 1000 1000 1000 1000 1000 1000 1000 1000 1000 1000 1000 1000 1000 1000 1000 1000 1000 1000 1000 1000 1000 1000 1000 1000 1000 1000 1000 1000 1000 1000 1000 1000 1000 1000 1000 1000 1000 1000 1000 1000 1000 1000 1000 1000 1000 1000 1000 1000 1000 1000 1000 1000 1000 1000 1000 1000 1000 1000 1000 1000 1000 1000 989 965 936 921 861 841 793 801 763 738 734 724 705 711 706 713 717 700 704 700 676 673 649 649 614 598 558 539 480 459 420 414 362 340 306 289 236 225 186 187 144 121 85 90 52 36 -1 -5 -48 -58 -71 -72 -86 -96 -134 -130 -174 -190 -206 -229 -281 -290 -328 -331 -379 -404 -444 -459 -516 -537 -575 -555 -574 -592 -564 -574 -565 -572 -577 -561 -548 -542 -518 -516 -491 -493 -493 -504 -513 -505 -530 -540 -575 -588 -615 -622 -649 -669 -706 -707 -723 -725 -734 -757 -791 -792 -799 -812 -828 -836 -864 -861 -884 -891 -903 -905 -919 -929 -948 -939 -950 -966 -976 -970 -969 -981 -993 -1000 -1000 -1000 -1000 -1000 -1000 -1000 -1000 -1000 -993 -986 -953 -961 -938 -930 -899 -901 -872 -860 -851 -852 -848 -857 -861 -863 -864 -861 -859 -859 -854 -838 -821 -815 -790 -779 -757 -761 -754 -745 -740 -743 -746 -738 -746 -736 -720 -716 -703 -697 -672 -661 -641 -645 -633 -625 -603 -606 -591 -598 -609 -591 -575 -577 -565 -556 -533 -520 -495 -494 -475 -467 -459 -476 -483 -475 -504 -500 -522 -525 -540 -548 -571 -587 -597 -601 -604 -616 -629 -642 -668 -684 -713 -729 -778 -790 -821 -830 -867 -870 -884 -901 -937 -940 -953 -948 -945 -949 -957 -954 -952 -957 -952 -944 -921 -916 -918 -907 -907 -907 -915 -905 -903 -893 -873 -863 -836 -825 -793 -793 -770 -762 -765 -768 -776 -775 -790 -812 -855 -860 -895 -895 -914 -908 -915 -921 -947 -946 -968 -983 -1000 -1000 -1000 -1000
952 976 1000 1000 1000 1000 1000 1000 1000 1000 1000 1000 1000 1000 1000 1000 1000 1000 1000 1000 1000 1000 1000 1000 1000 1000 1000 1000 1000 1000 1000 1000 1000 1000 1000 1000 1000 1000 1000 1000 1000 1000 1000 1000 1000 1000 1000 1000 1000 1000 1000 1000 1000 1000 1000 1000 1000 1000 1000 1000 1000 1000 1000 1000 1000 1000 1000 1000 1000 1000 1000 1000 1000 1000 1000 1000 1000 1000 1000 1000 1000 1000 1000 1000 1000 1000 1000 1000 1000 1000 1000 1000 1000 1000 1000 1000 1000 1000 1000 1000 1000 1000 1000 1000 1000 1000 1000 1000 1000 1000 1000 1000 1000 1000 1000 1000 1000 1000 1000 1000 1000 1000 1000 1000 1000 1000 1000 1000 1000 1000 1000 1000 1000 1000 1000 1000 1000 1000 1000 1000 1000 1000 1000 1000 1000 1000 1000 1000 1000 1000 1000 1000 1000 1000 1000 1000 1000 1000 1000 1000 1000 1000 1000 1000 1000 1000 1000 1000 1000 1000 1000 1000 1000 1000 1000 1000 1000 1000 1000 1000 1000 1000 1000 1000 1000 1000 1000 1000 1000 1000 1000 1000 1000 1000 1000 1000 1000 1000 1000 1000 1000 1000 1000 1000 1000 1000 1000 1000 1000 1000 1000 1000 1000 1000 1000 1000 1000 1000 1000 1000 1000 1000 1000 1000 1000 1000 1000 1000 1000 1000 1000 1000 1000 1000 982 954 931 881 835 837 845 802 767 755 745 731 720 737 746 735 707 719 719 702 679 679 676 636 593 577 559 507 457 451 451 400 347 327 314 279 260 240 231 188 151 135 135 104 86 59 47 0 -38 -38 -45 -46 -50 -71 -77 -115 -149 -170 -192 -235 -265 -279 -276 -328 -367 -407 -432 -482 -529 -515 -498 -513 -531 -537 -561 -545 -550 -537 -527 -512 -502 -495 -493 -484 -477 -482 -491 -496 -494 -504 -512 -551 -591 -594 -597 -633 -680 -679 -683 -694 -700 -717 -736 -772 -806 -801 -813 -832 -847 -854 -851 -876 -907 -897 -892 -915 -942 -933 -924 -939 -947 -957 -957 -972 -980 -999 -1000 -1000 -1000 -1000 -1000 -1000 -1000 -1000 -972 -960 -937 -943 -957 -936 -926 -919 -922 -897 -879 -868 -861 -861 -866 -868 -873 -871 -873 -868 -867 -857 -840 -828 -818 -792 -773 -764 -761 -743 -726 -725 -721 -727 -714 -727 -716 -708 -690 -697 -694 -677 -667 -651 -646 -635 -631 -613 -605 -594 -599 -586 -575 -558 -556 -545 -531 -512 -476 -482 -499 -483 -475 -485 -498 -507 -519 -511 -493 -512 -517 -524 -524 -553 -577 -579 -584 -581 -581 -605 -630 -660 -694 -718 -743 -785 -831 -824 -824 -853 -866 -891 -911 -930 -947 -936 -932 -931 -929 -948 -955 -968 -976 -972 -974 -952 -938 -929 -921 -921 -919 -910 -904 -904 -900 -882 -871 -847 -823 -810 -810 -789 -773 -772 -774 -778 -782 -798 -813 -848 -878 -894 -894 -913 -915 -913 -905 -932 -944 -966 -973 -1000 -1000 -1000 -1000
975 994 992 1000 1000 1000 1000 1000 1000 1000 1000 1000 1000 1000 1000 1000 1000 1000 1000 1000 1000 1000 1000 1000 1000 1000 1000 1000 1000 1000 1000 1000 1000 1000 1000 1000 1000 1000 1000 1000 1000 1000 1000 1000 1000 1000 1000 1000 1000 1000 1000 1000 1000 1000 1000 1000 1000 1000 1000 1000 1000 1000 1000 1000 1000 1000 1000 1000 1000 1000 1000 1000 1000 1000 1000 1000 1000 1000 1000 1000 1000 1000 1000 1000 1000 1000 1000 1000 1000 1000 1000 1000 1000 1000 1000 1000 1000 1000 1000 1000 1000 1000 1000 1000 1000 1000 1000 1000 1000 1000 1000 1000 1000 1000 1000 1000 1000 1000 1000 1000 1000 1000 1000 1000 1000 1000 1000 1000 1000 1000 1000 1000 1000 1000 1000 1000 1000 1000 1000 1000 1000 1000 1000 1000 1000 1000 1000 1000 1000 1000 1000 1000 1000 1000 1000 1000 1000 1000 1000 1000 1000 1000 1000 1000 1000 1000 1000 1000 1000 1000 1000 1000 1000 1000 1000 1000 1000 1000 1000 1000 1000 1000 1000 1000 1000 1000 1000 1000 1000 1000 1000 1000 1000 1000 1000 1000 1000 1000 1000 1000 1000 1000 1000 1000 1000 1000 1000 1000 1000 1000 1000 1000 1000 1000 1000 1000 1000 1000 1000 1000 1000 1000 1000 1000 1000 1000 1000 1000 1000 1000 1000 1000 1000 1000 1000 969 951 900 907 876 862 836 821 776 765 755 766 776 769 773 765 749 741 734 732 715 700 664 645 599 572 534 522 476 473 441 411 343 324 307 305 284 276 228 216 170 156 144 135 105 91 41 38 0 -5 -4 -14 -26 -33 -63 -85 -133 -152 -203 -209 -249 -258 -293 -314 -386 -402 -453 -437 -458 -460 -452 -466 -494 -488 -506 -503 -497 -495 -472 -476 -467 -470 -477 -475 -468 -478 -486 -484 -481 -496 -527 -534 -575 -580 -607 -614 -649 -666 -670 -680 -700 -713 -757 -757 -788 -815 -841 -837 -855 -852 -865 -866 -887 -898 -910 -910 -921 -925 -938 -938 -949 -957 -984 -988 -1000 -1000 -1000 -1000 -1000 -1000 -1000 -1000 -986 -975 -940 -936 -926 -922 -924 -931 -931 -924 -915 -903 -883 -873 -870 -874 -873 -878 -874 -878 -874 -880 -867 -856 -834 -821 -788 -787 -766 -755 -732 -734 -715 -723 -729 -726 -735 -727 -707 -708 -701 -693 -675 -672 -651 -652 -631 -630 -615 -606 -582 -579 -564 -551 -529 -536 -529 -528 -510 -493 -459 -462 -484 -496 -511 -513 -528 -517 -528 -526 -516 -509 -518 -524 -542 -544 -561 -557 -555 -570 -582 -602 -649 -669 -723 -747 -791 -791 -823 -834 -856 -872 -903 -916 -928 -920 -914 -917 -920 -933 -951 -965 -990 -982 -986 -983 -977 -963 -940 -939 -937 -922 -904 -910 -912 -899 -884 -877 -860 -847 -817 -819 -803 -796 -776 -773 -781 -792 -809 -819 -846 -866 -910 -922 -930 -920 -918 -920 -934 -949 -982 -997 -1000 -1000 -1000 -1000
979 992 1000 1000 1000 1000 1000 1000 1000 1000 1000 1000 1000 1000 1000 1000 1000 1000 1000 1000 1000 1000 1000 1000 1000 1000 1000 1000 1000 1000 1000 1000 1000 1000 1000 1000 1000 1000 1000 1000 1000 1000 1000 1000 1000 1000 1000 1000 1000 1000 1000 1000 1000 1000 1000 1000 1000 1000 1000 1000 1000 1000 1000 1000 1000 1000 1000 1000 1000 1000 1000 1000 1000 1000 1000 1000 1000 1000 1000 1000 1000 1000 1000 1000 1000 1000 1000 1000 1000 1000 1000 1000 1000 1000 1000 1000 1000 1000 1000 1000 1000 1000 1000 1000 1000 1000 1000 1000 1000 1000 1000 1000 1000 1000 1000 1000 1000 1000 1000 1000 1000 1000 1000 1000 1000 1000 1000 1000 1000 1000 1000 1000 1000 1000 1000 1000 1000 1000 1000 1000 1000 1000 1000 1000 1000 1000 1000 1000 1000 1000 1000 1000 1000 1000 1000 1000 1000 1000 1000 1000 1000 1000 1000 1000 1000 1000 1000 1000 1000 1000 1000 1000 1000 1000 1000 1000 1000 1000 1000 1000 1000 1000 1000 1000 1000 1000 1000 1000 1000 1000 1000 1000 1000 1000 1000 1000 1000 1000 1000 1000 1000 1000 1000 1000 1000 1000 1000 1000 1000 1000 1000 1000 1000 1000 1000 1000 1000 1000 1000 1000 1000 1000 1000 1000 1000 1000 1000 1000 1000 1000 1000 1000 1000 1000 1000 985 954 941 923 912 904 866 830 805 765 785 791 801 807 800 795 786 776 773 763 751 744 692 644 614 562 549 519 513 520 461 409 365 302 320 315 321 333 278 237 206 160 171 156 141 133 92 64 41 22 22 17 3 4 -35 -70 -94 -123 -159 -192 -213 -226 -262 -303 -351 -405 -402 -406 -406 -401 -416 -420 -430 -424 -443 -450 -456 -461 -452 -441 -443 -434 -456 -464 -466 -481 -477 -478 -478 -483 -511 -525 -544 -548 -580 -606 -632 -668 -660 -669 -679 -698 -726 -748 -779 -826 -827 -840 -843 -842 -853 -863 -875 -889 -906 -918 -914 -900 -930 -942 -950 -951 -984 -1000 -1000 -1000 -1000 -1000 -1000 -1000 -1000 -997 -973 -943 -928 -908 -907 -902 -908 -912 -914 -925 -905 -894 -879 -860 -877 -893 -893 -900 -889 -892 -890 -906 -879 -858 -838 -822 -794 -779 -763 -751 -736 -730 -723 -724 -721 -719 -734 -752 -720 -711 -701 -709 -679 -671 -659 -661 -635 -629 -609 -597 -580 -568 -546 -514 -519 -514 -518 -518 -502 -475 -455 -429 -473 -493 -509 -538 -522 -517 -524 -543 -524 -511 -516 -520 -536 -550 -547 -535 -547 -561 -578 -597 -636 -675 -719 -783 -788 -809 -822 -828 -869 -907 -924 -968 -938 -927 -909 -890 -912 -930 -952 -990 -989 -999 -990 -995 -973 -963 -948 -941 -938 -927 -915 -908 -908 -899 -882 -867 -853 -840 -832 -836 -813 -795 -784 -763 -790 -805 -819 -839 -864 -897 -923 -973 -951 -941 -932 -914 -945 -976 -995 -1000 -1000 -1000 -1000 -1000
986 990 994 1000 1000 1000 1000 1000 1000 1000 1000 1000 1000 1000 1000 1000 1000 1000 1000 1000 1000 1000 1000 1000 1000 1000 1000 1000 1000 1000 1000 1000 1000 1000 1000 1000 1000 1000 1000 1000 1000 1000 1000 1000 1000 1000 1000 1000 1000 1000 1000 1000 1000 1000 1000 1000 1000 1000 1000 1000 1000 1000 1000 1000 1000 1000 1000 1000 1000 1000 1000 1000 1000 1000 1000 1000 1000 1000 1000 1000 1000 1000 1000 1000 1000 1000 1000 1000 1000 1000 1000 1000 1000 1000 1000 1000 1000 1000 1000 1000 1000 1000 1000 1000 1000 1000 1000 1000 1000 1000 1000 1000 1000 1000 1000 1000 1000 1000 1000 1000 1000 1000 1000 1000 1000 1000 1000 1000 1000 1000 1000 1000 1000 1000 1000 1000 1000 1000 1000 1000 1000 1000 1000 1000 1000 1000 1000 1000 1000 1000 1000 1000 1000 1000 1000 1000 1000 1000 1000 1000 1000 1000 1000 1000 1000 1000 1000 1000 1000 1000 1000 1000 1000 1000 1000 1000 1000 1000 1000 1000 1000 1000 1000 1000 1000 1000 1000 1000 1000 1000 1000 1000 1000 1000 1000 1000 1000 1000 1000 1000 1000 1000 1000 1000 1000 1000 1000 1000 1000 1000 1000 1000 1000 1000 1000 1000 1000 1000 1000 1000 1000 1000 1000 1000 1000 1000 1000 1000 1000 1000 1000 1000 1000 1000 1000 1000 1000 988 972 947 932 895 883 851 849 829 825 833 828 828 828 826 821 819 808 782 767 718 707 651 639 584 565 539 517 474 467 406 404 357 344 352 334 317 303 260 255 225 200 173 165 133 121 79 82 56 37 17 14 -11 -18 -52 -70 -118 -135 -185 -194 -229 -256 -312 -302 -347 -360 -360 -375 -392 -386 -384 -390 -392 -400 -417 -423 -436 -434 -430 -439 -450 -450 -452 -454 -463 -468 -473 -484 -511 -510 -528 -534 -561 -571 -607 -608 -633 -640 -649 -669 -702 -714 -755 -762 -803 -817 -835 -842 -843 -851 -864 -881 -909 -914 -917 -932 -941 -942 -958 -966 -995 -993 -1000 -1000 -1000 -1000 -1000 -1000 -1000 -996 -968 -957 -921 -912 -894 -893 -897 -886 -890 -889 -889 -891 -879 -888 -888 -890 -908 -896 -893 -893 -890 -885 -885 -874 -841 -826 -787 -784 -757 -759 -732 -731 -723 -721 -712 -724 -733 -714 -712 -710 -683 -679 -663 -669 -654 -645 -619 -616 -596 -592 -574 -568 -539 -545 -522 -514 -512 -510 -505 -490 -460 -480 -488 -476 -497 -491 -508 -515 -508 -514 -526 -522 -517 -524 -533 -531 -545 -540 -538 -544 -572 -579 -625 -646 -695 -708 -770 -794 -830 -844 -888 -890 -920 -908 -929 -926 -907 -914 -911 -913 -940 -944 -978 -986 -980 -977 -957 -959 -948 -953 -950 -938 -924 -922 -913 -895 -881 -876 -845 -845 -835 -831 -818 -817 -804 -815 -813 -810 -826 -842 -875 -881 -912 -922 -960 -963 -956 -954 -956 -956 -987 -1000 -1000 -1000 -1000 -1000
991 990 987 1000 1000 1000 1000 1000 1000 1000 1000 1000 1000 1000 1000 1000 1000 1000 1000 1000 1000 1000 1000 1000 1000 1000 1000 1000 1000 1000 1000 1000 1000 1000 1000 1000 1000 1000 1000 1000 1000 1000 1000 1000 1000 1000 1000 1000 1000 1000 1000 1000 1000 1000 1000 1000 1000 1000 1000 1000 1000 1000 1000 1000 1000 1000 1000 1000 1000 1000 1000 1000 1000 1000 1000 1000 1000 1000 1000 1000 1000 1000 1000 1000 1000 1000 1000 1000 1000 1000 1000 1000 1000 1000 1000 1000 1000 1000 1000 1000 1000 1000 1000 1000 1000 1000 1000 1000 1000 1000 1000 1000 1000 1000 1000 1000 1000 1000 1000 1000 1000 1000 1000 1000 1000 1000 1000 1000 1000 1000 1000 1000 1000 1000 1000 1000 1000 1000 1000 1000 1000 1000 1000 1000 1000 1000 1000 1000 1000 1000 1000 1000 1000 1000 1000 1000 1000 1000 1000 1000 1000 1000 1000 1000 1000 1000 1000 1000 1000 1000 1000 1000 1000 1000 1000 1000 1000 1000 1000 1000 1000 1000 1000 1000 1000 1000 1000 1000 1000 1000 1000 1000 1000 1000 1000 1000 1000 1000 1000 1000 1000 1000 1000 1000 1000 1000 1000 1000 1000 1000 1000 1000 1000 1000 1000 1000 1000 1000 1000 1000 1000 1000 1000 1000 1000 1000 1000 1000 1000 1000 1000 1000 1000 1000 1000 1000 1000 1000 999 983 964 930 884 881 887 872 874 865 862 857 851 852 844 850 856 829 808 763 718 694 680 623 578 560 539 498 469 447 445 397 366 361 354 329 305 296 301 264 245 216 198 164 140 127 132 89 54 43 33 10 -13 -32 -42 -87 -115 -153 -170 -212 -257 -260 -246 -295 -331 -335 -342 -353 -367 -365 -367 -369 -367 -382 -392 -408 -410 -422 -438 -449 -464 -445 -440 -447 -455 -461 -477 -496 -520 -519 -522 -544 -568 -581 -586 -602 -610 -633 -659 -681 -704 -727 -742 -779 -807 -832 -852 -851 -855 -871 -891 -917 -941 -940 -952 -957 -972 -965 -969 -989 -1000 -1000 -1000 -1000 -1000 -1000 -1000 -981 -951 -946 -944 -910 -892 -885 -876 -874 -858 -863 -866 -868 -872 -881 -893 -894 -906 -905 -893 -894 -890 -885 -873 -869 -866 -835 -820 -789 -770 -762 -770 -738 -720 -717 -719 -715 -728 -713 -695 -693 -693 -671 -662 -650 -650 -640 -636 -606 -590 -577 -570 -564 -562 -550 -554 -529 -509 -511 -509 -498 -479 -480 -500 -488 -491 -486 -468 -493 -509 -503 -505 -507 -505 -518 -535 -531 -528 -529 -527 -534 -532 -552 -560 -612 -669 -684 -693 -748 -795 -826 -851 -889 -927 -906 -878 -900 -903 -902 -911 -907 -914 -926 -929 -960 -996 -977 -972 -956 -939 -946 -952 -949 -940 -931 -924 -907 -881 -883 -879 -855 -834 -838 -832 -824 -811 -829 -848 -839 -838 -851 -865 -888 -899 -916 -921 -951 -965 -965 -965 -969 -970 -991 -1000 -1000 -1000 -1000 -1000
988 994 990 996 1000 1000 1000 1000 1000 1000 1000 1000 1000 1000 1000 1000 1000 1000 1000 1000 1000 1000 1000 1000 1000 1000 1000 1000 1000 1000 1000 1000 1000 1000 1000 1000 1000 1000 1000 1000 1000 1000 1000 1000 1000 1000 1000 1000 1000 1000 1000 1000 1000 1000 1000 1000 1000 1000 1000 1000 1000 1000 1000 1000 1000 1000 1000 1000 1000 1000 1000 1000 1000 1000 1000 1000 1000 1000 1000 1000 1000 1000 1000 1000 1000 1000 1000 1000 1000 1000 1000 1000 1000 1000 1000 1000 1000 1000 1000 1000 1000 1000 1000 1000 1000 1000 1000 1000 1000 1000 1000 1000 1000 1000 1000 1000 1000 1000 1000 1000 1000 1000 1000 1000 1000 1000 1000 1000 1000 1000 1000 1000 1000 1000 1000 1000 1000 1000 1000 1000 1000 1000 1000 1000 1000 1000 1000 1000 1000 1000 1000 1000 1000 1000 1000 1000 1000 1000 1000 1000 1000 1000 1000 1000 1000 1000 1000 1000 1000 1000 1000 1000 1000 1000 1000 1000 1000 1000 1000 1000 1000 1000 1000 1000 1000 1000 1000 1000 1000 1000 1000 1000 1000 1000 1000 1000 1000 1000 1000 1000 1000 1000 1000 1000 1000 1000 1000 1000 1000 1000 1000 1000 1000 1000 1000 1000 1000 1000 1000 1000 1000 1000 1000 1000 1000 1000 1000 1000 1000 1000 1000 1000 1000 1000 1000 1000 1000 1000 1000 1000 1000 977 951 904 904 901 899 893 893 887 888 888 881 884 873 870 855 810 783 727 694 653 637 584 556 513 504 469 447 423 414 374 371 342 339 318 307 286 278 251 232 186 186 158 143 115 107 68 57 34 11 -24 -39 -76 -91 -143 -158 -192 -196 -228 -239 -259 -265 -307 -304 -311 -326 -344 -349 -350 -350 -354 -371 -396 -393 -410 -420 -446 -433 -424 -431 -432 -435 -442 -456 -478 -481 -506 -507 -525 -536 -566 -573 -579 -590 -616 -625 -661 -673 -708 -724 -767 -786 -835 -845 -856 -864 -876 -896 -927 -929 -952 -956 -963 -960 -963 -966 -980 -989 -1000 -1000 -1000 -1000 -1000 -1000 -963 -954 -923 -907 -883 -893 -881 -873 -868 -858 -841 -834 -845 -859 -880 -878 -892 -900 -914 -920 -903 -899 -888 -877 -854 -845 -816 -810 -779 -774 -753 -746 -733 -730 -707 -712 -703 -701 -696 -684 -675 -662 -646 -640 -628 -629 -622 -612 -582 -579 -553 -550 -551 -547 -547 -547 -532 -529 -517 -516 -502 -494 -483 -477 -475 -485 -490 -488 -488 -484 -493 -491 -493 -501 -515 -519 -529 -527 -518 -529 -541 -537 -544 -554 -595 -620 -680 -698 -734 -758 -830 -854 -893 -885 -899 -903 -890 -885 -889 -886 -894 -904 -922 -922 -939 -946 -962 -969 -957 -957 -945 -944 -956 -951 -939 -931 -913 -910 -891 -882 -862 -869 -852 -835 -836 -841 -853 -848 -859 -866 -876 -887 -915 -912 -934 -943 -960 -957 -974 -969 -986 -992 -1000 -1000 -1000 -1000 -1000 -1000
979 983 981 994 1000 1000 1000 1000 1000 1000 1000 1000 1000 1000 1000 1000 985 1000 1000 1000 1000 1000 1000 1000 1000 1000 1000 1000 1000 1000 1000 1000 1000 1000 1000 1000 1000 1000 1000 1000 1000 1000 1000 1000 1000 1000 1000 1000 1000 1000 1000 1000 1000 1000 1000 1000 1000 1000 1000 1000 1000 1000 1000 1000 1000 1000 1000 1000 1000 1000 1000 1000 1000 1000 1000 1000 1000 1000 1000 1000 1000 1000 1000 1000 1000 1000 1000 1000 1000 1000 1000 1000 1000 1000 1000 1000 1000 1000 1000 1000 1000 1000 1000 1000 1000 1000 1000 1000 1000 1000 1000 1000 1000 1000 1000 1000 1000 1000 1000 1000 1000 1000 1000 1000 1000 1000 1000 1000 1000 1000 1000 1000 1000 1000 1000 1000 1000 1000 1000 1000 1000 1000 1000 1000 1000 1000 1000 1000 1000 1000 1000 1000 1000 1000 1000 1000 1000 1000 1000 1000 1000 1000 1000 1000 1000 1000 1000 1000 1000 1000 1000 1000 1000 1000 1000 1000 1000 1000 1000 1000 1000 1000 1000 1000 1000 1000 1000 1000 1000 1000 1000 1000 1000 1000 1000 1000 1000 1000 1000 1000 1000 1000 1000 1000 1000 1000 1000 1000 1000 1000 1000 1000 1000 1000 1000 1000 1000 1000 1000 1000 1000 1000 1000 1000 1000 1000 1000 1000 1000 1000 1000 1000 1000 1000 1000 1000 1000 1000 1000 1000 1000 999 959 936 927 919 918 919 919 914 916 909 902 897 894 890 885 833 789 744 681 667 633 595 549 526 496 468 427 423 414 401 405 370 345 334 322 299 277 262 247 215 202 182 161 138 114 98 72 47 4 -17 -46 -65 -103 -133 -185 -176 -196 -204 -213 -226 -248 -257 -268 -282 -308 -318 -336 -326 -331 -340 -368 -368 -376 -394 -417 -420 -427 -412 -407 -409 -426 -428 -452 -456 -466 -478 -479 -507 -532 -555 -579 -575 -582 -602 -616 -639 -667 -692 -719 -756 -800 -834 -883 -865 -874 -890 -927 -934 -949 -950 -968 -961 -962 -958 -951 -970 -987 -1000 -1000 -1000 -1000 -994 -969 -950 -926 -904 -871 -878 -866 -865 -852 -853 -848 -830 -795 -831 -848 -862 -869 -882 -901 -921 -958 -921 -913 -889 -879 -854 -840 -808 -780 -771 -746 -743 -729 -726 -713 -713 -719 -702 -686 -669 -638 -647 -634 -624 -596 -607 -606 -604 -596 -564 -546 -530 -509 -524 -523 -536 -550 -526 -515 -519 -537 -506 -483 -482 -472 -472 -478 -480 -485 -482 -490 -483 -470 -481 -494 -504 -527 -524 -528 -525 -530 -535 -537 -546 -547 -596 -647 -673 -712 -737 -776 -822 -899 -889 -898 -894 -896 -884 -883 -877 -861 -883 -891 -907 -916 -933 -956 -961 -964 -961 -954 -945 -936 -954 -958 -950 -935 -926 -912 -908 -895 -890 -883 -861 -819 -844 -845 -860 -869 -879 -882 -900 -922 -928 -935 -958 -982 -980 -974 -976 -954 -996 -1000 -1000 -1000 -1000 -1000 -1000 -1000
976 978 981 985 981 996 994 1000 1000 1000 995 982 989 993 997 1000 1000 1000 1000 1000 1000 1000 1000 1000 1000 1000 1000 1000 1000 1000 1000 1000 1000 1000 1000 1000 1000 1000 1000 1000 1000 1000 1000 1000 1000 1000 1000 1000 1000 1000 1000 1000 1000 1000 1000 1000 1000 1000 1000 1000 1000 1000 1000 1000 1000 1000 1000 1000 1000 1000 1000 1000 1000 1000 1000 1000 1000 1000 1000 1000 1000 1000 1000 1000 1000 1000 1000 1000 1000 1000 1000 1000 1000 1000 1000 1000 1000 1000 1000 1000 1000 1000 1000 1000 1000 1000 1000 1000 1000 1000 1000 1000 1000 1000 1000 1000 1000 1000 1000 1000 1000 1000 1000 1000 1000 1000 1000 1000 1000 1000 1000 1000 1000 1000 1000 1000 1000 1000 1000 1000 1000 1000 1000 1000 1000 1000 1000 1000 1000 1000 1000 1000 1000 1000 1000 1000 1000 1000 1000 1000 1000 1000 1000 1000 1000 1000 1000 1000 1000 1000 1000 1000 1000 1000 1000 1000 1000 1000 1000 1000 1000 1000 1000 1000 1000 1000 1000 1000 1000 1000 1000 1000 1000 1000 1000 1000 1000 1000 1000 1000 1000 1000 1000 1000 1000 1000 1000 1000 1000 1000 1000 1000 1000 1000 1000 1000 1000 1000 1000 1000 1000 1000 1000 1000 1000 1000 1000 1000 1000 1000 1000 1000 1000 1000 1000 1000 1000 1000 1000 1000 1000 999 995 954 952 931 939 947 940 937 935 930 926 909 914 912 888 850 836 779 771 703 671 617 609 547 529 481 476 430 422 414 408 389 384 354 343 314 301 273 262 226 226 210 198 165 159 139 124 81 49 -3 -2 -37 -63 -102 -97 -131 -156 -180 -176 -186 -197 -208 -219 -244 -255 -284 -276 -287 -296 -307 -311 -332 -345 -373 -372 -393 -395 -390 -384 -373 -381 -393 -407 -428 -439 -463 -468 -492 -504 -543 -537 -560 -575 -596 -593 -613 -633 -675 -692 -740 -768 -819 -817 -847 -871 -883 -898 -934 -928 -931 -940 -954 -960 -959 -962 -964 -963 -982 -982 -1000 -1000 -969 -971 -942 -920 -896 -906 -894 -879 -862 -854 -847 -845 -836 -844 -838 -825 -852 -851 -869 -880 -913 -902 -910 -907 -876 -875 -846 -829 -796 -806 -781 -763 -745 -745 -732 -726 -716 -709 -702 -684 -657 -658 -642 -628 -622 -615 -598 -592 -594 -571 -535 -533 -515 -523 -515 -515 -524 -517 -510 -518 -508 -511 -505 -504 -492 -483 -466 -467 -468 -464 -468 -472 -482 -478 -468 -473 -482 -490 -513 -523 -527 -528 -533 -540 -558 -564 -596 -605 -656 -668 -727 -740 -783 -796 -867 -880 -883 -878 -869 -878 -877 -885 -889 -881 -899 -906 -923 -938 -964 -959 -970 -964 -946 -956 -968 -964 -969 -959 -946 -938 -937 -934 -922 -914 -892 -892 -876 -863 -873 -880 -907 -909 -920 -920 -942 -955 -982 -979 -1000 -1000 -1000 -1000 -1000 -1000 -1000 -1000 -1000 -1000 -1000 -1000
