231 231 231 232 232 230 228 225 225 223 223 224 222 220 218 214 214 208 207 202 202 203 201 202 201 197 197 195 196 198 197 197 196 196 198 201 200 198 197 197 197 195 196 198 199 205 204 208 209 210 209 210 210 209 208 206 206 204 203 200 199 198 197 194 194 193 192 190 186 179 180 175 173 167 166 158 157 152 152 148 147 145 143 141 141 139 137 134 134 134 133 133 134 134 134 135 135 137 139 144 144 148 148 149 149 147 148 149 151 150 151 150 150 153 152 153 154 154 153 154 152 146 146 144 144 149 149 152 155 156 157 159 162 161 159 158 158 161 162 167 168 171 168 165 165 164 163 161 159 155 156 153 153 153 153 152 154 153 152 149 151 150 149 149 150 154 151 153 156 159 160 164 165 169 169 173 177 182 186 193 195 196 194 194 195 196 195 196 199 204 204 207 208 212 213 218 220 225 224 229 230 233 233 234 236 237 236 236 235 234 234 236 237 240 240 243 244 245 247 253 253 254 255 258 259 259 259 263 263 265 266 269 270 274 276 282 285 286 284 284 284 283 283 285 284 284 283 280 281 280 279 278 278 277 276 275 278 280 280 281 282 283 282 284 285 287 290 298 300 302 301 302 301 305 306 311 313 316 317 320 322 327 329 338 341 344 342 343 345 346 351 357 358 361 362 365 365 367 367 372 373 374 373 374 374 370 368 364 365 367 367 369 369 368 367 365 365 360 360 357 355 349 347 343 341 339 337 334 331 325 324 319 319 318 319 320 321 325 326 329 330 333 333 337 337 338 337 338 340 342 341 340 341 344 345 348 347 345 345 342 342 343 342 341 343 343 342 341 342 343 344 346 348 348 347 346 348 351 351 353 354 356 354 354 353 354 355 357 357 356 355 354 353 350 348 345 342 338 336 330 327 321 319 313 311 308 310 309 309 310 309 308 309 307 306 304 303 302 304 306 307 306 305 305 304 302 301 298 297 294 293 289 290 290 289 289 289 291 289 291 290 290 291 294 293 294 295 295 297 297 298 299 300 303 301 301 301 301 301 301 301 304 306 310 314 317 319 326 330 333 334 335 336 334 334 332 333 333 330 326 327 328 329 330 332 333 333 334 337 341 342 348 348 348 346 346 346 343 341 339 340 342 343 344 346 347 345 344 345 344 342 340 340
236 235 234 235 236 233 230 229 227 226 226 227 229 223 222 220 222 214 209 206 204 205 205 204 201 199 199 197 196 197 198 197 194 198 201 201 205 199 196 196 197 196 197 197 200 202 203 204 205 206 208 206 204 204 202 202 202 201 200 197 192 195 196 194 194 192 190 187 183 180 177 175 175 168 164 159 155 155 154 153 153 149 145 144 145 142 140 138 137 136 137 137 140 136 136 135 134 137 141 142 144 145 146 146 147 148 150 151 152 152 153 152 154 154 156 155 156 156 157 155 156 150 148 146 145 149 152 154 159 159 162 163 168 163 161 159 157 160 163 166 169 167 166 161 158 158 156 153 149 150 150 151 153 151 152 152 157 153 153 153 158 155 154 154 156 154 154 154 155 159 161 163 163 167 169 172 177 183 190 193 201 197 196 196 197 196 198 199 202 204 207 208 210 214 219 222 228 227 229 230 231 234 236 236 237 238 238 236 234 235 236 237 239 240 242 243 245 245 247 251 255 254 257 257 261 259 261 263 266 265 267 269 270 274 280 283 291 285 284 283 284 281 280 281 281 281 281 280 281 279 278 278 282 277 276 276 282 280 281 281 283 283 283 283 282 287 293 298 309 302 302 300 299 302 305 309 315 316 319 320 322 327 332 338 348 344 346 345 345 350 355 359 366 363 364 364 364 366 368 371 376 374 375 375 376 371 369 365 362 365 367 368 371 370 370 369 369 363 361 358 360 350 345 343 345 339 336 333 331 326 322 320 319 320 321 323 328 329 332 333 338 336 339 339 341 340 340 340 341 341 341 339 336 339 342 344 347 343 342 342 345 344 343 344 348 346 346 345 346 346 347 348 352 352 352 350 350 353 356 356 360 357 357 355 353 355 357 358 361 357 354 354 356 352 350 347 344 340 337 334 330 325 319 315 311 312 313 312 313 313 313 313 315 310 308 306 304 304 305 306 309 307 307 306 305 302 301 298 294 294 293 292 294 291 289 291 294 291 290 290 291 290 291 293 298 295 296 296 302 299 300 301 306 304 304 303 302 302 303 302 301 306 311 313 318 319 324 328 337 336 339 338 339 336 337 336 339 333 330 328 327 329 332 332 336 334 336 335 335 340 345 347 351 347 346 343 343 340 339 337 337 340 343 344 347 344 344 343 346 342 340 339 339
241 240 239 239 239 239 238 234 232 231 230 229 227 224 225 223 222 219 218 211 213 210 208 208 206 202 202 201 200 199 198 199 199 201 200 200 199 198 197 195 195 196 196 195 197 200 201 203 203 204 204 205 205 202 201 201 200 200 200 198 197 194 194 193 193 192 190 185 185 181 178 175 172 168 167 162 163 161 160 159 157 153 151 146 147 146 145 143 141 137 137 138 137 136 136 135 136 139 139 142 141 144 143 145 147 151 152 153 153 154 154 154 155 155 156 157 157 158 157 155 155 153 152 148 151 151 150 154 155 160 161 164 162 163 163 160 162 161 162 165 163 164 163 158 158 154 151 148 149 148 147 148 147 148 148 147 148 149 152 152 154 158 158 158 156 155 156 155 158 162 162 164 164 167 167 172 175 183 185 191 192 196 197 197 196 195 197 200 200 203 206 210 211 216 218 224 224 229 230 233 235 239 239 240 240 241 239 238 238 238 237 239 239 240 242 242 243 246 246 249 249 253 253 255 256 258 262 263 264 265 267 270 270 275 275 280 278 279 281 280 280 279 278 278 277 278 279 279 278 277 278 276 276 276 276 274 276 280 280 281 281 283 283 284 285 286 288 295 293 297 300 299 300 302 302 307 307 314 316 319 321 327 329 336 335 340 344 346 349 354 355 360 359 363 364 366 366 367 367 370 369 373 374 375 374 372 370 366 368 367 365 368 369 372 372 372 369 365 362 357 355 348 348 342 342 339 337 333 331 327 324 320 323 323 323 326 327 332 333 335 335 337 339 340 341 341 342 341 341 340 340 340 339 337 336 339 339 340 340 340 341 345 346 347 347 349 349 347 349 350 349 349 352 356 356 355 355 358 357 358 358 358 360 359 358 356 357 359 358 357 357 355 354 352 354 351 349 343 343 339 337 331 328 320 321 318 316 316 317 318 318 318 315 311 312 309 309 307 306 305 306 306 308 307 305 301 302 300 299 296 294 292 293 292 292 292 290 290 289 288 288 289 289 291 290 292 292 294 295 298 300 302 302 305 305 305 305 304 305 304 306 309 310 314 314 318 320 326 328 336 338 339 337 335 336 337 336 333 333 330 330 330 330 333 332 332 334 337 339 342 342 345 343 343 342 340 339 337 337 336 337 339 340 343 341 339 339 338 339 338 340 338 337
247 246 244 245 245 244 243 238 235 233 233 231 231 227 225 225 225 223 220 219 222 217 212 211 211 207 205 203 203 201 201 200 201 202 205 201 197 195 193 193 196 195 196 195 197 199 201 202 202 203 204 205 205 202 199 199 199 200 201 199 199 197 198 195 192 192 192 187 186 180 176 172 170 166 163 164 167 165 167 164 162 158 152 152 153 149 147 146 146 142 139 138 137 136 133 135 137 140 142 141 140 142 142 145 148 152 157 155 155 156 159 158 158 159 160 160 159 160 161 158 156 154 153 154 157 154 152 154 154 160 164 163 162 162 163 163 167 165 168 164 162 161 162 156 155 149 144 144 145 145 146 144 143 143 144 144 146 148 151 153 156 157 160 158 159 158 159 159 162 164 168 167 167 168 169 173 176 183 190 191 191 194 196 197 199 197 196 200 201 205 211 212 214 217 222 224 224 229 231 236 240 243 247 244 243 242 242 240 238 239 240 240 242 243 248 245 244 245 244 247 248 250 250 253 254 259 266 266 267 267 270 270 271 274 277 276 273 275 277 276 277 274 272 273 275 275 278 277 278 277 280 275 275 273 273 273 276 277 279 279 280 281 282 285 288 288 289 291 290 294 298 297 300 300 302 304 305 312 318 318 320 325 332 333 332 339 345 348 351 356 362 360 359 362 363 366 369 368 369 368 367 371 375 376 376 372 369 370 372 369 366 367 369 372 376 372 369 365 360 358 355 349 343 342 344 338 334 331 331 326 321 323 328 326 326 329 331 335 339 338 339 340 342 344 346 346 348 345 345 342 342 340 338 335 333 334 335 336 334 337 340 343 348 347 349 350 353 352 353 352 351 353 356 358 362 359 358 361 365 362 360 362 364 363 362 361 360 360 359 358 355 356 356 356 357 354 354 348 347 344 343 336 331 328 329 324 322 322 324 323 325 321 319 315 313 312 313 310 309 308 308 309 311 309 307 304 302 301 301 297 295 295 295 293 293 292 290 289 285 285 286 286 287 288 289 288 287 289 293 295 298 300 302 304 307 308 309 309 312 309 308 312 317 315 313 317 319 324 327 334 342 339 338 337 336 337 338 334 333 331 332 331 332 331 332 333 334 340 344 344 346 343 341 339 337 335 335 334 334 334 335 337 342 341 340 337 335 335 337 336 338 335 334
254 253 253 252 251 250 246 241 239 236 236 234 234 230 231 228 229 228 227 225 225 224 221 214 214 211 210 206 204 201 202 202 200 202 202 203 202 195 194 191 192 194 194 194 196 200 200 202 202 203 204 207 207 205 204 199 200 201 200 200 199 199 198 197 195 192 190 186 185 178 176 168 166 163 165 164 165 167 168 170 169 165 162 157 155 152 153 151 152 149 145 139 139 138 138 138 139 142 141 141 142 143 143 146 148 153 153 156 157 159 159 162 164 165 164 164 164 165 163 162 160 156 157 159 158 158 158 159 159 162 162 165 163 161 162 163 164 166 165 164 163 158 156 151 150 145 145 141 140 142 141 140 138 139 140 142 142 146 148 153 155 157 156 158 158 159 159 160 162 166 167 169 171 172 173 176 178 186 187 193 194 194 195 199 199 200 201 203 203 207 210 216 217 219 221 228 229 233 234 241 243 248 247 247 247 244 244 243 242 242 241 240 241 245 245 247 247 246 247 247 248 250 251 253 254 260 262 268 269 269 270 271 271 273 272 274 275 273 272 273 271 269 270 269 270 272 273 275 275 276 274 272 271 268 270 272 273 276 276 279 279 281 283 288 289 289 289 291 291 293 292 294 296 299 301 305 307 312 313 318 318 324 327 333 336 341 342 351 352 358 357 362 362 363 364 368 369 369 369 369 370 372 373 378 376 373 374 373 372 371 371 368 370 373 371 372 371 366 364 360 357 351 348 340 338 336 334 329 327 325 327 326 326 329 330 334 335 340 339 342 343 344 345 349 350 352 349 348 347 343 343 341 338 334 335 332 333 335 334 335 335 339 342 345 347 350 351 355 355 355 355 358 358 361 360 362 362 363 363 365 366 366 366 368 368 366 364 363 362 361 360 359 358 359 357 354 354 351 350 347 345 339 338 333 332 329 329 328 329 328 326 325 323 320 319 316 314 314 314 313 312 312 311 311 311 307 306 303 301 299 299 298 297 294 295 296 294 291 288 284 283 284 285 287 287 287 286 285 287 291 294 299 300 304 306 311 313 312 312 312 312 314 313 316 317 318 319 324 325 333 333 338 341 339 337 337 336 334 333 329 329 330 330 330 333 336 338 345 345 346 344 341 341 337 334 330 331 331 331 332 332 334 335 339 339 336 334 333 333 334 332 331 330
263 261 260 258 259 255 251 245 238 240 241 239 239 236 235 235 237 234 233 232 233 229 225 221 219 215 212 209 206 204 204 202 198 203 205 204 205 199 195 194 191 194 194 195 197 199 201 203 205 203 204 207 212 208 207 204 202 203 203 201 198 198 198 197 196 194 191 188 184 179 175 169 159 163 163 165 166 168 171 172 177 169 165 162 160 158 159 158 163 153 147 143 142 141 141 140 143 144 146 144 144 144 143 147 152 152 155 156 159 159 160 164 170 168 169 168 170 167 166 164 164 160 159 160 164 161 160 162 166 165 167 166 163 163 164 164 167 165 165 163 162 158 156 150 142 143 141 139 135 138 139 135 130 135 137 138 139 142 148 151 159 155 156 156 158 158 161 161 166 167 171 173 178 175 177 179 184 188 193 196 200 198 199 201 203 202 202 205 209 211 216 218 224 223 226 229 236 236 240 245 255 252 253 251 253 249 248 246 243 245 245 243 242 244 246 246 247 249 252 252 254 255 256 256 254 262 268 270 273 273 274 272 270 272 273 274 276 272 269 268 265 265 265 266 267 268 271 272 274 271 270 268 266 266 268 269 272 273 275 276 280 281 285 289 299 292 291 290 291 292 294 294 294 299 303 305 310 313 317 317 314 324 331 335 340 343 347 351 357 358 360 361 363 364 367 369 376 372 372 370 370 372 376 377 381 375 374 373 375 373 373 372 375 371 371 369 370 364 362 359 359 351 347 342 335 335 330 327 321 325 327 328 331 330 332 336 343 341 344 345 348 348 349 353 359 353 351 349 351 346 345 342 338 337 336 334 335 334 334 334 333 339 344 346 348 349 353 354 359 356 357 359 364 362 363 362 363 365 368 367 370 369 370 371 375 371 368 367 367 365 364 363 362 360 359 356 356 351 350 348 347 341 338 336 336 332 331 332 338 331 327 326 325 322 321 318 316 316 316 316 316 314 314 314 315 310 307 304 302 301 300 299 301 298 298 297 299 292 288 284 280 283 283 284 287 286 285 285 286 291 295 298 301 304 309 312 322 316 315 313 311 314 316 317 318 319 323 323 327 331 337 338 345 339 337 338 340 336 334 330 326 328 331 332 336 338 342 345 356 347 346 342 342 335 331 328 328 329 328 329 330 330 332 335 342 333 330 330 330 329 329 327 326
269 268 267 264 263 261 259 251 251 245 244 244 243 240 241 241 240 239 239 237 236 234 233 227 226 221 218 212 212 208 208 205 207 207 204 205 203 201 201 199 199 198 197 196 197 200 201 204 202 202 204 205 207 211 212 210 209 206 204 203 202 200 199 199 199 198 197 193 190 182 180 175 174 167 166 167 167 170 170 172 170 170 170 166 165 161 161 159 157 154 152 146 146 143 142 140 142 145 146 147 147 146 145 147 147 151 152 155 155 158 161 165 165 169 170 171 170 167 168 167 165 161 160 158 160 163 164 165 165 168 169 169 168 165 165 164 164 164 163 163 162 159 158 154 153 146 143 142 140 137 136 134 136 136 135 137 136 138 141 147 146 151 153 154 155 156 158 160 162 166 169 174 173 176 178 179 182 191 193 198 198 201 202 203 202 203 206 208 209 213 214 217 219 225 227 229 231 238 241 247 245 252 253 253 253 252 252 250 251 250 249 248 247 246 245 247 249 252 253 257 257 260 260 261 264 269 269 274 273 276 277 276 274 272 271 273 272 271 270 268 267 264 265 266 265 265 266 269 266 265 266 265 265 265 264 266 266 269 270 272 275 280 282 286 284 289 291 289 290 291 292 295 297 301 301 305 308 316 317 320 322 327 328 336 338 345 347 350 351 357 357 360 361 363 364 367 367 371 372 371 371 371 373 376 375 375 375 373 373 374 374 373 371 368 368 366 364 360 360 357 355 350 351 346 345 339 335 330 331 328 328 331 330 331 334 337 336 339 343 346 348 352 353 355 352 353 352 349 350 348 347 344 343 340 337 336 335 335 335 335 337 342 342 347 346 347 348 351 353 356 357 359 359 362 363 362 365 367 367 367 368 370 370 372 373 375 375 373 373 371 369 367 365 362 360 357 354 349 350 348 347 343 342 338 336 332 332 333 332 332 332 328 327 324 324 322 321 318 320 321 319 317 318 317 315 313 311 307 306 304 301 299 300 300 298 297 295 291 292 287 288 285 283 282 283 286 287 286 289 293 293 298 299 303 304 309 309 315 317 315 315 316 316 318 318 319 320 321 323 329 330 333 333 336 339 339 338 336 336 331 332 328 329 333 333 338 338 340 339 342 343 339 337 333 331 326 328 329 328 327 325 325 325 328 326 326 329 327 326 326 324 322 321
276 275 275 271 270 267 265 261 260 254 251 248 247 245 247 246 245 244 243 242 242 239 239 234 234 226 221 218 218 214 214 211 212 210 209 206 203 202 201 203 206 203 203 201 201 202 204 204 203 204 204 207 210 213 216 212 213 209 208 206 205 202 200 202 203 202 203 197 195 187 182 180 181 175 173 170 169 171 175 170 167 168 169 168 170 165 164 161 158 153 146 146 148 143 143 141 143 146 151 149 149 147 144 146 147 148 152 152 153 158 163 164 167 169 172 172 173 170 169 167 166 162 158 160 161 163 166 166 168 170 174 172 173 170 171 167 165 163 160 161 161 160 158 157 158 150 145 144 143 141 141 138 137 137 137 135 135 137 140 140 139 144 149 151 154 156 159 160 163 166 172 172 172 176 180 181 184 191 199 199 200 203 207 206 205 207 210 211 213 215 217 218 219 226 231 231 232 238 246 244 244 248 253 254 255 255 254 255 258 257 257 253 250 249 246 249 251 255 259 260 260 264 267 268 270 274 280 277 275 279 284 279 277 274 271 273 273 270 267 268 270 267 267 266 265 264 265 264 262 262 263 261 261 260 262 262 262 265 267 271 274 278 282 281 279 283 288 288 289 291 293 295 298 302 306 308 311 317 323 323 324 328 335 338 340 347 354 353 353 356 356 358 361 362 363 364 364 368 372 371 373 373 375 375 374 374 372 372 374 373 376 373 371 367 363 363 361 357 355 354 354 351 351 348 348 342 339 337 339 335 335 334 333 334 337 337 336 339 344 347 351 354 358 354 351 350 349 350 353 349 345 344 345 340 337 335 333 334 335 336 338 343 349 347 347 348 348 351 352 355 357 358 359 362 365 365 368 368 371 369 369 370 370 373 375 377 380 379 380 376 374 370 368 364 361 357 353 350 347 348 349 343 340 336 336 330 327 330 332 331 331 330 332 328 328 326 326 324 325 324 324 322 322 318 317 314 312 309 308 304 302 302 302 300 297 297 296 294 291 290 292 288 286 283 282 286 289 290 294 295 298 300 301 303 303 304 305 311 316 315 317 316 320 319 320 321 325 321 320 326 332 329 329 332 336 338 341 338 337 335 336 332 330 332 332 335 338 335 332 335 337 334 333 329 326 326 329 328 330 325 322 319 317 319 319 321 324 322 323 319 318 317 317
282 281 279 277 278 275 273 271 268 261 259 252 251 249 252 253 253 251 249 246 246 243 242 238 237 231 229 222 220 217 216 214 213 212 210 207 206 203 205 207 206 207 207 206 206 206 205 206 206 207 208 212 212 215 213 212 212 211 211 209 207 204 206 206 206 207 203 198 197 189 189 184 183 179 176 171 171 171 170 168 170 168 168 169 169 167 166 163 161 155 152 147 143 141 143 141 143 147 147 151 151 149 148 147 145 145 147 151 153 158 159 163 166 168 170 172 173 173 171 166 166 163 164 163 162 164 164 166 168 172 172 173 173 171 171 169 168 164 163 163 163 162 160 158 157 152 152 146 144 143 143 142 141 139 137 134 135 135 133 134 135 139 142 150 151 155 156 160 161 165 168 173 176 179 179 184 185 192 193 201 203 204 206 210 210 211 212 216 217 217 218 221 224 229 228 233 235 239 237 241 242 244 249 256 258 260 259 259 261 263 260 259 258 255 254 253 253 258 259 265 268 271 271 275 275 279 279 281 284 284 282 282 281 278 277 276 274 271 272 270 269 269 268 266 265 264 262 260 259 258 256 255 254 254 257 261 262 265 266 271 272 276 275 278 278 278 281 286 288 291 293 297 299 304 305 311 314 320 320 326 327 329 333 342 346 352 350 355 356 358 357 358 360 364 364 365 366 368 368 369 371 374 374 376 376 375 374 372 371 371 372 372 372 369 367 362 359 354 353 350 351 350 348 347 345 342 342 341 341 338 338 338 338 337 336 338 339 340 343 350 352 355 353 352 351 347 349 350 351 351 349 345 343 339 339 335 335 335 336 338 339 345 345 348 350 351 352 353 353 356 357 360 361 363 363 366 366 367 369 371 371 372 373 376 376 378 381 385 384 380 377 371 371 366 363 357 355 351 351 349 347 343 341 333 332 327 330 330 329 329 330 331 330 328 330 331 331 330 329 327 327 325 323 319 319 315 313 310 308 304 306 305 305 304 303 300 299 298 295 291 290 289 288 285 285 287 287 291 294 298 300 305 305 305 302 302 303 308 308 313 313 313 315 318 319 321 319 318 320 323 322 324 327 330 332 337 340 341 340 339 337 336 335 334 334 335 333 333 331 330 329 330 328 324 326 324 326 327 325 323 320 314 315 314 313 315 315 316 314 311 313 312 312
289 286 285 285 287 282 279 277 276 270 265 260 254 257 259 259 261 257 255 252 252 248 247 243 240 235 231 226 220 218 216 214 215 212 210 209 207 208 210 210 212 210 210 209 209 209 210 208 207 210 213 214 218 216 216 213 212 211 211 210 210 208 209 210 214 209 206 201 199 193 189 186 187 180 175 172 170 171 172 169 169 167 168 169 172 168 165 164 164 157 151 147 141 142 142 142 144 147 150 150 154 151 150 147 144 145 148 150 153 158 163 165 170 170 174 175 178 175 173 169 166 165 165 165 164 166 168 169 170 173 176 176 177 175 174 171 168 165 163 164 168 164 162 161 163 156 152 148 143 144 144 144 144 140 138 136 135 133 131 130 128 135 141 145 152 153 156 159 163 165 171 173 180 181 184 186 187 193 198 202 208 206 210 211 214 214 218 220 225 222 222 225 229 231 234 235 238 237 239 238 237 244 252 257 266 263 265 265 270 266 263 263 264 260 258 257 258 259 262 268 277 276 279 280 282 283 286 286 292 288 288 285 281 280 280 279 281 276 274 272 272 269 267 266 266 262 260 257 253 253 251 249 247 251 255 258 263 263 266 269 277 274 274 274 274 278 282 284 287 291 296 298 302 304 307 312 319 320 324 326 330 332 337 344 357 354 355 356 359 360 362 362 364 365 367 367 368 370 371 371 371 374 376 378 381 376 375 373 370 371 372 371 372 368 366 361 359 353 350 349 350 346 343 343 342 341 339 342 346 341 340 340 342 339 338 339 342 342 347 351 360 355 354 351 348 349 351 351 355 349 347 344 345 341 339 336 333 336 339 340 341 345 349 351 355 355 357 357 356 359 361 362 365 365 365 367 369 369 371 372 373 375 378 380 381 383 387 389 394 384 380 376 373 368 364 359 352 351 351 350 352 344 339 334 328 328 328 329 331 330 330 330 331 330 331 333 337 335 335 332 333 328 324 322 321 317 312 310 306 307 308 308 309 306 306 304 304 300 297 294 292 290 286 286 284 288 291 293 298 300 305 308 315 306 302 301 301 305 309 310 312 311 314 316 320 320 320 317 316 319 321 321 322 327 333 337 346 341 340 339 339 336 335 335 337 335 333 329 325 326 327 325 324 323 323 324 328 323 321 318 315 314 313 311 308 310 311 310 307 307 306 307 309
292 290 291 291 290 288 287 284 282 278 276 269 269 267 264 263 262 262 261 257 257 252 251 248 246 240 237 231 230 222 218 214 215 214 214 213 213 212 212 214 213 214 213 213 212 211 212 212 213 215 215 216 216 217 216 213 214 211 212 213 212 210 211 213 212 211 210 204 202 195 192 186 186 180 180 175 175 173 170 167 167 166 166 168 167 168 169 166 164 159 157 150 150 146 143 143 144 147 147 148 149 151 151 148 149 146 148 151 152 158 160 166 166 170 173 176 175 176 175 171 172 168 169 169 168 169 169 172 173 177 177 180 179 179 177 174 172 166 166 165 165 166 166 162 162 160 158 152 151 146 146 147 145 142 142 138 137 134 132 130 130 132 132 138 141 149 152 157 158 164 165 170 174 182 185 190 191 196 198 203 202 205 209 212 213 216 217 221 221 224 226 228 229 234 234 236 235 235 237 237 241 246 248 256 256 261 265 268 268 268 269 267 265 264 264 261 260 261 262 268 269 279 283 286 285 285 286 287 288 291 291 289 288 283 283 280 279 278 277 274 272 269 267 265 263 259 259 256 255 251 248 245 249 251 250 254 254 260 261 265 265 269 270 272 274 278 278 281 284 291 293 299 299 304 307 312 313 320 323 327 327 333 335 343 344 355 357 358 361 364 363 364 364 365 368 371 371 373 372 373 373 376 376 379 377 376 376 375 375 374 373 371 370 368 366 359 357 350 350 346 344 341 342 341 342 341 341 342 340 341 342 342 341 340 341 341 340 342 343 348 347 352 354 352 353 353 351 351 348 346 346 342 343 342 342 340 340 340 341 344 344 348 349 353 354 358 361 363 363 363 362 364 364 367 367 368 368 369 371 374 376 378 382 386 386 388 387 390 388 385 386 381 378 370 369 363 360 353 350 349 347 342 342 337 336 330 330 330 329 330 330 330 330 330 333 336 335 338 338 336 335 331 329 324 324 321 318 314 314 311 309 310 309 307 308 306 305 302 301 298 297 293 292 290 289 290 290 295 295 299 302 308 304 302 303 300 302 305 305 308 307 308 311 313 314 319 318 316 318 318 317 320 322 326 326 332 333 338 339 338 337 336 336 334 335 335 333 328 329 325 322 321 321 321 320 321 320 319 318 315 316 315 313 311 311 309 307 307 306 304 303 304 305
298 296 297 296 296 293 291 289 289 284 282 278 278 274 274 269 267 267 267 264 264 258 254 252 251 244 240 237 236 226 218 217 217 215 217 216 217 216 217 216 216 216 216 216 217 216 218 215 216 218 222 220 219 218 218 216 216 214 214 214 216 214 214 215 215 213 211 206 203 196 190 188 189 183 180 178 178 174 171 168 166 164 162 165 167 168 170 167 166 160 155 153 154 148 143 143 144 146 150 149 149 151 154 151 152 150 151 152 154 159 164 166 166 172 178 177 177 177 176 175 177 173 173 172 172 172 174 175 176 179 184 182 181 180 180 177 176 169 165 166 166 166 168 165 166 161 157 155 156 151 151 149 149 146 147 142 140 135 130 129 129 129 131 136 139 146 150 155 158 162 165 169 174 182 191 191 194 199 206 204 202 206 211 213 214 217 219 222 224 226 227 231 234 236 237 237 236 236 238 240 244 247 253 254 255 261 268 269 271 270 271 269 268 266 267 264 262 261 263 267 270 280 290 290 291 290 290 289 290 292 295 292 293 289 289 283 281 277 276 273 272 268 265 263 263 259 258 256 256 250 244 246 249 250 250 250 249 253 258 260 260 262 263 268 273 276 281 281 284 290 298 298 299 305 311 312 313 320 327 326 326 332 336 341 344 353 360 363 368 368 366 366 365 368 373 373 373 374 376 375 375 377 379 379 377 377 374 375 377 375 378 373 370 368 366 359 356 349 345 342 341 338 339 339 343 340 340 341 341 340 340 341 342 340 341 340 340 341 342 345 344 349 352 353 356 353 355 350 346 345 344 342 343 340 341 341 343 343 347 346 345 350 354 356 357 363 371 369 369 368 368 366 364 368 371 370 370 372 374 377 381 384 391 392 395 394 392 392 390 388 387 383 381 373 371 364 362 354 349 348 346 342 339 338 339 333 334 331 330 330 330 330 330 332 338 337 336 338 341 338 338 333 331 327 328 323 319 318 319 314 312 312 313 311 310 308 307 304 302 300 301 296 293 292 293 293 294 297 298 302 306 305 302 300 297 298 303 303 307 305 303 307 313 312 313 316 319 316 318 317 316 319 321 324 327 330 331 334 337 336 337 335 336 334 336 334 334 330 331 324 318 318 318 317 315 317 317 315 312 313 315 313 314 311 311 309 307 305 304 302 300 302 303
302 302 301 301 300 298 297 295 293 289 288 284 282 280 278 273 275 273 271 269 267 263 261 255 252 248 247 242 238 229 228 219 215 214 217 218 219 219 219 218 219 218 217 218 218 218 217 217 218 221 221 224 223 221 219 218 217 217 216 214 216 216 218 219 219 217 212 207 203 196 195 189 186 183 183 180 179 174 174 169 167 164 164 163 165 167 166 168 166 162 161 156 154 151 149 144 143 144 146 150 150 150 151 152 152 152 153 154 156 162 163 170 172 176 176 180 180 179 178 178 177 177 176 174 174 175 177 180 180 182 181 184 184 182 180 179 177 171 172 169 167 166 166 166 167 163 161 157 155 153 154 152 151 149 147 143 141 136 134 127 126 127 132 138 141 148 149 156 157 163 164 169 174 183 183 190 194 200 201 206 208 208 211 218 219 222 222 226 227 230 231 235 237 240 238 239 239 238 240 242 242 246 249 255 258 263 263 269 271 271 271 271 270 267 267 266 264 261 264 269 273 282 283 294 295 294 292 291 291 293 292 294 294 291 288 282 281 275 275 272 272 266 265 261 260 258 258 256 254 250 251 248 248 250 248 247 245 248 250 257 257 259 262 267 269 275 276 281 283 287 290 298 300 306 307 312 316 321 321 327 329 333 335 343 346 355 358 368 373 375 371 369 369 371 372 376 376 377 377 379 379 379 380 382 384 382 379 377 375 374 375 373 373 368 364 358 354 345 344 338 335 334 335 336 338 338 340 341 340 340 340 340 339 339 341 341 341 340 343 346 346 349 349 353 352 351 351 349 349 345 343 341 337 336 339 340 340 342 346 350 352 354 356 362 363 367 367 373 374 372 369 368 369 371 370 373 375 377 377 381 382 387 390 398 403 403 399 396 395 392 388 384 381 373 371 362 361 354 353 348 346 342 340 337 334 331 333 332 331 330 330 330 331 333 334 339 340 340 338 337 338 335 334 328 328 325 325 321 320 317 318 316 318 317 314 309 309 307 305 301 301 299 297 294 294 297 298 302 304 307 303 304 303 299 297 295 295 298 300 302 304 306 306 312 314 315 313 314 317 317 318 322 324 325 326 330 331 333 332 335 335 334 333 333 333 332 331 329 330 325 323 318 317 316 316 316 315 314 313 311 310 311 311 311 310 309 306 302 303 302 302 302 302
308 306 305 304 306 302 301 298 298 294 290 287 283 283 281 279 281 277 276 273 270 266 262 258 254 251 249 246 242 236 231 223 212 218 219 221 222 222 223 222 224 221 219 220 220 218 217 217 218 222 225 225 227 223 221 219 217 217 217 217 220 220 222 223 228 218 211 206 199 197 193 190 183 184 183 182 182 178 175 170 164 166 166 166 168 166 165 166 167 164 161 159 156 153 148 147 142 146 149 150 151 152 155 152 150 153 156 157 158 163 169 172 178 179 183 183 184 182 181 180 179 178 176 175 174 177 181 183 185 184 185 185 186 183 181 180 180 175 173 172 171 169 169 169 171 166 161 158 153 155 155 154 154 152 149 145 138 138 135 130 122 130 137 141 148 149 154 156 162 164 168 171 180 182 187 190 197 199 204 206 214 211 216 220 227 224 226 228 234 233 236 238 246 241 241 241 243 242 244 244 245 247 252 255 261 263 267 270 278 273 274 273 273 270 269 267 264 264 266 270 278 281 288 293 303 295 293 291 291 292 292 294 297 291 288 283 278 275 275 273 274 267 262 260 257 257 257 255 252 251 250 250 251 249 248 244 237 245 249 253 257 260 264 267 271 272 276 279 283 288 294 297 301 306 312 314 320 322 325 326 330 333 340 344 353 355 365 371 390 377 374 371 370 373 376 377 381 379 380 381 385 383 386 388 395 386 382 378 375 376 377 375 375 367 360 356 349 345 339 335 324 331 332 335 339 338 340 340 341 339 340 340 340 341 343 342 343 343 346 347 350 350 351 352 353 350 348 348 347 345 343 339 330 335 338 339 339 344 349 352 357 359 363 366 372 369 371 374 381 373 370 370 372 372 373 376 381 380 382 384 389 391 397 404 420 408 405 400 400 393 389 385 382 375 369 363 357 354 351 348 346 342 338 334 329 331 331 330 329 329 330 330 331 332 334 337 344 341 340 339 339 336 335 331 328 328 326 324 323 322 323 322 327 321 318 313 310 308 306 303 304 299 295 295 295 298 302 306 316 308 306 303 304 298 295 293 293 295 298 298 302 303 306 310 318 312 311 312 318 315 318 322 333 327 328 329 334 331 332 332 337 331 328 329 332 329 329 328 332 324 320 317 316 314 314 315 318 313 311 309 306 308 310 309 309 307 305 303 301 302 303 302 301
310 309 308 306 306 306 305 301 302 299 296 291 291 288 286 284 282 281 280 277 274 269 267 262 261 256 256 252 250 245 242 233 235 229 226 227 225 226 226 226 226 225 224 224 222 219 220 219 222 225 225 227 226 225 224 222 222 220 219 220 221 224 224 225 221 218 217 209 208 202 199 195 194 188 188 185 185 182 180 175 175 171 169 169 166 164 166 167 168 168 168 165 163 159 157 154 153 151 149 150 152 155 155 154 155 154 156 160 161 166 168 174 175 181 183 187 186 186 185 183 182 181 179 176 179 181 182 186 184 185 185 185 184 184 182 181 180 177 178 176 174 171 171 170 171 171 170 164 163 159 157 158 158 156 155 151 150 145 142 138 139 135 135 143 143 148 151 154 156 164 165 169 171 180 182 187 188 195 197 203 204 209 213 219 219 224 226 229 230 234 234 237 236 239 240 241 242 245 245 245 244 245 247 253 255 261 262 267 267 271 274 274 273 272 271 269 268 267 266 268 270 277 282 290 288 292 293 292 293 292 293 294 292 289 290 285 283 275 275 274 271 266 265 260 260 259 258 255 256 253 252 252 251 249 249 246 248 247 246 251 253 261 263 267 266 269 272 278 281 288 291 298 298 305 307 313 316 322 323 325 327 332 335 340 341 350 354 363 363 371 375 372 375 376 376 377 377 379 379 380 381 385 386 389 386 386 386 381 381 378 376 375 372 367 364 357 357 350 347 341 341 335 332 335 334 337 337 338 338 337 340 341 342 342 343 343 345 346 346 348 348 351 351 352 350 349 349 348 349 348 347 343 343 339 338 342 342 346 348 353 354 362 364 367 366 369 370 371 370 372 372 370 371 373 374 377 377 381 382 385 386 391 395 402 400 406 408 402 400 393 390 385 383 376 372 364 363 355 353 349 348 343 340 334 336 333 331 331 329 327 329 331 331 333 332 334 336 341 343 342 340 337 336 333 335 333 331 329 327 325 324 323 323 323 322 317 316 311 308 304 304 301 300 298 298 301 301 305 302 304 303 299 298 295 294 291 291 291 290 292 296 301 302 305 302 305 307 307 307 309 312 317 317 322 325 326 325 327 327 327 326 325 325 323 324 323 324 324 323 320 320 316 315 313 311 312 311 311 311 308 309 308 307 308 307 305 305 304 305 305 304 304 302
313 312 311 310 310 309 309 306 307 302 298 295 296 292 289 287 285 284 283 278 275 271 269 266 266 263 263 258 257 252 250 246 247 240 236 233 231 230 230 229 230 228 226 227 227 224 223 225 228 229 231 230 228 227 225 225 225 222 220 221 223 226 229 225 221 218 214 211 212 205 202 200 201 196 196 191 190 186 183 181 181 176 173 171 168 166 165 168 172 171 174 170 170 165 162 160 160 156 154 153 154 156 161 158 159 159 162 163 164 170 176 176 176 182 189 188 188 188 187 186 186 184 181 180 183 184 189 187 185 185 185 185 185 183 180 182 184 180 179 178 178 175 175 175 176 174 174 169 168 162 159 162 163 161 160 157 157 152 148 147 148 144 143 145 146 151 154 153 155 161 167 168 170 176 182 183 184 190 195 199 202 208 213 215 218 222 227 228 231 232 234 232 232 234 236 238 242 244 248 245 244 245 248 251 254 258 262 263 264 268 276 273 273 272 273 270 270 268 268 268 269 275 283 283 282 286 288 292 297 295 296 294 293 291 289 285 285 277 273 272 270 266 261 261 262 261 261 259 259 256 253 253 254 252 251 250 251 251 252 253 254 260 268 267 267 270 272 277 282 289 296 297 298 305 312 315 317 322 325 326 328 332 338 337 337 345 353 354 353 361 367 371 378 377 381 378 378 378 378 379 379 383 386 386 385 385 385 383 384 380 378 374 371 365 359 360 362 354 349 349 350 342 335 335 334 336 336 337 337 339 341 343 345 346 348 348 349 348 348 348 348 349 351 350 349 348 346 350 352 351 352 348 347 344 344 344 343 348 354 354 355 362 370 367 365 367 368 367 367 368 367 369 371 373 377 377 378 381 383 386 388 393 399 397 395 399 405 401 401 392 384 384 385 376 368 365 364 356 351 350 350 343 338 337 339 335 334 332 330 329 329 331 332 332 333 334 336 340 345 344 344 340 338 338 340 337 336 331 329 326 326 325 326 323 323 319 319 313 309 306 307 302 299 298 300 300 305 302 298 298 296 294 293 290 289 288 288 287 286 289 293 296 302 299 295 297 298 301 304 304 305 309 311 315 319 319 320 320 321 320 320 319 317 320 323 320 319 319 319 315 312 313 314 310 306 308 309 307 307 307 309 307 309 306 305 304 304 304 306 305 307 304 303
316 316 315 315 315 313 311 308 308 305 304 298 298 296 295 291 290 288 284 280 278 273 272 270 269 267 265 262 262 259 258 256 254 249 246 239 239 236 236 233 233 233 232 231 229 230 230 231 231 235 234 234 233 230 229 228 226 225 225 224 226 229 227 226 224 219 216 211 209 206 207 205 204 201 199 196 195 190 188 185 184 181 180 175 172 169 169 169 171 173 174 174 173 171 170 167 164 160 160 156 157 157 158 161 162 163 164 167 170 175 174 179 180 184 184 189 192 193 191 189 190 189 186 182 183 186 186 189 190 187 187 188 187 186 186 186 184 182 182 180 177 177 178 179 178 175 174 170 170 165 167 168 167 168 165 163 162 159 157 154 153 152 152 151 154 156 153 152 153 159 161 168 170 175 175 181 183 188 191 199 201 208 208 212 215 219 222 227 230 232 230 228 229 230 231 236 238 243 243 245 246 246 247 250 253 257 256 261 261 264 266 270 273 270 270 268 269 268 268 267 267 272 273 279 280 283 286 292 293 296 295 295 295 293 289 283 281 276 278 274 273 269 267 263 262 262 262 261 260 259 258 256 255 255 254 254 255 255 255 256 257 260 261 267 269 273 274 278 283 292 292 297 299 305 308 318 320 324 324 328 329 333 333 335 338 343 341 347 348 354 358 369 370 376 376 377 380 380 379 379 380 382 381 384 385 386 385 383 384 381 379 373 372 365 366 362 359 356 358 356 354 350 347 339 338 338 338 340 339 341 342 346 347 349 350 352 351 350 350 348 349 349 350 349 350 350 352 354 352 352 352 350 351 348 347 347 349 352 351 356 357 363 363 369 371 369 366 364 364 366 367 368 369 373 374 378 380 382 383 388 390 394 391 393 393 393 394 398 396 391 389 382 382 377 374 365 361 356 356 353 350 344 343 338 337 334 335 333 333 331 331 332 332 332 333 333 335 340 341 347 346 344 343 342 341 340 337 333 330 325 326 326 325 322 322 320 318 314 312 306 306 303 301 297 296 296 298 300 299 295 292 288 287 286 285 284 284 284 285 287 287 291 292 294 294 293 293 296 297 301 301 303 304 308 310 312 313 313 314 314 314 314 315 318 317 316 316 315 314 311 311 310 308 307 308 307 306 304 305 305 303 303 305 305 305 305 304 303 304 303 304 305 303
320 319 319 319 321 316 314 312 312 309 306 303 300 299 298 296 295 290 286 281 276 275 273 271 272 269 267 265 264 263 262 261 263 256 252 248 247 245 244 240 238 237 236 234 232 233 234 235 238 238 239 237 237 233 230 229 228 228 228 230 234 232 231 228 224 219 215 210 205 207 208 207 210 203 200 199 199 193 189 189 189 185 183 178 172 173 173 174 177 177 178 176 176 174 172 170 170 167 166 163 161 161 163 163 164 165 168 171 177 177 179 180 182 185 189 192 200 197 196 194 195 192 190 187 185 187 189 191 195 191 191 191 192 190 190 189 189 186 184 181 175 177 178 179 183 179 178 174 171 170 170 172 176 171 169 167 168 162 160 159 160 158 159 160 167 161 159 155 150 158 164 168 172 174 177 180 182 188 194 198 204 207 211 213 216 220 226 228 234 230 229 226 225 226 229 233 240 240 242 243 246 246 249 251 257 255 255 257 260 262 266 269 276 270 269 268 268 267 267 266 264 269 274 275 275 280 287 291 299 296 295 296 299 293 289 284 279 279 277 277 278 272 268 265 262 263 264 262 262 261 259 258 257 255 254 257 261 259 259 260 262 263 266 268 270 274 279 282 290 293 297 298 299 305 313 319 327 327 330 330 331 333 336 335 338 338 340 340 341 349 357 363 370 371 375 377 383 380 381 380 381 380 382 382 384 384 386 384 387 381 378 375 375 368 366 364 362 360 359 360 363 355 349 345 340 342 343 342 341 343 346 348 352 352 354 355 357 354 355 353 352 352 354 352 351 353 355 356 359 356 356 354 354 349 347 349 353 353 355 356 358 362 367 370 376 370 368 364 361 364 367 368 370 373 376 378 383 382 384 389 398 391 391 389 389 388 391 391 392 387 384 382 386 376 369 363 356 355 353 352 354 346 343 340 340 336 334 335 336 333 332 333 337 335 336 335 336 340 344 347 351 346 343 344 345 341 338 333 328 327 326 326 328 323 321 319 316 313 311 308 308 303 300 296 292 295 297 298 299 294 290 285 281 281 279 280 281 281 282 284 287 288 290 289 289 288 288 291 294 296 297 300 302 305 309 309 309 310 311 309 307 309 310 313 318 313 313 310 311 307 304 305 306 304 305 305 308 303 302 301 298 301 304 304 303 304 304 304 306 304 304 303 303
322 321 320 321 319 317 319 317 316 314 312 309 308 305 304 301 298 293 291 285 284 279 275 271 271 271 270 269 268 267 266 266 264 261 260 256 255 253 250 245 245 242 241 239 239 238 237 239 240 242 242 241 240 238 237 233 233 233 233 234 233 235 234 231 228 220 219 212 214 212 209 208 205 204 204 201 199 196 195 193 192 189 189 184 183 178 176 177 178 181 180 178 179 178 177 174 175 175 173 170 169 166 164 164 166 168 171 173 175 180 180 182 183 188 189 193 194 199 200 199 198 197 195 193 192 191 191 191 191 193 194 194 194 193 194 193 191 189 188 185 184 179 178 179 180 183 183 179 178 174 173 174 172 173 173 170 168 163 164 163 163 162 164 166 164 164 164 160 161 162 162 169 169 175 177 181 183 190 191 198 199 206 208 213 216 222 222 225 225 228 227 222 223 222 222 227 228 235 238 240 240 243 245 249 248 252 253 254 256 261 262 267 265 267 270 267 268 268 268 267 267 269 268 272 273 277 281 289 289 294 296 297 295 294 292 287 288 284 282 279 278 276 274 269 268 264 264 263 264 264 262 261 259 257 257 259 259 261 262 263 263 265 268 272 273 277 278 282 285 294 296 299 300 305 309 319 319 327 330 332 332 333 332 334 333 333 333 334 338 346 349 357 357 366 369 374 375 379 381 381 379 377 379 381 381 383 383 382 381 380 379 375 373 369 368 366 367 366 366 365 362 359 358 353 353 349 347 347 346 346 346 348 351 355 356 358 357 357 359 358 357 356 357 357 357 357 356 358 357 358 357 356 354 350 350 349 350 355 356 358 359 363 363 369 367 369 369 366 367 365 367 370 370 374 374 376 377 379 382 386 383 384 385 383 382 380 381 384 383 381 381 378 376 373 372 363 363 356 353 350 349 345 345 340 341 338 338 337 336 335 335 334 333 336 337 337 338 341 342 346 344 346 348 347 345 343 340 334 335 331 329 326 325 322 322 320 318 314 312 307 306 301 301 296 298 296 294 296 294 292 290 283 284 280 278 278 277 278 279 281 281 285 285 286 285 284 284 287 289 294 295 298 298 301 303 306 306 307 306 304 305 305 305 308 306 308 307 304 305 304 303 302 301 301 302 303 301 299 300 299 301 301 302 304 304 304 304 304 303 303 303 302 302
325 323 321 321 321 320 322 321 321 318 316 314 314 311 310 306 303 297 291 290 289 281 276 273 272 270 270 270 271 269 269 269 268 265 261 261 262 259 257 252 251 248 245 245 246 243 240 243 245 246 248 245 242 241 240 237 236 236 239 237 237 236 236 233 231 224 220 217 219 213 212 206 202 202 203 201 202 198 194 196 197 195 195 190 188 183 180 181 181 184 186 184 183 183 181 181 182 181 180 177 175 171 167 169 172 174 179 178 179 181 184 184 186 190 195 196 198 201 204 203 203 200 197 196 196 195 197 195 193 194 194 196 199 198 199 196 194 192 191 189 189 185 182 182 182 184 187 183 181 176 175 174 174 173 173 171 171 166 163 166 169 168 169 168 167 166 165 164 166 166 170 171 170 176 181 182 184 189 196 197 198 205 210 214 218 223 228 225 222 223 225 219 219 217 217 221 223 229 237 236 237 239 243 243 244 246 249 252 254 257 260 261 262 265 270 268 270 268 269 267 268 268 270 270 271 276 284 285 287 292 297 297 297 293 289 290 293 289 288 284 283 279 274 272 273 268 268 266 267 265 264 262 262 260 258 261 263 263 263 265 268 270 274 276 278 280 283 284 287 294 301 300 302 306 315 315 317 325 334 332 333 333 333 332 332 331 330 332 335 343 352 351 351 360 367 371 372 377 381 379 379 377 377 379 381 382 384 381 379 378 375 373 373 368 364 367 371 369 371 368 367 363 360 360 361 356 355 352 350 351 350 353 355 357 360 360 359 361 366 362 362 362 365 362 361 361 361 360 360 358 358 356 354 350 347 349 351 354 358 360 362 364 365 366 366 367 366 367 370 369 372 370 370 373 377 377 377 380 383 382 380 380 378 377 377 375 374 376 377 375 373 372 372 368 366 363 364 356 352 350 349 345 342 341 343 338 337 336 338 336 335 333 333 335 338 338 339 341 345 343 343 346 349 348 349 345 341 339 338 335 333 329 327 323 320 319 319 315 313 308 306 301 301 298 300 296 295 294 293 290 287 284 284 278 276 275 275 275 276 278 279 281 283 281 280 280 279 283 287 291 297 295 296 300 306 304 302 304 306 303 303 302 301 302 300 301 301 300 300 298 298 298 300 299 301 300 300 298 295 299 303 303 307 305 304 304 305 303 302 301 301 301 302
327 326 325 324 324 322 323 324 323 321 320 318 317 315 314 311 311 304 302 295 291 283 281 273 269 267 271 272 270 269 272 275 276 272 269 266 265 264 262 257 258 256 254 250 250 249 249 248 249 249 249 249 248 245 242 239 236 236 238 241 240 237 237 236 234 228 226 220 217 212 211 205 203 200 200 200 201 200 201 201 201 202 199 194 194 189 190 189 188 188 189 190 190 190 190 190 190 189 187 183 183 178 177 175 174 177 178 181 182 184 184 187 188 191 194 200 202 206 205 206 207 204 202 199 197 197 198 199 200 199 198 200 201 203 200 198 199 194 194 192 192 190 190 188 187 185 185 185 182 176 177 176 175 174 173 172 171 169 171 171 171 173 173 172 171 170 169 167 166 168 170 175 176 180 180 185 186 189 192 199 201 207 209 218 221 225 223 225 223 220 217 212 212 212 214 218 220 224 226 232 233 233 234 238 239 241 245 251 251 254 253 256 258 262 262 267 267 266 266 267 267 265 267 270 272 275 277 283 286 292 292 298 298 295 294 292 291 291 290 286 287 283 280 275 272 268 268 267 269 267 265 261 263 263 264 266 266 265 265 266 268 273 275 282 283 285 284 286 290 296 294 299 300 303 306 312 317 325 325 331 335 335 332 331 331 330 330 331 332 339 340 347 351 356 360 371 374 378 376 377 378 378 378 380 380 380 381 382 381 378 375 369 368 367 368 369 369 370 371 372 370 367 367 366 365 362 362 357 359 358 358 360 359 361 362 363 363 365 365 365 367 367 367 367 369 368 365 364 362 359 358 356 354 351 352 352 352 355 357 363 365 367 365 366 368 367 367 368 367 369 369 371 371 374 375 380 381 382 380 382 382 379 376 372 372 370 371 371 372 372 369 366 365 363 362 359 358 354 353 349 348 345 343 340 338 337 337 334 336 337 335 333 333 334 335 338 338 340 340 341 344 346 346 348 350 349 347 343 341 338 336 330 329 324 323 319 317 314 312 306 302 296 298 298 296 295 296 295 295 291 287 283 280 275 275 272 272 273 274 276 275 277 276 275 277 278 279 282 284 289 289 292 294 298 298 302 303 303 301 299 299 299 300 301 300 298 297 296 293 293 294 294 294 295 296 298 298 298 298 300 300 304 305 308 308 306 303 301 300 299 299 300 301
332 327 326 326 329 326 326 326 328 323 320 320 320 318 318 318 322 313 308 302 295 288 280 274 263 270 273 273 272 273 275 279 288 277 271 270 270 268 266 263 264 262 260 257 257 256 256 256 260 255 254 253 253 249 245 240 231 238 241 242 245 242 240 238 237 230 226 221 217 214 210 205 197 201 201 203 204 203 203 206 210 206 204 200 199 196 197 196 197 196 197 196 197 197 198 198 200 196 194 191 191 184 181 179 177 180 182 183 187 187 188 189 191 196 201 204 208 209 211 211 214 207 204 200 197 199 200 202 207 203 202 203 207 204 203 202 205 199 196 195 195 194 194 193 194 191 188 186 180 179 178 177 176 176 175 174 172 172 173 174 177 178 179 177 175 174 173 170 165 171 174 178 182 183 186 187 189 192 196 200 205 208 214 220 231 226 226 223 221 217 214 209 201 207 209 215 221 222 226 228 230 229 230 232 236 239 244 247 253 251 251 252 254 256 259 261 265 262 262 264 267 265 266 269 274 276 281 282 288 289 293 296 303 296 294 293 293 290 290 289 293 284 279 275 274 269 267 268 274 268 265 263 264 266 268 269 275 269 269 269 272 275 280 284 292 288 288 291 297 296 297 297 298 302 307 310 318 321 327 331 341 333 330 328 330 327 327 328 328 335 341 346 352 356 362 369 380 377 378 377 378 377 378 380 384 381 382 381 382 377 375 369 364 366 366 369 374 373 374 373 373 371 371 372 375 370 368 366 366 366 366 366 368 368 369 367 366 368 371 370 371 371 373 373 377 371 369 366 367 361 359 356 353 352 353 353 355 356 359 364 375 368 367 368 375 369 369 368 368 367 369 369 370 372 377 380 386 381 382 381 384 378 374 370 368 368 369 369 373 366 362 361 359 357 356 354 353 350 347 347 348 344 341 337 335 335 335 334 337 335 334 332 331 333 335 336 336 338 340 341 345 345 347 349 357 350 347 344 344 340 338 333 330 325 322 319 317 313 309 303 294 295 294 294 293 293 294 294 299 290 284 281 277 275 271 270 267 271 273 272 272 273 275 273 272 275 278 281 286 287 288 289 289 294 298 300 304 301 300 298 295 297 299 299 300 295 294 291 285 289 291 291 290 291 292 294 297 297 297 299 301 303 307 308 314 306 302 299 297 296 296 298 301
327 324 326 327 327 327 327 327 327 326 325 323 322 321 323 324 321 319 318 310 307 297 292 283 284 280 276 277 276 278 278 281 277 277 278 273 274 273 271 268 270 269 267 264 265 263 262 260 260 260 260 258 257 254 253 248 248 244 241 243 244 246 245 240 238 232 231 223 223 217 215 210 211 208 205 207 207 208 209 210 208 208 209 205 206 202 203 203 203 204 203 202 202 203 203 204 202 201 200 197 194 188 188 185 184 184 183 184 187 192 193 193 196 201 203 209 209 213 213 214 210 208 208 203 204 202 201 203 203 206 207 205 205 205 204 202 203 202 201 199 199 200 199 198 197 197 195 191 189 182 180 178 180 180 180 180 178 176 176 178 180 184 184 184 183 180 178 176 177 177 177 182 181 186 187 191 191 194 196 200 201 208 210 217 216 223 224 222 220 214 213 210 211 207 207 212 212 219 220 224 223 224 224 226 229 236 237 240 241 247 249 250 250 252 251 253 254 258 260 262 263 265 265 266 269 275 275 279 280 284 287 292 292 295 295 293 292 288 288 288 286 283 281 275 274 269 268 267 267 268 268 264 266 269 268 270 269 270 271 272 273 276 277 283 283 288 291 293 292 295 296 297 298 301 301 305 308 317 319 326 323 326 327 324 325 324 324 326 329 335 337 345 346 355 358 365 365 373 376 377 377 375 377 380 379 381 381 381 379 376 376 370 372 368 367 368 370 376 376 376 377 376 377 376 376 376 375 373 374 374 373 373 373 375 374 372 372 371 372 375 374 374 375 377 373 370 370 367 365 360 360 357 356 353 354 354 354 356 356 359 360 366 367 367 366 368 369 368 367 365 367 368 367 370 372 377 375 376 379 379 378 376 374 368 370 367 366 366 363 359 360 357 356 352 352 351 350 349 348 345 344 343 340 335 336 334 333 332 334 335 334 333 334 334 335 337 336 337 337 339 339 342 343 347 346 349 348 343 344 343 341 337 334 326 324 319 317 312 310 303 304 296 293 293 292 292 291 290 289 287 287 281 281 277 274 271 272 272 270 269 270 271 270 271 272 274 275 280 281 286 288 289 290 293 293 298 297 298 298 298 298 297 296 296 293 290 291 289 291 289 288 289 289 290 289 291 292 296 297 299 299 301 303 305 303 302 303 297 297 293 295 297 298
325 324 324 327 329 327 325 326 329 327 326 325 326 326 328 327 326 323 323 316 315 305 295 295 296 290 285 281 279 280 282 279 277 276 274 276 280 277 276 275 277 275 274 272 274 270 268 265 264 263 263 262 262 258 257 256 257 251 248 247 247 249 252 245 242 236 232 228 226 221 217 217 219 215 211 212 213 213 214 213 213 212 214 211 213 209 209 207 208 208 210 208 207 208 211 208 206 204 205 201 200 194 191 189 189 188 188 187 190 194 200 199 202 206 212 213 213 216 218 213 210 208 207 206 207 203 202 203 205 207 211 209 208 206 204 204 205 203 201 201 203 203 205 202 202 201 201 196 195 188 183 184 185 185 187 184 183 180 179 182 186 188 191 190 189 186 183 183 184 184 187 185 185 189 192 193 195 198 204 202 203 208 213 213 212 218 223 220 219 214 210 211 213 209 208 209 210 215 219 219 218 218 219 223 227 232 237 236 236 241 246 247 248 248 247 248 249 253 256 260 263 263 264 266 269 272 274 275 276 281 287 287 288 290 292 292 293 289 286 286 284 280 276 273 273 267 262 264 266 266 267 266 269 269 271 270 269 269 269 273 275 277 280 282 283 287 291 293 294 295 295 296 298 299 300 302 305 312 318 318 316 318 317 320 322 320 317 322 328 334 343 344 346 353 360 361 361 369 375 376 378 376 376 379 380 381 381 380 379 376 376 374 375 372 370 372 373 378 381 381 384 383 385 383 384 381 378 379 381 379 379 379 380 381 383 379 379 378 379 379 379 379 381 378 375 372 369 367 366 362 358 358 358 355 357 354 354 355 356 356 357 361 363 364 364 365 365 366 367 366 367 365 364 367 372 371 370 373 377 376 376 373 368 369 371 366 363 361 359 356 353 354 354 350 348 347 347 345 345 343 343 339 336 334 336 333 331 332 334 334 333 334 335 336 338 337 337 336 336 336 336 337 340 342 342 344 346 345 346 344 343 340 338 329 324 318 316 312 309 307 308 299 290 291 291 289 290 287 286 284 281 281 284 278 274 273 275 273 273 270 269 269 269 268 270 273 277 280 282 286 291 290 290 292 294 296 295 296 295 296 298 296 297 293 289 288 288 289 292 290 290 288 288 288 288 288 290 293 297 299 301 302 306 302 301 300 300 297 297 294 293 295 297
325 325 326 329 329 329 328 326 328 329 329 328 329 331 330 330 329 327 324 319 319 313 312 306 305 301 295 286 285 283 281 278 279 277 278 279 278 279 280 279 281 281 280 278 279 277 274 269 269 266 266 265 263 261 263 262 260 257 256 253 253 253 250 248 246 240 238 231 229 225 226 225 224 222 221 219 219 220 217 217 215 215 214 215 215 214 214 211 212 212 212 213 213 213 212 211 209 206 207 204 204 200 198 192 193 192 191 189 191 195 198 204 206 211 212 218 220 220 217 213 212 209 208 207 205 202 204 204 205 208 209 212 213 209 209 208 207 207 205 201 203 206 205 206 206 204 203 199 199 194 194 191 191 190 189 187 187 185 187 188 190 193 194 197 197 194 192 189 188 189 188 189 192 193 192 196 197 201 200 204 205 208 207 211 211 214 215 219 219 215 214 212 211 210 209 208 211 214 213 216 215 214 217 221 223 230 229 233 235 238 239 245 245 245 246 245 248 252 253 261 262 263 265 268 269 271 270 272 275 278 279 284 284 287 289 291 293 291 289 286 284 280 277 271 269 265 266 263 262 263 264 266 267 269 268 270 270 271 272 276 277 279 280 283 284 287 288 294 294 296 295 297 297 298 298 299 302 309 309 313 314 315 315 317 316 318 319 319 322 332 334 344 347 353 352 358 361 367 368 374 377 377 379 381 380 382 380 379 377 374 376 375 377 376 378 378 379 382 382 386 387 389 389 390 391 389 388 385 385 384 384 384 385 387 385 385 385 385 385 385 384 383 382 379 379 375 373 367 367 364 362 359 358 355 355 353 353 354 354 355 356 359 360 363 363 365 364 364 364 365 364 363 363 364 364 366 367 369 370 374 374 372 371 369 366 363 363 359 357 354 353 352 351 347 346 342 342 342 342 342 341 337 337 332 333 334 334 332 334 336 335 336 337 338 337 337 337 335 335 335 334 333 335 339 338 339 341 345 346 345 344 342 339 331 327 316 315 311 312 311 308 302 299 291 288 286 286 283 283 282 282 281 279 278 277 274 273 273 272 270 270 267 267 265 267 272 275 281 283 288 287 290 291 294 294 298 298 298 296 295 295 294 294 291 289 285 287 290 290 290 289 288 288 287 285 284 287 291 293 299 301 302 299 299 299 297 296 295 295 293 294 296 297
327 326 326 329 334 330 328 328 333 330 330 330 333 333 334 333 333 330 326 324 322 318 316 315 319 307 300 294 289 287 285 282 279 280 281 281 283 283 285 285 288 286 285 285 290 281 277 276 276 271 270 268 266 266 267 266 267 262 259 258 259 256 254 250 247 244 240 235 229 230 231 231 233 227 224 225 229 224 221 218 216 216 216 217 219 217 218 217 217 217 216 217 218 217 217 215 211 211 212 209 207 204 202 199 197 196 195 195 194 200 204 208 210 214 220 223 230 224 222 216 210 210 209 207 206 203 203 204 206 208 211 214 220 214 213 211 211 209 207 205 204 206 208 208 209 208 207 204 203 200 198 197 200 196 196 193 191 193 195 197 202 201 202 203 207 201 198 195 193 193 193 195 199 197 197 198 199 201 203 205 206 207 208 209 208 212 215 216 220 214 211 211 214 209 208 209 215 214 214 213 211 214 218 220 223 226 229 230 233 236 240 242 247 245 247 246 248 250 253 259 268 264 268 268 274 270 270 272 278 278 280 280 281 285 290 292 299 292 289 286 284 279 274 269 264 264 263 262 263 262 264 264 266 266 267 268 269 271 273 278 286 283 285 284 286 287 290 292 297 295 295 296 298 297 299 299 303 306 309 310 311 312 312 314 313 315 318 319 323 328 335 341 349 351 354 357 360 365 371 375 383 381 382 383 384 382 381 378 375 376 377 379 383 383 385 385 386 387 390 390 392 392 393 396 401 396 395 393 395 391 390 390 390 391 391 390 388 389 391 391 392 389 388 384 382 377 375 371 368 365 361 360 361 356 355 351 349 351 353 353 354 358 362 362 364 362 363 362 362 362 362 360 358 361 363 363 362 366 370 371 374 371 370 368 365 363 361 358 354 353 350 350 352 347 343 341 338 339 340 340 341 338 336 333 331 333 335 335 339 337 337 338 341 340 340 338 341 336 335 334 332 333 335 336 337 337 341 343 349 344 344 341 340 332 325 317 309 311 310 311 313 304 297 293 287 287 286 283 280 280 281 279 279 276 275 274 274 272 270 270 270 268 268 265 264 271 277 282 289 288 291 290 291 294 297 298 303 300 299 297 297 294 294 290 285 285 287 289 293 289 287 287 289 285 283 284 286 289 292 297 306 299 296 295 294 294 294 293 292 292 293 295 299
327 327 328 329 328 330 330 328 329 330 330 331 332 336 336 338 337 335 333 329 326 323 322 320 315 308 308 301 299 292 289 286 286 284 283 284 285 287 287 288 289 291 291 290 287 283 285 282 280 275 275 273 273 270 271 270 267 265 264 262 261 260 258 253 254 250 247 243 241 235 235 235 233 229 230 229 228 227 225 221 220 217 216 219 219 219 222 223 223 223 222 222 222 223 223 221 220 216 215 214 213 210 210 207 206 203 203 203 204 207 209 214 214 217 220 226 224 226 226 220 219 213 210 209 208 204 205 204 205 207 208 213 212 215 217 215 215 213 211 209 210 209 209 211 212 213 211 207 207 205 204 200 200 199 201 201 201 201 201 204 204 208 208 207 207 207 206 202 201 198 197 199 198 199 202 202 201 203 203 207 207 209 209 209 211 213 210 211 211 210 210 208 207 207 208 208 210 213 214 214 215 215 216 218 219 223 224 228 230 234 235 237 239 244 246 247 247 247 249 255 255 260 263 265 266 268 269 270 271 276 276 276 279 284 285 290 288 291 291 286 285 279 276 268 269 265 262 261 260 258 259 262 263 265 265 267 268 271 273 278 277 282 284 285 285 287 287 288 289 293 293 295 294 296 296 297 300 305 306 309 309 312 313 314 312 314 315 319 319 324 327 336 338 348 353 359 359 363 366 373 375 382 384 385 383 381 381 378 380 379 379 382 384 388 389 391 391 393 392 394 394 396 397 400 398 399 401 400 399 397 398 397 396 397 396 397 396 394 395 396 394 393 392 389 387 379 378 374 373 369 366 361 357 353 353 349 352 351 350 352 354 358 359 362 360 359 360 360 360 359 360 359 361 361 362 364 364 366 364 366 368 371 372 370 369 366 363 359 358 354 351 348 348 346 345 341 341 339 338 339 337 338 338 336 336 335 335 337 336 338 338 339 338 341 340 337 337 336 336 334 334 333 333 335 333 333 335 339 338 341 342 340 338 332 330 321 321 315 311 311 308 306 305 297 296 289 286 285 284 280 279 277 277 275 274 273 273 272 272 270 269 268 267 265 267 271 273 281 280 285 289 291 293 296 295 297 298 300 301 300 298 294 293 291 290 284 284 286 286 288 288 286 284 283 283 283 284 288 289 293 291 294 295 291 294 294 292 292 291 290 291 293 295
328 328 330 329 328 329 330 330 332 330 328 331 334 337 340 341 341 339 336 332 329 326 325 321 317 312 307 305 305 297 289 290 291 288 285 287 288 291 292 294 295 296 297 293 290 287 285 286 286 281 277 278 280 277 278 273 269 267 262 264 264 262 260 260 261 255 251 249 249 243 241 239 238 234 231 231 232 229 226 223 223 219 215 219 222 224 227 228 231 229 229 227 228 228 231 228 228 223 221 218 218 215 216 211 212 209 211 210 212 214 221 220 221 223 227 227 225 227 228 224 223 217 211 211 210 207 208 207 207 207 206 210 211 215 219 219 219 215 211 213 215 213 212 214 216 217 218 213 210 208 208 205 205 205 206 207 209 207 210 210 212 214 216 214 214 212 210 208 208 203 201 201 203 204 208 204 205 205 206 207 209 211 214 213 214 213 211 211 209 207 203 203 204 204 205 208 212 213 214 217 220 220 222 220 218 221 223 226 229 233 237 236 235 241 246 245 247 247 249 251 252 258 262 263 265 265 265 268 270 273 275 276 279 282 288 285 284 285 288 286 286 278 274 270 271 263 259 258 259 257 256 260 263 264 265 265 267 270 276 276 276 279 284 284 286 287 288 288 288 289 290 293 293 294 294 297 300 304 307 308 309 312 316 313 311 313 315 316 318 323 328 333 335 346 356 359 362 365 369 373 377 383 388 387 386 385 382 382 383 382 382 385 389 392 397 395 395 396 397 397 397 399 402 402 402 403 406 406 407 405 406 402 402 402 403 404 404 402 402 400 399 397 395 393 392 385 378 376 376 371 368 361 356 352 350 351 353 352 349 353 355 358 364 362 360 358 357 358 359 359 363 361 363 364 368 366 366 365 363 365 365 370 375 372 372 367 364 360 359 353 349 348 349 345 342 341 342 339 338 335 334 334 337 335 337 336 338 337 336 337 338 337 338 338 341 337 335 334 333 333 335 333 333 333 332 331 332 334 334 337 340 338 337 331 327 324 325 316 312 310 308 306 306 300 301 291 285 285 285 282 282 278 276 273 271 271 273 272 273 270 270 266 266 263 265 270 278 279 280 285 291 291 294 296 299 297 298 300 303 302 302 297 293 292 292 286 283 284 284 286 287 284 283 281 278 281 284 286 289 288 286 288 289 291 295 292 290 289 289 289 289 290 293
328 329 330 332 331 329 330 331 332 332 333 333 334 340 341 347 347 345 340 335 332 328 327 324 322 317 315 308 307 302 301 296 294 294 294 294 295 297 297 301 301 301 298 296 295 290 292 292 292 289 287 282 282 280 280 277 276 272 271 268 266 266 267 267 264 259 259 253 252 249 248 245 243 240 238 235 233 231 229 225 223 222 223 223 224 228 230 234 235 236 233 232 232 232 232 235 233 227 226 221 222 219 216 212 213 212 213 215 216 219 220 225 229 230 229 231 231 230 228 226 227 222 220 214 211 209 210 209 208 209 209 210 211 217 218 223 222 220 220 219 218 217 219 219 219 221 219 217 215 211 210 210 210 210 211 213 211 211 214 217 220 222 219 219 220 218 216 213 211 207 206 203 204 206 205 204 206 206 207 209 210 214 214 216 218 215 215 213 211 207 204 198 198 201 205 210 212 216 218 222 222 224 223 223 223 223 222 226 228 233 232 236 237 240 239 242 244 246 247 251 253 258 258 261 263 265 265 267 267 271 271 275 276 279 278 280 280 279 281 284 282 275 275 269 266 259 260 256 256 255 258 261 261 263 262 261 263 268 270 275 276 277 279 284 285 288 287 289 288 288 290 294 294 296 296 299 300 305 305 308 309 311 311 311 312 313 313 314 317 324 326 334 338 348 350 361 363 368 370 376 379 385 385 391 392 391 389 388 387 386 387 389 392 397 396 397 399 400 399 400 401 401 402 405 406 407 408 411 410 411 409 406 408 409 409 412 411 410 407 404 406 404 401 398 396 391 387 379 378 374 370 360 356 350 353 354 355 355 355 356 355 358 359 363 363 358 358 357 355 358 359 362 363 365 366 369 369 368 367 366 367 370 368 371 371 367 365 358 357 351 351 347 347 343 344 341 339 338 335 330 330 330 332 332 334 336 336 337 337 338 336 336 336 335 336 336 336 333 332 331 331 331 332 333 331 330 331 331 332 333 334 337 335 331 328 323 321 315 316 310 308 305 303 299 298 290 290 285 284 283 280 277 275 270 271 270 269 270 269 269 266 262 262 259 261 267 271 279 282 286 286 291 294 297 296 297 299 302 302 306 305 302 300 295 292 287 288 285 284 285 283 283 283 281 280 280 280 284 284 286 285 285 285 289 289 290 289 288 287 288 287 287 290
328 331 333 334 334 334 335 335 336 335 335 335 337 341 346 349 357 348 342 337 331 329 328 326 324 320 318 315 313 308 303 302 300 300 300 301 304 302 305 305 310 304 302 300 298 296 298 298 302 295 292 288 289 286 284 281 279 277 276 273 270 271 272 272 272 266 263 260 257 254 251 250 248 244 240 239 238 235 231 228 221 225 226 228 230 232 236 238 245 239 236 235 235 235 236 237 241 232 229 226 227 221 218 214 213 214 215 217 220 221 226 230 240 233 234 233 236 231 231 229 232 226 222 218 213 213 213 211 209 210 212 211 213 217 221 224 229 224 224 224 227 224 225 225 226 225 224 220 216 214 212 213 214 215 217 217 216 217 220 224 234 227 225 225 229 223 220 217 214 210 208 208 209 207 207 206 206 207 209 210 214 216 219 221 228 220 218 215 214 209 203 199 190 201 207 212 217 219 223 225 229 226 226 224 224 224 224 226 231 231 233 234 235 238 241 240 242 243 247 251 257 258 261 262 267 263 263 264 268 269 271 273 276 274 275 275 276 276 279 278 281 273 270 266 263 258 254 254 255 256 258 261 266 263 261 260 261 265 270 273 278 277 280 282 287 286 288 288 290 289 293 295 299 297 297 299 302 304 307 309 312 313 315 313 311 315 317 316 316 323 331 336 343 348 356 360 370 370 374 378 387 386 390 392 400 394 393 392 394 391 393 395 403 399 401 401 405 403 403 403 406 405 408 408 410 411 413 414 415 413 414 411 413 413 415 417 422 414 412 410 414 408 404 402 403 395 389 386 384 377 370 361 347 353 355 357 361 358 358 358 359 360 363 365 367 362 359 356 351 356 358 360 362 365 369 370 372 370 369 369 370 369 369 370 371 366 363 359 357 352 350 349 349 344 343 340 338 336 332 330 325 329 332 332 333 333 334 335 338 336 336 335 335 334 336 335 335 333 332 332 332 331 332 332 331 331 333 332 335 333 333 333 335 328 322 320 320 316 314 309 307 303 300 297 297 291 286 285 285 281 278 276 274 270 269 267 266 266 266 265 263 260 260 258 255 264 273 278 285 286 290 292 297 296 298 298 301 302 305 306 312 304 301 297 294 290 289 287 284 283 281 282 283 280 278 279 280 281 283 282 282 282 283 286 291 287 286 285 284 285 286 286 290
333 335 335 337 337 339 338 338 337 337 336 336 338 341 343 347 346 348 348 342 340 332 331 328 329 324 324 322 321 316 314 310 310 307 306 306 305 305 306 306 306 306 306 305 304 301 302 303 300 297 297 292 293 291 290 287 286 284 283 280 279 276 276 277 275 272 271 267 265 261 260 257 254 250 249 245 244 240 238 235 235 233 232 234 234 237 237 239 239 242 243 240 240 239 236 236 235 234 233 229 227 223 221 216 218 217 216 218 218 220 223 229 228 231 233 232 231 230 230 230 229 228 228 223 223 219 217 216 215 212 212 212 215 219 220 224 222 225 227 228 227 230 230 231 229 229 228 225 224 220 219 219 219 221 221 222 221 221 223 227 225 230 230 227 227 226 225 221 220 214 214 212 210 209 208 208 208 207 208 210 213 217 218 223 220 220 222 218 217 213 212 207 209 208 208 215 215 222 224 226 225 226 227 225 226 227 225 225 226 229 231 232 233 236 236 237 238 240 243 250 250 256 258 260 258 260 259 259 262 266 268 270 267 268 268 269 269 270 271 271 270 267 268 262 262 258 256 254 256 258 258 259 259 263 263 260 261 263 265 270 270 275 276 279 280 284 286 287 287 288 291 295 296 299 300 300 302 304 305 310 310 314 315 317 317 319 318 320 320 324 328 336 337 346 349 356 358 368 372 377 377 382 385 390 389 392 394 394 394 394 394 395 395 398 401 404 404 405 407 405 406 408 408 410 411 415 415 417 415 415 415 413 415 418 418 419 416 415 415 413 412 410 408 403 403 399 398 392 389 382 378 368 369 362 358 360 359 361 360 359 360 361 364 367 366 366 365 360 359 357 355 359 361 366 368 372 371 373 374 374 372 369 369 369 368 366 365 360 358 353 352 350 348 344 344 340 340 337 336 334 333 330 329 332 331 331 331 333 333 335 335 334 334 333 334 335 335 335 335 334 333 331 332 332 332 332 331 332 332 332 331 329 327 324 322 317 318 315 314 308 307 301 300 295 295 291 290 284 283 278 278 275 274 270 268 266 266 263 264 263 261 258 258 258 261 264 266 275 275 283 286 291 290 294 296 298 299 302 301 304 303 303 304 300 299 293 293 290 289 285 282 282 280 278 280 280 279 280 280 280 280 281 281 283 281 283 284 283 283 283 282 284 285
337 338 342 340 341 341 343 339 339 338 338 339 342 343 350 347 345 346 346 344 346 338 334 335 336 332 329 328 328 323 318 318 320 314 311 310 311 310 311 309 307 307 306 308 311 308 307 305 304 300 298 296 298 294 293 292 292 290 290 286 287 284 283 282 280 277 274 271 271 268 268 262 261 256 254 251 251 245 241 242 244 241 241 240 240 242 244 241 239 242 245 245 246 241 235 235 234 232 228 228 229 224 219 220 222 220 218 220 221 222 224 226 226 228 232 230 228 226 226 228 230 228 229 226 228 224 223 221 221 217 217 216 217 221 226 223 221 225 229 229 229 231 235 234 234 232 232 230 229 225 221 223 225 226 229 227 226 227 230 227 225 229 232 231 232 229 226 226 226 220 217 214 212 210 207 210 212 211 210 213 216 218 221 222 221 222 222 220 221 216 215 215 218 216 219 218 216 224 232 229 228 229 231 229 229 228 227 228 229 229 232 230 231 234 239 237 237 240 243 247 249 254 259 255 253 253 253 256 260 263 268 264 262 261 260 261 264 264 269 266 265 263 263 261 261 255 250 253 258 259 263 260 259 261 263 261 263 264 267 267 266 270 273 276 278 281 286 285 286 289 293 295 297 300 304 305 308 307 307 310 312 315 319 318 320 321 324 322 322 327 336 335 335 343 352 352 354 363 373 375 376 380 384 386 386 389 392 393 395 394 396 396 397 399 399 404 407 409 413 408 408 408 410 412 414 416 421 417 415 416 418 417 418 420 424 420 417 415 412 413 413 411 407 407 407 403 400 397 395 386 379 377 378 370 364 363 362 362 360 360 362 364 370 369 369 368 370 365 363 359 356 360 362 367 373 373 373 376 380 377 376 372 370 370 369 366 363 359 358 353 348 349 350 347 345 342 343 339 338 338 339 335 332 332 330 331 330 331 332 333 333 334 335 334 335 335 336 336 338 336 336 334 333 332 333 331 332 331 331 331 331 326 325 320 315 316 320 315 315 309 307 302 298 296 296 291 288 285 285 278 274 273 273 268 265 265 266 264 265 261 258 256 253 259 265 268 273 274 272 280 287 288 288 292 296 297 299 300 300 300 300 300 302 301 302 297 296 292 292 285 279 280 281 279 281 279 280 279 280 278 276 277 279 277 277 278 279 279 280 280 280 279 281
339 341 340 341 343 344 341 338 339 338 338 340 340 342 344 347 346 345 344 345 344 340 343 342 342 340 338 335 334 330 328 326 324 320 320 315 315 314 315 314 313 309 311 313 312 313 311 309 307 302 301 297 297 297 298 296 298 297 294 290 291 291 290 289 288 284 281 275 275 273 270 265 265 260 259 257 256 251 252 250 249 249 248 247 247 247 245 243 244 243 245 249 248 245 242 237 234 232 231 229 227 225 226 225 225 225 225 225 224 224 225 225 225 226 226 228 226 223 226 228 227 227 227 226 228 228 228 226 225 221 221 219 219 222 221 224 225 226 227 231 231 233 234 238 238 236 237 237 236 232 231 229 228 231 231 234 234 233 230 228 229 231 232 236 236 234 233 231 229 226 224 218 217 214 213 214 214 216 216 216 218 221 221 224 224 225 223 222 220 218 220 220 220 221 222 222 225 226 226 230 230 231 230 231 231 231 231 231 229 229 227 225 227 231 233 238 239 242 242 247 248 253 250 251 250 247 251 255 257 261 259 259 258 256 254 252 253 256 259 261 261 259 259 258 255 251 253 251 254 259 259 261 262 262 261 261 263 265 265 267 266 267 270 275 276 279 281 284 287 290 291 296 297 302 305 311 311 312 312 312 314 316 317 319 320 323 322 324 326 329 329 335 337 340 342 349 351 359 362 374 378 380 380 384 384 387 387 391 391 394 395 398 399 402 403 407 408 411 409 409 409 409 410 414 415 416 417 418 418 417 417 419 420 422 420 420 420 417 416 415 415 415 414 411 410 407 405 401 397 391 391 386 384 378 377 369 369 366 364 362 362 366 367 371 372 370 370 368 367 363 364 365 364 368 369 374 375 378 377 379 378 374 374 372 370 367 363 356 355 353 353 351 350 349 346 341 342 341 342 341 341 340 339 337 336 335 333 332 331 333 333 334 333 333 334 336 335 337 336 337 337 336 334 332 331 329 330 331 331 330 327 322 322 317 317 315 313 313 311 308 307 302 300 296 294 290 289 285 282 278 276 271 269 266 265 264 264 264 261 259 257 255 257 261 262 270 271 276 277 278 279 286 287 291 292 296 298 299 298 298 296 295 297 300 299 298 297 293 293 286 284 278 278 279 278 275 276 276 276 277 277 275 273 271 272 273 272 274 275 277 276 274 276
341 342 344 344 347 344 343 340 337 338 338 340 341 342 345 344 345 344 344 345 347 344 344 347 353 345 341 340 342 335 331 331 334 328 326 323 323 322 322 319 318 316 316 316 317 315 313 312 312 306 303 300 298 300 301 302 306 301 299 296 295 295 295 294 296 289 286 282 280 277 274 270 267 263 260 260 263 259 258 257 258 256 255 254 254 252 251 248 247 247 250 250 255 246 241 237 235 232 231 229 228 227 227 228 232 229 229 230 232 230 230 228 228 227 226 225 224 223 225 227 230 227 228 228 229 229 230 229 230 225 224 221 218 222 224 225 226 228 231 231 231 235 239 241 244 241 242 242 245 239 236 234 233 235 237 238 241 237 236 233 230 233 236 239 244 239 237 235 235 230 226 222 219 217 215 217 219 221 222 222 225 224 225 226 227 227 227 225 221 223 223 225 226 227 230 230 233 233 233 233 230 232 232 232 232 232 233 231 231 229 226 224 222 228 232 235 240 240 244 246 252 249 249 246 243 244 249 252 260 257 256 253 250 249 248 247 247 252 255 255 255 254 254 253 250 250 251 252 256 257 259 260 263 261 262 262 264 265 267 266 266 270 274 276 278 280 284 285 288 290 293 295 298 303 310 313 320 316 316 317 321 321 323 321 322 323 323 325 327 330 333 336 339 341 345 347 346 355 364 373 385 381 383 382 383 385 386 388 389 392 396 398 400 404 408 410 415 412 410 409 407 409 412 415 420 419 420 419 419 418 419 419 423 421 421 420 419 417 416 416 420 417 417 415 416 411 407 402 399 396 394 393 395 387 383 378 378 370 367 364 360 366 370 372 377 374 374 371 368 368 368 369 370 371 375 376 377 379 381 381 382 377 376 374 374 367 361 357 351 352 351 351 353 348 345 343 342 342 343 343 346 342 341 340 341 337 335 333 332 332 334 333 335 333 335 335 335 334 335 336 340 336 334 331 331 329 329 329 333 328 325 320 318 315 313 311 311 308 305 304 305 299 296 293 292 287 285 282 280 275 273 270 267 263 260 261 263 260 258 255 251 254 257 261 267 269 274 276 281 281 283 285 287 292 296 298 302 298 296 295 293 294 294 296 298 297 297 295 298 289 283 280 277 278 277 274 273 273 272 273 276 272 271 268 268 267 267 269 272 272 273 272 273
344 345 344 346 345 345 345 343 343 342 341 342 340 342 341 341 343 344 345 346 346 347 349 350 348 349 348 343 343 340 339 335 335 333 333 330 330 329 327 324 324 322 321 321 318 317 316 314 312 310 308 305 307 307 307 307 305 305 304 300 302 302 301 299 296 293 291 287 287 283 280 274 272 267 266 263 265 266 266 264 264 264 262 261 259 257 256 254 253 250 249 249 248 244 244 238 237 232 232 231 230 229 231 230 230 232 233 234 233 235 233 230 230 228 226 225 224 223 223 225 225 225 227 229 229 229 231 232 230 227 228 224 226 226 224 227 228 231 232 234 235 239 240 245 243 245 246 247 245 244 243 240 240 240 238 240 240 241 241 238 239 238 237 240 239 241 241 238 239 235 233 228 227 222 221 222 224 228 227 228 227 228 230 230 229 230 230 230 230 230 230 231 231 234 235 237 237 240 239 239 238 236 234 233 234 235 234 231 231 230 228 225 228 230 229 232 233 236 239 243 241 242 243 243 242 240 242 247 246 251 250 248 247 242 242 242 246 250 249 251 251 250 251 251 250 249 250 252 251 254 255 257 257 259 260 261 262 266 265 265 268 273 274 279 278 279 281 286 286 290 291 294 298 305 307 312 312 317 318 319 320 324 324 323 324 324 326 329 330 332 334 339 338 342 343 348 350 354 357 369 368 377 380 381 382 384 384 387 388 392 395 400 402 407 408 410 410 412 412 411 411 411 412 416 417 420 422 421 420 418 418 418 419 421 421 420 418 417 416 416 417 419 420 419 417 415 412 404 405 401 401 398 395 392 390 384 380 372 371 367 368 368 368 372 373 377 377 376 375 373 373 373 372 373 375 379 380 382 382 382 380 378 378 375 373 368 367 360 359 353 350 350 349 347 347 345 345 345 344 345 344 343 345 344 342 339 338 335 334 332 332 332 333 332 334 334 332 332 332 333 333 335 334 330 330 328 328 326 325 324 322 318 317 312 311 308 306 303 302 300 298 295 294 289 287 284 282 278 277 272 272 269 266 261 260 258 257 257 257 255 256 256 256 261 262 268 270 276 277 282 283 285 289 294 294 299 296 296 295 293 294 294 293 295 295 298 297 295 294 291 290 284 283 279 277 273 273 271 270 268 268 268 267 265 264 263 263 264 264 268 270 271 270
348 347 346 346 345 345 346 345 347 345 346 342 341 341 342 341 342 344 348 347 347 349 352 351 351 350 350 347 348 344 341 340 342 338 338 335 336 334 335 331 331 327 326 322 321 319 319 316 314 312 307 310 314 313 316 311 308 307 308 307 309 307 309 303 299 295 290 291 292 287 283 278 275 271 267 269 271 272 272 271 271 269 268 266 266 262 259 260 260 256 252 251 249 244 239 238 240 235 233 232 232 232 237 234 234 234 235 235 236 236 238 234 232 228 223 223 224 223 222 223 225 226 226 229 233 232 235 233 231 230 231 230 231 228 227 230 233 235 237 237 239 242 248 246 245 247 250 249 248 246 244 242 244 242 242 242 242 243 245 243 244 241 240 240 240 242 243 244 246 240 234 233 233 227 224 227 232 233 236 233 232 233 238 234 233 233 234 234 236 237 240 237 238 240 243 242 243 245 247 246 246 242 238 238 239 238 238 234 232 230 229 228 231 232 235 233 232 234 237 238 237 237 238 238 238 237 239 240 240 243 244 243 243 239 237 242 246 248 249 249 248 249 251 248 248 247 249 249 249 252 254 254 253 256 257 259 262 265 268 267 270 274 279 281 282 283 283 286 287 290 292 296 301 307 314 313 312 315 317 321 324 326 329 328 329 329 330 334 336 338 341 341 341 344 346 350 353 356 361 363 362 372 379 379 381 382 382 386 390 394 401 403 406 410 416 413 411 412 413 413 414 413 414 418 421 424 429 425 424 421 419 420 420 420 421 419 417 416 414 416 417 419 422 420 420 416 413 408 408 405 406 401 397 393 392 386 382 374 369 369 371 370 373 374 376 378 381 380 380 379 379 378 377 378 381 384 384 386 387 383 380 378 377 375 374 370 366 363 362 354 349 349 349 346 343 345 347 346 344 345 347 346 348 345 344 340 337 337 337 335 335 334 334 333 335 332 330 329 329 331 331 333 333 330 330 328 330 324 322 319 316 314 313 308 306 302 301 298 297 294 292 289 287 284 282 278 276 273 274 270 269 265 263 258 255 254 256 254 253 254 258 257 259 261 262 267 272 275 278 282 286 289 294 296 299 298 295 294 292 293 294 293 293 294 295 297 298 297 296 292 289 285 286 280 279 274 272 270 269 266 264 263 262 260 260 258 259 259 260 264 270 268 268
350 349 348 347 347 347 346 347 347 346 343 340 341 340 340 340 340 343 344 348 350 351 351 353 353 350 350 349 349 347 346 344 343 340 340 339 338 337 337 337 336 332 329 323 323 321 321 320 319 317 316 314 315 318 316 315 315 310 311 311 310 311 309 306 307 301 300 296 293 290 287 281 279 276 276 276 277 279 277 277 277 275 274 272 270 266 268 268 267 264 260 255 252 245 244 238 237 236 237 234 233 233 234 235 236 236 236 235 237 238 237 237 234 230 228 223 223 224 224 223 225 229 229 231 233 234 234 235 235 232 233 234 233 231 234 236 237 241 240 241 241 243 245 247 249 250 250 252 251 249 246 242 243 242 245 246 245 245 245 246 246 245 243 241 243 246 246 250 250 246 244 238 235 230 232 232 234 238 236 236 236 234 235 238 239 238 237 237 239 242 241 242 243 245 244 245 248 250 250 252 254 251 249 245 243 241 238 235 233 230 231 230 230 232 232 234 234 232 233 235 234 234 233 233 232 233 234 236 237 239 237 237 236 236 240 243 244 248 247 248 248 248 246 245 244 243 246 249 250 251 250 253 254 255 256 259 260 264 264 268 270 276 278 286 287 288 287 289 289 293 294 299 301 308 308 314 316 316 319 324 325 329 330 332 334 334 337 342 342 344 343 345 345 347 348 354 354 357 358 362 366 371 371 378 379 381 384 388 390 396 400 408 410 414 412 415 416 415 413 414 414 415 417 421 423 427 426 428 427 425 424 423 421 421 420 419 418 417 417 417 416 418 418 421 422 419 416 409 409 406 405 403 401 394 392 387 384 376 375 369 368 371 374 376 379 381 383 386 386 385 384 384 383 383 386 392 393 393 388 386 383 380 379 377 376 372 369 364 360 355 354 348 349 348 348 347 347 348 348 347 348 349 348 347 346 343 343 341 340 337 337 336 335 333 333 330 330 328 330 333 333 334 331 330 328 326 324 321 319 314 313 310 307 303 301 296 294 291 290 288 288 285 283 280 277 273 271 267 267 266 263 259 257 253 252 248 249 251 252 253 254 258 259 262 263 268 269 276 278 282 286 294 296 298 297 299 298 296 294 294 292 293 293 295 296 298 298 300 300 295 290 282 281 279 278 275 274 269 267 265 263 258 257 254 251 251 253 253 256 261 261 265 265
354 350 350 348 350 348 347 347 349 345 341 340 340 339 339 338 338 341 345 348 353 352 355 355 357 352 351 350 350 349 348 347 348 342 340 338 338 338 340 339 343 334 330 327 324 323 322 321 323 322 322 320 321 319 319 318 319 317 316 315 312 313 313 311 313 307 304 301 298 293 288 284 278 280 280 282 286 284 284 283 284 280 279 276 275 273 274 274 277 269 264 259 256 250 245 241 236 237 238 236 233 236 239 237 238 238 240 239 240 240 240 237 234 232 229 227 225 226 226 227 228 231 233 235 241 237 236 236 238 235 236 235 236 235 238 241 247 245 246 245 245 248 251 251 253 253 253 253 254 249 246 245 244 245 248 248 249 246 247 246 248 246 245 245 248 249 251 254 261 250 246 242 239 235 235 238 245 241 239 237 238 237 239 240 245 242 243 242 245 244 245 245 248 247 248 250 255 254 257 258 266 258 255 251 250 245 240 237 230 232 232 231 231 232 233 233 236 233 233 232 231 231 231 229 226 229 232 233 236 235 235 233 229 233 238 242 248 247 247 247 248 245 244 242 239 242 245 248 254 250 250 251 254 254 257 258 263 262 264 266 270 275 281 287 298 292 292 292 294 296 299 302 306 309 312 316 321 320 324 326 331 331 335 337 344 341 344 347 354 348 347 347 347 350 353 356 362 361 363 365 370 371 374 376 378 382 386 391 397 400 406 411 420 416 415 416 418 416 414 414 414 417 420 424 431 429 429 429 428 427 426 425 423 423 423 421 418 419 420 418 416 418 419 421 426 420 417 412 408 406 403 402 402 397 393 388 382 378 373 370 365 373 378 381 386 387 391 391 393 390 389 388 388 390 394 398 408 396 392 387 382 381 380 379 380 374 369 364 357 355 353 351 351 349 349 350 351 351 352 352 354 351 349 348 347 346 345 345 346 342 341 339 337 337 337 333 329 331 332 333 336 333 332 329 326 322 319 316 312 309 307 304 300 297 294 290 285 285 283 282 283 279 277 273 270 266 265 263 262 259 256 253 248 248 247 245 245 247 248 250 255 257 260 262 266 267 272 277 285 285 290 296 309 300 298 298 300 296 294 293 292 293 293 295 299 299 301 302 307 296 288 282 276 277 275 273 273 268 264 263 263 258 254 249 240 246 248 250 253 256 261 262 263
352 350 349 348 348 348 347 347 345 344 342 340 339 337 336 338 339 341 341 346 347 352 353 355 353 352 352 351 351 351 350 349 346 343 341 338 339 337 338 338 337 334 336 331 329 326 323 322 325 327 327 324 323 320 320 321 322 323 322 321 319 317 315 314 314 312 311 307 304 298 295 290 291 288 286 287 286 289 289 288 286 285 283 278 279 279 279 278 275 271 270 264 263 257 254 247 246 241 241 241 241 241 239 239 240 241 241 242 242 243 242 240 239 235 234 232 232 230 231 233 232 235 234 236 236 237 239 238 237 235 236 235 237 237 240 245 244 248 249 250 252 253 252 253 254 256 254 253 253 250 251 249 249 247 248 249 247 246 246 246 246 246 247 248 249 251 252 254 251 250 252 247 245 239 240 241 240 243 242 238 239 239 238 241 241 244 244 244 244 245 245 245 247 250 251 253 252 256 256 259 258 260 261 257 256 251 249 243 243 239 235 232 232 232 231 232 232 233 232 230 230 229 229 228 228 227 226 229 229 232 232 231 232 232 234 239 240 245 246 246 244 243 242 240 241 241 240 244 242 245 246 247 248 250 253 256 255 258 262 264 266 273 275 283 283 290 293 294 295 298 299 304 304 310 312 317 317 322 323 325 327 332 333 338 339 343 345 348 347 350 350 349 351 354 354 358 358 363 365 367 367 370 373 377 379 384 386 393 394 402 404 410 409 415 417 417 417 418 418 417 419 422 423 427 426 429 430 431 431 431 431 429 428 427 426 425 423 421 422 421 420 419 418 420 419 421 421 416 414 408 406 403 402 400 397 391 389 381 379 374 378 379 379 385 385 391 393 395 393 394 393 392 393 395 395 398 394 393 395 390 389 385 382 381 379 376 374 367 365 358 356 354 354 351 352 353 353 355 356 357 355 354 354 351 350 349 348 349 347 345 345 342 344 343 341 339 338 335 333 334 333 333 331 328 325 317 316 313 311 305 305 300 299 294 292 287 286 281 278 277 276 273 272 266 265 259 259 258 256 253 252 249 248 244 243 243 244 244 244 245 248 255 257 261 261 264 268 275 276 284 287 294 291 297 299 298 296 294 295 293 294 295 295 296 296 300 299 300 297 294 293 285 284 278 274 270 270 266 265 262 261 259 256 249 252 248 246 247 248 252 254 259 259
353 350 346 347 349 347 346 345 345 341 337 338 338 335 332 336 339 340 342 345 346 351 355 353 352 350 349 351 353 351 350 348 346 341 336 338 341 339 340 337 337 335 336 331 332 326 323 326 330 331 334 329 328 324 321 323 327 327 328 326 325 322 318 320 320 317 313 311 310 303 296 297 299 295 292 291 291 293 296 291 290 287 285 283 283 283 285 281 277 273 268 268 270 262 257 253 253 248 247 245 246 245 246 244 244 244 243 245 246 245 245 243 242 239 237 236 238 236 239 236 235 237 240 239 240 240 241 239 239 238 236 238 241 242 244 247 248 250 251 255 259 259 260 258 257 258 257 256 256 253 253 252 254 251 253 249 246 245 243 245 247 247 246 250 253 254 255 253 252 251 252 248 249 243 243 241 241 242 245 240 240 238 235 239 241 243 245 244 246 246 247 247 250 251 256 253 253 255 256 257 258 259 263 260 262 256 252 249 250 244 240 236 234 232 230 231 231 230 230 228 228 227 229 226 226 225 225 225 225 228 232 230 231 233 238 239 240 243 246 243 242 239 238 238 239 238 238 237 235 239 240 243 246 248 252 251 251 256 264 263 266 271 276 278 278 285 292 294 298 300 303 304 304 310 317 318 319 322 325 327 330 332 334 338 340 344 346 348 348 349 349 351 355 356 358 359 359 363 368 368 369 372 377 380 382 386 390 394 396 403 407 408 408 412 416 417 421 421 422 423 426 427 430 429 428 430 429 432 434 434 436 433 432 430 430 428 426 426 428 424 423 421 420 419 418 420 423 418 417 410 405 404 405 401 398 393 391 384 379 382 387 386 387 388 388 394 400 396 394 395 396 395 396 397 399 396 392 391 391 390 392 386 383 382 382 378 376 371 368 361 355 356 358 355 354 355 356 357 361 359 359 358 357 355 354 352 350 350 352 349 349 348 350 348 348 344 343 339 335 336 336 333 329 327 325 316 309 309 309 304 303 299 298 291 287 284 282 276 270 271 272 269 268 261 259 254 252 250 250 246 245 243 243 240 239 241 243 242 242 244 246 253 260 259 259 263 268 272 274 282 288 287 285 289 294 295 297 294 293 293 294 295 297 296 297 298 300 297 295 292 289 285 285 278 274 271 269 264 260 260 262 258 254 254 257 252 249 248 248 250 255 254 255
353 351 350 348 348 348 347 345 343 340 339 337 335 335 336 336 338 340 343 347 347 351 349 351 351 350 351 352 352 353 350 348 345 341 341 337 338 339 337 335 336 335 331 327 328 326 329 331 331 334 332 332 332 329 327 325 327 331 331 332 331 329 329 328 326 324 321 317 314 308 309 305 304 302 300 295 296 297 294 292 293 290 289 287 286 285 284 284 284 278 275 270 269 264 263 256 257 254 253 249 250 250 249 248 250 250 249 250 249 247 247 246 245 243 241 239 238 240 240 239 240 239 240 242 243 244 243 241 242 243 242 241 243 247 249 252 252 254 257 260 263 267 265 264 263 263 261 258 258 254 254 254 253 252 251 248 247 245 244 245 246 249 251 254 255 257 254 252 251 250 248 246 245 244 243 240 240 241 240 240 240 239 240 240 240 242 243 244 246 248 248 248 248 250 251 252 254 255 255 255 257 258 259 261 263 260 259 254 254 250 246 239 237 235 234 233 231 228 227 225 224 224 224 222 223 223 222 221 221 224 225 229 230 233 235 239 242 244 240 238 238 235 236 236 235 235 235 234 235 237 237 240 243 247 246 247 248 252 254 261 264 269 270 276 277 281 284 292 296 301 302 306 308 311 313 321 322 325 326 330 331 335 336 342 343 347 347 350 350 352 352 354 355 359 359 361 361 364 365 369 371 375 378 384 385 391 392 397 401 407 405 409 409 411 413 417 420 425 426 429 429 431 431 434 435 434 433 436 435 437 436 435 436 434 433 431 430 429 427 424 425 423 421 418 420 420 417 418 417 411 410 405 406 404 400 394 391 386 388 388 389 393 393 394 397 399 396 398 397 396 396 397 399 401 398 395 393 390 390 389 388 387 386 384 383 380 378 373 371 365 364 359 360 360 359 357 356 357 359 362 362 362 361 360 359 357 354 352 353 353 352 352 352 353 351 347 348 344 344 342 340 337 334 328 323 316 314 307 304 300 301 297 294 287 287 282 278 273 272 268 267 266 262 254 253 248 246 241 241 239 238 236 235 234 238 241 241 241 243 244 246 252 251 257 258 261 264 272 276 282 280 282 282 283 286 292 293 295 295 294 294 295 295 297 297 298 297 296 294 291 288 283 279 275 275 271 268 262 263 259 259 258 258 256 255 254 252 249 248 248 247 250 250
356 352 349 349 351 348 346 343 343 339 337 335 333 335 337 339 344 343 346 347 351 349 349 348 349 349 350 352 356 352 349 347 344 342 341 339 341 338 336 334 335 332 328 325 323 327 329 332 338 335 334 332 334 331 329 330 334 334 335 335 337 335 335 335 337 330 326 322 321 315 313 311 313 307 305 302 301 299 298 295 294 291 290 289 287 286 285 286 289 282 278 274 275 267 263 260 262 258 256 254 257 254 254 254 256 254 254 254 256 253 252 249 247 245 243 241 238 242 245 244 245 245 247 247 249 247 247 246 246 247 248 247 249 252 256 258 261 262 266 268 275 272 271 269 268 267 266 263 263 258 255 254 254 251 250 248 245 244 243 246 248 251 254 258 265 259 255 252 249 249 246 244 240 241 240 239 239 239 240 239 238 240 242 242 245 244 246 246 247 249 250 249 248 252 254 253 253 255 258 257 259 260 262 264 268 263 261 259 261 253 245 241 236 236 236 235 236 230 226 223 219 221 223 221 220 220 219 219 217 221 224 226 227 233 239 242 250 243 240 238 234 234 234 233 231 231 232 231 231 234 238 239 246 243 244 242 243 246 253 257 263 266 271 273 275 280 288 293 301 301 304 307 313 313 318 322 328 328 331 333 336 338 340 344 350 351 353 353 354 354 354 356 360 361 363 363 364 365 368 370 372 379 385 388 391 394 399 403 411 409 410 410 411 413 417 419 423 426 430 431 435 435 436 438 442 438 436 437 441 439 440 438 442 437 435 433 433 430 429 427 427 424 423 420 422 417 415 415 416 411 409 408 411 404 399 394 386 388 389 393 399 399 401 402 408 404 402 400 395 398 399 401 405 402 400 396 391 390 389 387 385 385 384 385 388 381 377 374 370 369 367 365 367 364 362 360 357 359 362 362 365 363 363 363 365 358 355 355 359 355 354 353 356 355 355 353 353 349 348 347 348 340 335 329 322 316 311 306 300 299 298 295 291 287 283 278 272 270 268 266 265 261 257 250 243 242 239 235 233 231 230 229 228 233 237 240 245 243 244 245 247 249 252 253 255 260 265 272 283 281 282 279 275 280 286 289 294 294 295 295 295 296 297 297 298 297 297 295 292 289 285 280 271 272 271 268 267 263 263 261 262 258 256 256 259 253 251 249 246 245 245 246 246
356 355 353 349 348 347 345 341 341 339 338 334 336 337 337 339 340 343 346 347 345 346 346 346 347 349 349 351 349 351 350 347 346 344 342 340 338 336 335 333 333 331 329 325 328 330 329 331 331 334 333 331 333 334 334 332 333 336 336 338 338 341 342 342 339 335 333 327 326 321 319 316 314 311 310 307 305 302 300 299 298 293 293 292 291 287 288 288 285 283 281 276 274 268 266 260 261 260 259 257 258 256 257 258 258 259 259 259 258 257 255 253 252 249 248 244 247 248 248 250 249 250 250 251 250 248 250 251 252 253 253 253 255 258 261 265 265 269 270 273 273 277 278 276 275 271 271 268 265 261 260 256 254 250 250 249 248 246 246 248 248 253 255 260 257 259 259 254 254 251 249 246 244 241 240 239 238 237 238 239 240 241 242 244 243 244 246 247 248 252 252 253 254 256 255 256 256 257 257 259 260 263 263 265 264 266 265 263 261 256 254 247 245 239 238 238 235 230 229 223 224 220 220 222 221 220 221 221 222 222 223 227 229 235 236 243 240 240 242 240 239 236 234 233 232 228 228 229 230 233 232 234 235 238 238 237 237 238 242 252 254 262 265 270 272 279 282 291 292 299 302 307 308 313 317 323 322 328 331 335 336 341 342 345 347 354 355 357 357 358 357 357 359 362 365 367 367 367 370 374 377 384 386 393 393 396 399 405 404 410 411 413 413 414 416 420 421 426 429 433 436 440 441 442 440 441 440 438 439 441 440 437 437 437 437 436 434 432 430 428 427 425 423 419 418 414 414 413 413 411 412 407 406 405 404 398 398 393 395 399 399 405 405 407 406 409 409 406 407 405 404 405 403 402 402 398 397 392 390 388 387 385 383 384 383 380 382 378 377 374 372 370 369 368 367 364 364 361 361 362 363 365 365 364 362 358 359 357 356 355 354 353 355 358 358 357 355 351 352 350 346 340 340 333 330 318 315 308 307 299 297 294 293 288 285 278 277 270 267 264 262 257 255 248 246 238 234 227 226 224 224 225 229 233 234 239 239 243 244 245 245 248 248 250 253 259 262 269 269 278 279 278 279 279 279 285 288 295 296 296 297 298 297 296 296 295 296 296 294 290 287 281 279 273 269 265 264 262 262 260 259 257 256 253 253 251 252 250 248 243 243 243 243
357 356 354 351 350 346 344 341 341 338 336 336 339 338 340 340 343 345 350 345 344 344 343 344 346 346 349 347 346 347 349 345 346 343 342 339 337 333 330 332 332 330 328 327 331 331 335 332 331 331 331 331 334 334 337 335 338 338 339 339 341 344 348 347 347 340 333 330 330 324 320 318 318 314 311 309 309 304 300 301 302 298 296 295 296 292 290 289 287 283 279 276 274 268 261 261 262 260 259 261 264 261 259 262 264 263 263 263 262 260 256 257 257 254 252 252 254 254 257 255 254 254 254 254 254 252 252 254 258 259 261 260 263 266 272 272 272 275 278 276 276 279 284 282 282 277 277 271 268 263 260 257 258 252 249 249 250 248 247 249 251 255 260 259 258 259 261 258 259 253 252 247 245 241 240 239 238 238 239 239 241 242 246 245 245 246 248 249 250 253 257 257 259 259 260 258 257 258 260 260 262 264 267 266 266 266 265 264 264 258 252 250 251 243 241 239 237 232 229 227 228 222 220 220 221 221 223 223 226 227 229 230 231 236 241 240 239 240 241 241 242 238 235 234 233 228 224 227 229 230 232 231 231 233 234 231 229 233 238 246 250 259 266 268 269 277 286 288 290 297 302 306 310 316 322 322 321 328 335 336 340 343 348 348 352 356 360 361 362 362 362 361 363 366 372 370 371 372 376 379 383 389 396 396 398 401 405 405 405 409 411 415 417 418 420 421 423 428 436 438 441 444 448 444 441 441 442 441 443 441 441 437 436 436 436 435 436 432 430 428 427 424 423 419 417 413 410 411 414 413 414 407 405 403 403 402 405 401 402 402 404 408 412 410 409 411 413 413 415 412 411 409 407 406 406 401 398 393 390 388 387 384 381 383 384 382 382 379 379 377 376 374 373 372 371 369 369 366 366 365 365 365 366 365 364 360 357 357 358 355 352 355 358 359 361 358 357 354 354 350 348 343 340 336 335 322 313 312 310 303 298 294 292 287 283 279 277 270 264 260 259 253 250 246 244 235 229 221 217 216 217 222 228 233 239 239 238 241 245 244 244 246 249 251 254 260 265 266 266 273 279 277 278 277 277 282 286 293 301 299 301 299 300 297 298 297 297 296 295 290 288 282 280 273 270 264 261 259 259 259 259 256 252 253 254 251 251 249 249 245 243 241 241
359 358 355 351 349 345 343 340 339 338 338 336 337 338 339 340 342 345 342 341 343 343 342 342 342 342 343 344 343 343 341 340 342 341 340 338 336 332 333 333 332 329 328 326 327 330 330 332 332 328 329 331 330 333 333 335 339 341 340 341 342 347 348 353 355 348 342 332 330 326 325 321 319 316 314 309 309 306 306 303 304 304 301 298 297 296 294 291 289 285 283 276 275 270 269 263 260 261 263 265 266 268 268 268 268 268 269 269 267 265 265 265 263 261 260 258 257 259 259 260 260 259 258 258 258 255 256 258 260 264 263 266 268 273 274 280 281 281 279 280 280 281 282 286 285 280 279 274 271 265 263 257 256 254 253 250 250 250 251 253 254 257 256 260 260 260 259 258 257 252 251 246 245 240 242 241 240 240 239 239 240 243 244 245 247 248 249 251 251 254 255 261 263 263 261 259 258 259 259 261 263 264 265 266 268 268 267 267 267 262 259 252 248 243 244 241 239 234 232 228 226 223 223 220 220 222 222 224 227 231 231 234 235 239 237 239 242 243 242 242 241 239 238 235 233 229 228 226 225 226 228 229 229 229 227 225 224 228 234 245 249 259 260 268 270 277 278 288 291 297 299 307 313 319 318 322 324 328 329 336 341 346 346 350 354 358 360 367 370 369 366 365 365 368 368 371 374 377 378 384 386 393 394 400 405 408 405 406 408 411 413 420 420 423 422 423 424 428 433 443 446 448 446 447 446 441 442 442 442 440 439 437 437 436 435 435 435 433 432 428 426 424 422 419 418 414 413 410 411 413 410 404 404 402 404 405 405 407 407 406 409 413 412 413 415 416 416 420 419 417 415 414 413 410 407 403 401 395 393 390 388 386 386 384 384 383 382 380 380 379 380 379 379 376 374 373 372 370 369 367 366 367 367 367 366 363 362 358 358 358 357 357 356 359 359 359 358 356 354 351 349 344 343 337 335 325 325 317 313 307 303 294 290 286 285 280 276 270 266 256 254 249 249 243 239 231 227 214 209 209 215 221 223 232 234 240 240 241 241 244 245 245 248 252 256 262 262 267 267 270 269 273 275 277 279 283 285 292 292 299 301 299 298 297 299 298 297 297 295 290 288 281 277 270 268 261 260 257 258 258 257 256 255 253 252 251 249 246 247 245 243 238 238
363 358 355 350 346 343 340 339 336 338 339 339 340 340 341 341 345 341 339 339 341 340 341 340 341 339 340 339 339 338 337 337 338 338 338 335 333 331 330 332 338 330 327 326 327 328 330 330 333 329 328 328 328 330 332 336 343 341 340 342 344 348 354 358 371 353 344 335 329 327 324 322 319 317 315 313 310 309 308 308 312 306 303 300 300 297 295 293 293 287 284 280 277 273 270 266 256 264 267 269 272 271 273 274 278 275 275 273 273 270 270 270 273 267 264 262 260 262 264 264 267 263 261 262 265 260 259 261 266 266 267 269 274 276 281 284 292 285 284 283 284 285 288 287 290 284 281 275 270 267 264 260 256 255 252 251 251 252 254 256 262 259 258 259 261 260 261 258 259 252 247 244 242 241 242 241 242 240 239 239 240 243 247 247 250 250 252 251 252 254 258 262 272 265 263 260 257 259 262 263 270 267 268 269 273 269 268 269 274 264 258 253 248 245 242 240 240 235 231 228 224 224 222 221 219 223 224 227 233 233 236 237 240 239 240 241 247 244 244 242 242 240 239 236 235 230 227 227 226 227 228 228 226 227 225 220 209 225 235 244 256 258 264 266 272 275 281 286 296 295 302 308 324 319 322 321 324 326 331 337 348 346 348 351 360 359 363 370 385 372 369 366 366 367 371 372 378 378 383 386 392 395 400 405 417 411 411 409 411 414 419 421 429 425 425 425 426 430 438 444 457 449 448 446 448 444 444 443 447 441 439 436 435 435 434 434 437 433 431 428 424 423 421 419 416 415 413 412 412 410 409 404 398 403 405 406 407 408 410 411 416 416 419 419 421 420 421 423 428 421 417 417 418 413 410 405 400 396 392 391 387 388 389 389 391 386 383 381 379 381 383 382 385 379 377 375 375 373 371 369 367 369 370 370 370 366 364 362 361 358 357 357 359 359 360 358 358 356 354 351 348 345 343 339 338 330 325 321 317 311 304 296 285 287 284 280 273 269 262 257 248 249 247 242 234 228 219 209 187 206 213 219 223 229 236 239 243 241 241 243 246 247 252 255 264 263 266 266 268 268 270 271 273 275 279 282 290 290 292 296 305 299 298 298 302 298 298 297 298 291 287 280 271 268 262 259 252 256 258 258 257 255 254 254 254 251 248 247 246 245 243 240 236
