2218 2228 2220 2223 2227 2243 2236 2243 2252 2272 2271 2300 2304 2334 2360 2385 2376 2370 2376 2373 2377 2372 2368 2388 2399 2422 2433 2459 2464 2504 2517 2534 2550 2570 2567 2560 2553 2553 2540 2524 2543 2549 2547 2558 2551 2551 2557 2578 2577 2594 2601 2606 2607 2615 2615 2622 2625 2629 2639 2648 2649 2644 2658 2686 2681 2704 2704 2716 2728 2753 2770 2786 2796 2813 2823 2850 2864 2891 2885 2875 2879 2865 2871 2868 2867 2862 2859 2856 2863 2876 2875 2865 2856 2827 2821 2810 2806 2784 2776 2761 2760 2741 2738 2712 2692 2660 2641 2604 2594 2566 2548 2516 2510 2481 2471 2454 2461 2451 2458 2467 2470 2474 2472 2454 2438 2403 2402 2388 2407 2418 2432 2460 2455 2467 2476 2482 2490 2504 2514 2549 2551 2580 2591 2579 2576 2557 2565 2582 2577 2601 2601 2613 2599 2578 2581 2566 2586 2602 2592 2612 2608 2606 2620 2611 2597 2580 2583 2602 2609 2628 2637 2649 2635 2626 2622 2605 2605 2596 2581 2555 2565 2556 2562 2586 2586 2605 2604 2630 2633 2662 2663 2667 2671 2680 2692 2717 2736 2769 2783 2818 2840 2904 2917 2963 2965 3013 3032 3058 3066 3095 3100 3130 3139 3168 3191 3209 3220 3254 3249 3253 3245 3247 3253 3241 3240 3217 3210 3193 3181 3152 3142 3121 3111 3088 3078 3040 3032 2994 2984 2970 2954 2920 2914 2884 2870 2833 2824 2806 2803 2791 2788 2787 2789 2786 2783 2780 2767 2745 2735 2692 2702 2670 2674 2696 2698 2725 2735 2755 2750 2773 2781 2774 2777 2766 2757 2741 2742 2729 2724 2716 2720 2718 2721 2730 2736 2749 2757 2768 2790 2826 2825 2863 2871 2912 2919 2946 2951 2968 2974 3006 2998 3021 3031 3048 3048 3047 3050 3045 3040 3029 3033 3030 3040 3051 3056 3086 3075 3082 3100 3114 3112 3136 3133 3160 3161 3176 3189 3195 3192 3204 3203 3216 3206 3225 3223 3213 3222 3249 3242 3260 3267 3295 3294 3312 3333 3363 3360 3384 3392 3410 3428 3428 3411 3367 3358 3302 3300 3261 3238 3226 3209 3187 3166 3117 3117 3092 3069 3042 3049 3053 3043 3033 3032 3020 3014 3003 3003 2993 2976 2952 2955 2938 2936 2917 2907 2875 2860 2812 2798 2743 2726 2684 2681 2646 2631 2579 2578 2547 2527 2506 2499 2469 2454 2448 2433 2416 2409 2385 2371 2333 2315 2255 2241 2179 2155 2118 2108 2090 2086 2052 2067 2069 2058 2070 2076 2099 2110 2132 2142 2179 2182 2190 2194 2205 2220 2229 2221 2226 2218 2187 2193 2178 2171 2169 2167 2164 2157 2166 2173 2201 2209 2244 2244 2268 2278 2279 2278 2277 2288 2305 2317 2346 2344 2352 2352 2354 2355 2366 2368 2385 2394 2394 2385 2380 2381 2373 2363 2358 2361 2359 2338 2299 2292 2248 2253 2219 2203 2191 2175 2149 2151 2114 2113 2081 2081 2088 2086 2101 2099 2112 2108 2111 2121 2114 2108 2094 2090 2068 2062 2047 2043 2030 2041
2242 2242 2245 2242 2242 2251 2255 2257 2264 2277 2290 2304 2312 2347 2393 2400 2407 2405 2403 2407 2412 2400 2387 2412 2421 2446 2474 2480 2482 2524 2564 2578 2595 2607 2624 2580 2553 2546 2532 2550 2568 2569 2579 2562 2548 2564 2583 2580 2582 2596 2612 2613 2615 2619 2621 2624 2628 2642 2662 2653 2655 2663 2678 2680 2677 2695 2709 2725 2740 2767 2789 2801 2814 2834 2858 2865 2867 2890 2905 2897 2896 2890 2892 2888 2883 2878 2876 2872 2874 2878 2893 2871 2859 2837 2811 2818 2828 2796 2762 2759 2750 2733 2716 2698 2682 2650 2608 2598 2591 2547 2509 2491 2480 2454 2441 2445 2450 2443 2439 2456 2461 2464 2470 2446 2421 2394 2366 2380 2408 2416 2444 2443 2442 2452 2455 2481 2505 2506 2508 2525 2529 2563 2591 2578 2580 2565 2565 2567 2558 2584 2595 2600 2595 2585 2572 2582 2603 2604 2602 2611 2607 2615 2634 2614 2603 2582 2575 2590 2598 2619 2644 2638 2627 2621 2614 2607 2604 2599 2592 2579 2585 2578 2585 2584 2579 2603 2616 2625 2621 2646 2661 2665 2674 2684 2703 2724 2745 2773 2802 2828 2854 2915 2970 2969 2961 3014 3057 3071 3077 3096 3114 3124 3130 3167 3199 3208 3225 3248 3273 3245 3223 3232 3229 3245 3264 3227 3200 3179 3164 3134 3102 3094 3088 3063 3036 3018 3016 2974 2941 2938 2937 2900 2880 2852 2834 2796 2768 2768 2775 2754 2736 2753 2770 2756 2738 2744 2737 2721 2706 2695 2708 2681 2675 2682 2688 2712 2725 2731 2726 2747 2758 2767 2782 2766 2752 2744 2737 2720 2697 2707 2718 2715 2716 2732 2748 2755 2775 2781 2793 2822 2845 2849 2849 2893 2922 2937 2951 2969 2990 2983 2969 3002 3028 3036 3038 3042 3042 3039 3042 3028 3022 3027 3042 3053 3074 3068 3059 3082 3108 3101 3099 3115 3129 3142 3142 3167 3185 3188 3189 3196 3204 3192 3188 3203 3220 3212 3212 3229 3255 3245 3232 3255 3260 3293 3320 3344 3362 3370 3374 3405 3436 3427 3419 3377 3335 3311 3312 3261 3234 3214 3197 3162 3115 3114 3110 3082 3050 3033 3028 3033 3031 3023 3020 3008 3008 2995 2990 2967 2934 2945 2950 2946 2947 2932 2927 2889 2869 2830 2816 2750 2695 2685 2675 2642 2613 2590 2581 2543 2503 2486 2474 2440 2400 2409 2407 2383 2352 2350 2343 2296 2252 2228 2215 2148 2083 2063 2047 2038 2040 2030 2036 2034 2034 2036 2031 2062 2096 2104 2099 2133 2144 2156 2163 2181 2211 2197 2180 2186 2186 2177 2187 2161 2144 2145 2148 2144 2140 2145 2156 2175 2196 2205 2208 2238 2253 2258 2259 2261 2265 2289 2301 2321 2341 2335 2335 2335 2333 2340 2339 2360 2390 2373 2365 2358 2355 2347 2341 2341 2351 2338 2329 2298 2271 2259 2262 2220 2186 2170 2150 2136 2125 2109 2110 2087 2083 2069 2057 2067 2068 2081 2083 2088 2089 2087 2085 2072 2057 2044 2039 2028 2015 2016 2026
2255 2256 2257 2260 2264 2266 2264 2267 2278 2284 2294 2314 2323 2350 2367 2415 2429 2443 2437 2443 2434 2430 2438 2452 2452 2470 2481 2508 2520 2549 2562 2620 2636 2640 2609 2584 2585 2549 2562 2579 2574 2581 2571 2566 2572 2577 2569 2579 2584 2596 2603 2619 2622 2625 2624 2626 2641 2651 2644 2647 2661 2676 2670 2681 2677 2691 2705 2735 2751 2786 2785 2815 2829 2854 2860 2886 2894 2899 2903 2913 2921 2908 2910 2911 2900 2891 2889 2883 2878 2869 2869 2870 2870 2853 2843 2825 2827 2810 2798 2766 2744 2725 2717 2683 2678 2650 2632 2590 2569 2525 2515 2461 2438 2414 2434 2436 2429 2433 2444 2459 2453 2454 2445 2439 2424 2389 2385 2358 2362 2395 2407 2427 2434 2444 2456 2484 2491 2508 2506 2514 2523 2552 2543 2563 2566 2558 2559 2563 2566 2583 2581 2598 2601 2595 2593 2589 2600 2612 2614 2626 2620 2614 2611 2608 2598 2573 2585 2588 2593 2609 2608 2632 2628 2618 2615 2608 2608 2606 2594 2585 2585 2586 2589 2588 2594 2612 2611 2634 2632 2640 2640 2661 2658 2681 2702 2734 2746 2778 2799 2838 2869 2934 2935 2982 3001 3025 3033 3092 3097 3100 3103 3125 3139 3174 3172 3202 3221 3242 3232 3234 3237 3230 3229 3249 3249 3228 3202 3161 3151 3121 3101 3066 3057 3040 3021 2982 2966 2947 2941 2907 2892 2864 2849 2813 2790 2752 2751 2725 2719 2717 2726 2721 2729 2733 2730 2722 2709 2698 2695 2675 2677 2674 2678 2670 2688 2713 2705 2719 2725 2733 2734 2755 2769 2767 2759 2749 2737 2718 2715 2698 2703 2710 2725 2735 2735 2749 2765 2789 2800 2824 2826 2840 2859 2892 2891 2930 2944 2970 2958 2967 2978 2990 2997 3030 3028 3041 3034 3028 3032 3020 3024 3016 3026 3045 3046 3054 3062 3079 3073 3085 3087 3096 3106 3137 3144 3167 3162 3184 3181 3189 3174 3162 3172 3182 3188 3206 3200 3200 3210 3233 3233 3236 3248 3283 3296 3334 3341 3363 3374 3403 3399 3428 3429 3388 3358 3297 3280 3240 3239 3201 3188 3150 3146 3114 3094 3077 3060 3014 3016 3021 3016 3010 3003 2986 2990 2981 2974 2952 2954 2946 2940 2951 2944 2940 2920 2885 2868 2825 2804 2746 2737 2689 2667 2636 2627 2590 2576 2541 2517 2464 2445 2417 2417 2384 2369 2358 2346 2320 2293 2257 2245 2190 2175 2116 2090 2005 1983 1977 1994 1995 1995 1998 2005 2012 2010 2024 2045 2089 2095 2112 2105 2128 2125 2145 2150 2171 2166 2155 2153 2151 2155 2138 2140 2120 2126 2126 2123 2121 2124 2147 2157 2175 2195 2225 2222 2242 2236 2246 2262 2288 2285 2297 2302 2315 2325 2318 2323 2324 2322 2328 2332 2345 2343 2332 2329 2319 2317 2316 2316 2313 2319 2294 2285 2258 2245 2213 2198 2153 2143 2123 2116 2089 2087 2075 2070 2048 2044 2043 2051 2064 2065 2069 2064 2060 2056 2055 2042 2014 2017 2012 2004 1994 1995
2267 2270 2270 2278 2286 2284 2282 2291 2308 2305 2314 2324 2341 2361 2394 2420 2467 2450 2455 2455 2462 2454 2461 2476 2499 2506 2526 2534 2551 2566 2599 2640 2723 2650 2618 2596 2584 2570 2569 2584 2607 2583 2570 2570 2567 2571 2573 2577 2578 2599 2615 2624 2635 2628 2630 2644 2666 2652 2651 2657 2662 2667 2671 2673 2660 2693 2718 2742 2776 2783 2800 2823 2858 2863 2887 2899 2933 2921 2933 2934 2959 2930 2925 2915 2907 2906 2899 2895 2885 2876 2864 2862 2866 2852 2838 2845 2864 2816 2789 2760 2725 2724 2711 2686 2664 2638 2606 2585 2555 2523 2486 2442 2369 2400 2407 2413 2409 2425 2436 2444 2461 2442 2427 2420 2399 2392 2372 2362 2329 2384 2401 2418 2424 2438 2456 2481 2520 2505 2500 2507 2520 2523 2530 2540 2552 2545 2537 2544 2554 2568 2585 2593 2617 2600 2596 2601 2627 2618 2617 2623 2638 2620 2618 2603 2577 2581 2579 2592 2601 2600 2596 2608 2621 2612 2610 2609 2605 2598 2584 2583 2580 2595 2597 2598 2594 2611 2621 2635 2641 2644 2638 2648 2631 2677 2719 2741 2770 2795 2836 2857 2902 2931 2972 2987 3027 3033 3056 3089 3139 3106 3112 3120 3146 3158 3184 3199 3243 3227 3227 3221 3214 3212 3214 3238 3292 3207 3156 3134 3124 3090 3055 3034 3022 3002 2977 2946 2900 2901 2894 2876 2858 2823 2783 2758 2716 2708 2693 2688 2667 2684 2692 2705 2728 2710 2697 2689 2678 2679 2673 2664 2653 2657 2660 2665 2697 2689 2702 2704 2724 2717 2724 2746 2797 2755 2739 2731 2729 2718 2710 2704 2707 2721 2739 2736 2740 2753 2776 2790 2814 2826 2847 2851 2862 2883 2895 2920 2955 2945 2945 2953 2965 2982 3001 3006 3013 3020 3031 3028 3039 3025 3019 3014 3022 3032 3044 3040 3041 3061 3071 3069 3062 3080 3094 3119 3145 3149 3156 3160 3168 3163 3157 3150 3142 3165 3178 3176 3176 3183 3197 3202 3209 3223 3244 3268 3309 3320 3348 3351 3369 3376 3393 3415 3467 3381 3331 3290 3251 3230 3205 3191 3168 3143 3123 3100 3071 3059 3039 3012 2979 3002 3006 3000 2985 2976 2973 2968 2956 2945 2931 2934 2932 2936 2938 2924 2911 2870 2836 2809 2779 2743 2697 2680 2649 2630 2607 2588 2560 2528 2483 2454 2399 2406 2396 2375 2336 2332 2300 2289 2245 2227 2190 2167 2143 2090 2026 1973 1867 1942 1957 1965 1949 1969 1974 1982 1972 2007 2039 2059 2083 2080 2083 2089 2084 2106 2124 2125 2130 2128 2127 2133 2146 2124 2115 2109 2116 2103 2100 2097 2088 2121 2150 2159 2186 2203 2216 2214 2203 2228 2257 2271 2292 2290 2296 2307 2329 2312 2318 2305 2306 2303 2318 2311 2308 2305 2302 2291 2279 2294 2295 2302 2318 2285 2261 2254 2240 2205 2166 2146 2113 2112 2105 2086 2059 2061 2050 2034 2004 2030 2043 2049 2062 2054 2045 2039 2023 2023 2015 1997 1986 1977 1971 1964 1965
2283 2288 2294 2299 2297 2302 2304 2309 2307 2316 2328 2328 2335 2362 2371 2404 2404 2438 2454 2462 2466 2466 2480 2493 2499 2529 2530 2553 2550 2566 2584 2621 2601 2622 2631 2600 2604 2581 2575 2583 2572 2576 2582 2578 2570 2568 2570 2580 2590 2607 2612 2630 2626 2624 2637 2654 2642 2643 2658 2669 2662 2661 2672 2681 2691 2703 2707 2740 2742 2773 2787 2820 2819 2853 2865 2891 2896 2922 2930 2931 2932 2931 2937 2917 2925 2927 2919 2915 2902 2888 2869 2850 2856 2853 2857 2856 2831 2802 2798 2762 2764 2736 2712 2687 2676 2634 2621 2589 2570 2527 2501 2454 2460 2410 2397 2400 2411 2424 2423 2423 2422 2427 2431 2418 2420 2408 2398 2390 2399 2411 2403 2423 2418 2431 2446 2465 2467 2492 2489 2494 2488 2493 2497 2518 2519 2535 2532 2523 2533 2550 2553 2573 2577 2594 2593 2593 2596 2616 2614 2614 2611 2611 2611 2610 2610 2595 2594 2602 2589 2595 2585 2586 2587 2600 2608 2614 2605 2597 2597 2586 2601 2617 2610 2613 2615 2620 2634 2647 2644 2657 2654 2662 2665 2680 2696 2742 2751 2796 2812 2852 2861 2916 2935 2970 2984 3024 3041 3070 3051 3076 3090 3098 3107 3131 3149 3170 3175 3199 3207 3210 3203 3193 3191 3198 3173 3155 3148 3096 3092 3061 3038 2995 2997 2970 2957 2926 2911 2866 2862 2847 2832 2790 2772 2720 2719 2673 2670 2670 2671 2663 2671 2679 2678 2682 2678 2661 2672 2668 2664 2656 2653 2642 2636 2634 2636 2646 2659 2672 2675 2687 2695 2710 2703 2719 2726 2707 2721 2717 2714 2703 2717 2731 2731 2732 2738 2747 2751 2781 2784 2821 2830 2858 2861 2884 2883 2903 2897 2912 2928 2936 2944 2972 2970 2983 2985 2998 3004 3017 3019 3024 3014 3000 3011 3018 3015 3021 3040 3056 3058 3060 3068 3068 3078 3102 3102 3129 3134 3133 3137 3140 3141 3139 3149 3159 3145 3144 3153 3162 3164 3171 3186 3206 3213 3236 3250 3291 3309 3324 3330 3342 3356 3372 3347 3339 3340 3284 3280 3226 3219 3192 3179 3134 3123 3093 3087 3052 3049 3017 3023 3002 2993 3001 2988 2961 2963 2963 2954 2942 2933 2930 2925 2926 2922 2910 2892 2851 2836 2796 2792 2752 2731 2686 2675 2629 2621 2597 2576 2531 2508 2471 2464 2413 2401 2386 2370 2336 2318 2293 2272 2218 2192 2145 2135 2077 2067 1997 2019 1970 1952 1959 1958 1956 1955 1971 1973 1993 2000 2028 2023 2043 2052 2061 2059 2074 2066 2075 2088 2100 2107 2111 2105 2100 2097 2087 2084 2073 2081 2079 2088 2100 2101 2128 2147 2188 2188 2196 2200 2208 2222 2247 2257 2275 2280 2289 2285 2286 2288 2272 2273 2263 2268 2276 2281 2281 2280 2266 2278 2287 2281 2284 2274 2270 2275 2259 2241 2204 2191 2153 2147 2107 2099 2091 2082 2060 2053 2037 2039 2031 2015 2027 2029 2040 2035 2029 2018 1999 1988 1973 1966 1942 1933 1927 1928
2295 2301 2323 2313 2319 2316 2322 2320 2324 2334 2360 2342 2337 2359 2377 2382 2381 2418 2450 2466 2483 2487 2499 2504 2514 2527 2540 2554 2557 2572 2599 2590 2565 2581 2582 2595 2618 2581 2555 2562 2561 2562 2569 2569 2567 2566 2567 2587 2602 2616 2636 2636 2636 2641 2638 2642 2642 2647 2656 2662 2667 2669 2686 2694 2709 2716 2728 2737 2740 2768 2779 2803 2806 2837 2861 2881 2885 2919 2937 2935 2936 2933 2944 2929 2933 2928 2929 2920 2909 2889 2854 2857 2858 2854 2853 2844 2831 2801 2765 2763 2770 2734 2701 2686 2672 2631 2597 2577 2559 2516 2471 2479 2493 2447 2411 2415 2416 2425 2436 2417 2402 2414 2420 2426 2427 2417 2395 2411 2425 2436 2450 2438 2418 2440 2466 2464 2458 2466 2452 2463 2466 2466 2457 2484 2493 2507 2519 2514 2524 2530 2537 2553 2556 2574 2568 2582 2581 2596 2601 2605 2603 2598 2586 2601 2620 2609 2605 2598 2583 2579 2561 2567 2569 2584 2600 2605 2601 2601 2601 2607 2619 2627 2632 2629 2631 2650 2676 2658 2651 2660 2659 2667 2680 2700 2733 2747 2749 2790 2831 2834 2841 2899 2952 2961 2971 3007 3043 3020 3004 3023 3049 3065 3088 3110 3149 3146 3147 3169 3179 3184 3182 3167 3162 3144 3125 3089 3050 3045 3055 3006 2972 2962 2971 2936 2912 2889 2875 2846 2837 2814 2800 2759 2721 2702 2702 2654 2622 2639 2658 2662 2677 2662 2661 2655 2644 2650 2665 2657 2656 2644 2642 2629 2615 2609 2605 2617 2623 2633 2640 2654 2660 2666 2661 2677 2681 2695 2722 2708 2710 2711 2725 2731 2754 2739 2735 2739 2737 2757 2759 2803 2827 2848 2856 2873 2884 2887 2879 2896 2911 2916 2923 2939 2961 2959 2959 2974 2991 3000 3007 3005 2993 2997 3008 3008 3001 3022 3040 3053 3075 3067 3074 3073 3083 3089 3086 3108 3129 3118 3121 3118 3117 3127 3142 3143 3137 3136 3128 3141 3148 3161 3171 3189 3201 3218 3232 3273 3315 3303 3306 3322 3343 3319 3285 3280 3273 3261 3281 3226 3208 3187 3188 3136 3099 3082 3081 3060 3057 3037 3034 3013 2991 2995 2984 2961 2943 2945 2940 2925 2904 2911 2915 2914 2922 2892 2872 2835 2787 2782 2785 2747 2708 2695 2691 2648 2609 2591 2572 2519 2471 2482 2491 2441 2409 2388 2363 2330 2308 2289 2279 2219 2160 2146 2129 2090 2051 2054 2085 2036 2012 1979 1960 1956 1944 1949 1954 1980 2008 1997 1985 2005 2021 2022 2018 2028 2032 2042 2055 2073 2088 2085 2083 2068 2057 2064 2062 2062 2057 2067 2074 2086 2091 2111 2125 2162 2185 2184 2183 2206 2231 2244 2249 2260 2264 2270 2270 2264 2267 2251 2240 2235 2229 2246 2251 2258 2266 2256 2260 2270 2274 2263 2249 2253 2255 2247 2243 2205 2168 2162 2165 2121 2086 2084 2075 2064 2056 2043 2038 2024 1999 2012 2006 2012 2009 2006 2002 1975 1957 1948 1934 1908 1879 1890 1894
2296 2298 2306 2311 2320 2324 2325 2326 2329 2338 2336 2345 2352 2362 2354 2366 2376 2405 2422 2471 2485 2503 2502 2510 2513 2528 2538 2568 2567 2568 2566 2575 2565 2558 2564 2581 2577 2573 2572 2550 2547 2545 2555 2563 2565 2565 2584 2602 2607 2621 2628 2643 2659 2667 2650 2635 2639 2647 2649 2658 2649 2665 2680 2701 2708 2726 2731 2742 2761 2780 2785 2810 2806 2830 2853 2889 2902 2933 2925 2937 2931 2923 2927 2925 2923 2924 2929 2929 2928 2908 2892 2869 2854 2853 2851 2836 2834 2806 2795 2758 2741 2730 2720 2684 2668 2623 2614 2565 2544 2510 2518 2501 2496 2477 2468 2436 2421 2427 2414 2407 2409 2410 2421 2439 2443 2439 2440 2434 2436 2461 2455 2463 2457 2445 2450 2470 2462 2462 2452 2441 2445 2451 2457 2468 2461 2481 2484 2491 2503 2511 2528 2548 2557 2578 2575 2587 2580 2586 2588 2605 2599 2592 2592 2590 2602 2618 2609 2603 2594 2577 2572 2554 2559 2570 2585 2605 2608 2605 2617 2624 2626 2641 2634 2643 2656 2674 2659 2659 2671 2676 2669 2667 2681 2710 2724 2766 2772 2787 2789 2813 2835 2887 2897 2954 2971 2990 2971 2966 2968 2965 2986 3026 3040 3072 3089 3121 3133 3151 3147 3167 3156 3133 3122 3092 3080 3029 3019 2979 2958 2939 2941 2910 2913 2894 2881 2843 2833 2809 2803 2774 2769 2725 2707 2667 2644 2619 2628 2609 2624 2650 2637 2632 2641 2636 2637 2631 2637 2641 2634 2622 2629 2617 2608 2585 2591 2596 2596 2597 2608 2631 2627 2636 2641 2648 2653 2673 2675 2686 2702 2709 2710 2715 2722 2736 2742 2738 2740 2751 2766 2805 2810 2852 2862 2869 2871 2884 2877 2883 2885 2896 2893 2901 2913 2934 2941 2948 2964 2987 3001 2996 2997 2989 2996 3005 3013 3028 3034 3044 3046 3061 3065 3070 3075 3087 3082 3088 3083 3092 3092 3094 3104 3113 3118 3137 3135 3138 3131 3126 3138 3156 3161 3179 3185 3205 3216 3256 3248 3269 3285 3297 3279 3276 3260 3224 3224 3207 3201 3191 3193 3163 3163 3124 3105 3058 3052 3051 3050 3043 3045 3025 3020 3004 2984 2958 2959 2934 2930 2915 2910 2897 2894 2895 2885 2866 2866 2832 2812 2762 2757 2745 2735 2696 2695 2666 2640 2589 2555 2505 2518 2496 2486 2453 2442 2394 2363 2315 2313 2279 2271 2222 2207 2151 2129 2106 2106 2084 2087 2078 2047 1987 1985 1964 1946 1927 1938 1966 1959 1970 1973 1973 1974 1991 1984 1988 1994 2007 2027 2051 2042 2059 2049 2033 2045 2051 2048 2057 2055 2061 2068 2081 2085 2100 2120 2150 2150 2173 2183 2202 2215 2251 2248 2253 2249 2257 2242 2233 2237 2226 2219 2209 2217 2229 2224 2235 2235 2234 2248 2262 2253 2248 2248 2241 2238 2231 2231 2207 2199 2162 2156 2127 2117 2084 2070 2065 2057 2044 2042 2031 2024 2017 2005 1994 1983 1985 1970 1944 1948 1931 1911 1880 1877 1863 1855
2295 2304 2320 2319 2324 2327 2331 2329 2330 2333 2340 2338 2344 2348 2351 2355 2356 2395 2433 2467 2518 2504 2513 2510 2517 2526 2543 2562 2593 2570 2565 2553 2531 2542 2554 2561 2572 2554 2547 2537 2539 2542 2554 2557 2565 2578 2602 2612 2640 2633 2649 2657 2692 2670 2662 2650 2639 2650 2651 2643 2620 2661 2688 2699 2722 2730 2748 2759 2794 2793 2810 2817 2808 2854 2887 2909 2926 2938 2945 2938 2930 2928 2924 2915 2901 2925 2933 2941 2946 2912 2885 2869 2841 2858 2860 2850 2842 2813 2788 2759 2711 2717 2698 2685 2666 2635 2598 2565 2506 2515 2505 2515 2537 2496 2468 2444 2411 2416 2407 2403 2385 2413 2434 2450 2475 2460 2462 2457 2457 2470 2474 2476 2470 2462 2467 2465 2451 2451 2450 2442 2437 2444 2444 2449 2439 2459 2473 2478 2491 2507 2532 2544 2568 2571 2580 2578 2581 2577 2581 2588 2598 2587 2583 2593 2614 2604 2596 2595 2591 2583 2575 2568 2554 2578 2598 2606 2622 2626 2639 2633 2640 2637 2635 2651 2677 2673 2674 2674 2675 2678 2682 2686 2689 2715 2740 2766 2802 2793 2809 2810 2812 2861 2906 2941 2989 2964 2959 2937 2898 2928 2951 2983 3016 3046 3077 3094 3114 3117 3124 3130 3146 3107 3084 3060 3037 2988 2946 2916 2867 2879 2862 2865 2877 2843 2816 2798 2769 2764 2757 2745 2743 2688 2638 2617 2570 2585 2582 2592 2617 2614 2611 2610 2619 2612 2621 2619 2634 2617 2610 2611 2622 2599 2589 2576 2571 2582 2587 2585 2581 2602 2603 2614 2621 2625 2632 2648 2660 2674 2694 2697 2707 2710 2715 2727 2743 2740 2738 2752 2773 2799 2824 2851 2902 2875 2876 2865 2860 2870 2885 2878 2866 2884 2896 2910 2922 2936 2962 2981 3031 2997 2996 2992 3000 3002 3011 3030 3063 3041 3041 3044 3057 3059 3069 3069 3070 3066 3068 3068 3053 3070 3088 3095 3107 3115 3124 3127 3126 3128 3143 3148 3162 3175 3185 3192 3204 3225 3236 3248 3260 3251 3240 3221 3198 3187 3180 3159 3136 3141 3139 3135 3157 3097 3053 3029 3002 3018 3025 3034 3058 3029 3018 3002 2983 2970 2963 2944 2930 2912 2889 2885 2881 2874 2864 2856 2847 2815 2785 2759 2734 2730 2716 2701 2710 2658 2617 2575 2520 2513 2500 2509 2525 2465 2430 2387 2336 2317 2296 2279 2275 2222 2177 2146 2100 2110 2106 2113 2136 2082 2041 2007 1978 1962 1935 1928 1918 1932 1946 1945 1941 1942 1948 1951 1938 1953 1964 1987 2018 2013 2006 2018 2019 2016 2015 2022 2030 2038 2042 2052 2074 2074 2088 2103 2139 2138 2154 2163 2172 2195 2225 2240 2260 2243 2239 2235 2217 2219 2220 2203 2177 2192 2193 2206 2206 2214 2220 2225 2233 2236 2242 2230 2229 2230 2234 2225 2233 2199 2187 2168 2168 2128 2092 2074 2045 2052 2044 2039 2039 2023 2011 2007 2012 1972 1949 1945 1942 1923 1916 1897 1877 1855 1833 1821 1809
2301 2304 2305 2324 2322 2330 2333 2329 2333 2325 2326 2324 2331 2337 2339 2347 2360 2388 2400 2447 2448 2484 2495 2500 2506 2519 2526 2544 2540 2554 2557 2541 2540 2526 2531 2538 2528 2524 2523 2515 2522 2532 2540 2546 2561 2582 2587 2605 2603 2624 2634 2644 2650 2660 2674 2666 2668 2665 2649 2645 2657 2673 2665 2685 2695 2725 2737 2755 2765 2788 2811 2841 2857 2893 2897 2934 2925 2948 2940 2940 2940 2938 2925 2911 2928 2942 2939 2957 2937 2910 2910 2884 2889 2879 2872 2864 2847 2818 2809 2782 2773 2730 2713 2695 2687 2656 2634 2593 2583 2540 2528 2520 2515 2503 2494 2463 2452 2419 2410 2414 2418 2426 2430 2452 2448 2465 2474 2476 2482 2488 2490 2497 2480 2466 2473 2474 2460 2444 2449 2443 2441 2447 2443 2446 2437 2443 2446 2459 2474 2496 2512 2530 2537 2560 2564 2566 2562 2562 2563 2568 2568 2576 2583 2586 2583 2590 2592 2590 2592 2589 2591 2590 2588 2591 2590 2599 2609 2639 2636 2630 2631 2633 2639 2652 2654 2670 2685 2688 2684 2679 2692 2709 2708 2721 2725 2756 2755 2777 2794 2806 2817 2840 2859 2916 2900 2919 2935 2927 2922 2899 2905 2942 2959 3022 3033 3064 3064 3082 3084 3083 3069 3067 3058 3027 3002 2942 2931 2875 2882 2850 2825 2813 2800 2785 2783 2765 2757 2723 2720 2709 2692 2649 2636 2595 2594 2571 2555 2560 2560 2580 2587 2579 2579 2575 2583 2591 2589 2584 2594 2590 2581 2569 2574 2559 2572 2574 2574 2577 2582 2596 2592 2599 2595 2600 2614 2630 2635 2658 2664 2680 2684 2704 2705 2716 2721 2743 2743 2749 2756 2794 2798 2828 2824 2856 2854 2841 2855 2855 2862 2868 2871 2874 2876 2891 2893 2915 2922 2944 2947 2966 2985 2983 2987 2992 2998 3021 3009 3016 3027 3020 3029 3042 3045 3053 3052 3041 3048 3060 3058 3048 3052 3072 3078 3094 3103 3122 3118 3118 3128 3134 3146 3174 3171 3175 3186 3206 3211 3230 3213 3210 3201 3173 3173 3146 3132 3114 3116 3100 3093 3081 3071 3054 3052 3005 3016 2995 2998 3013 3010 3016 3019 3004 2994 2979 2967 2951 2945 2914 2900 2874 2876 2859 2858 2847 2835 2799 2784 2757 2751 2725 2704 2685 2669 2639 2628 2574 2572 2529 2523 2518 2488 2452 2445 2391 2382 2321 2298 2269 2255 2216 2205 2157 2160 2130 2123 2126 2098 2075 2068 2023 2017 1972 1956 1934 1917 1900 1904 1924 1918 1909 1918 1928 1923 1925 1933 1962 1956 1980 1982 1991 1989 1997 1991 1994 2003 2024 2023 2032 2034 2055 2066 2085 2086 2109 2131 2155 2166 2182 2194 2224 2211 2222 2232 2230 2221 2206 2198 2192 2199 2191 2191 2197 2194 2197 2198 2216 2210 2207 2209 2203 2212 2218 2207 2203 2193 2171 2175 2158 2153 2127 2110 2076 2070 2055 2041 2031 2023 2012 2009 1990 1969 1934 1931 1907 1902 1892 1887 1864 1857 1833 1814 1780 1780
2305 2299 2298 2311 2316 2329 2350 2345 2347 2336 2326 2323 2326 2329 2329 2341 2354 2384 2409 2431 2428 2460 2479 2486 2493 2510 2524 2522 2519 2528 2540 2529 2531 2518 2531 2511 2496 2491 2482 2484 2494 2514 2544 2549 2564 2576 2599 2592 2582 2608 2628 2638 2648 2659 2681 2673 2682 2665 2649 2651 2661 2676 2685 2690 2685 2724 2748 2757 2770 2796 2821 2859 2885 2919 2953 2945 2933 2950 2949 2948 2938 2941 2922 2931 2938 2948 2959 2959 2951 2928 2901 2902 2911 2903 2906 2877 2848 2828 2797 2800 2795 2757 2717 2711 2699 2661 2624 2606 2604 2567 2547 2539 2534 2511 2476 2469 2460 2429 2398 2414 2428 2438 2459 2454 2443 2467 2481 2489 2504 2505 2519 2501 2486 2480 2484 2471 2456 2452 2461 2437 2426 2431 2443 2429 2418 2433 2445 2453 2470 2497 2533 2528 2529 2549 2563 2555 2542 2546 2544 2551 2550 2561 2574 2573 2573 2579 2577 2587 2596 2590 2595 2591 2599 2596 2616 2607 2600 2632 2656 2633 2625 2631 2634 2650 2662 2680 2708 2702 2695 2698 2705 2714 2721 2728 2737 2750 2747 2773 2793 2805 2813 2841 2871 2876 2861 2888 2907 2899 2906 2890 2881 2908 2923 2980 3032 3038 3035 3051 3058 3031 3005 3003 2993 2967 2955 2899 2870 2854 2860 2812 2772 2757 2742 2725 2708 2716 2727 2697 2682 2670 2656 2610 2560 2565 2574 2543 2521 2518 2521 2542 2573 2558 2553 2551 2549 2558 2562 2567 2571 2565 2558 2552 2549 2550 2567 2563 2574 2571 2569 2580 2592 2585 2581 2589 2607 2616 2622 2645 2659 2665 2661 2682 2696 2703 2711 2727 2740 2744 2745 2773 2797 2798 2790 2814 2818 2835 2851 2853 2865 2855 2859 2861 2875 2874 2871 2887 2907 2911 2917 2940 2961 2969 2977 2980 2982 2991 2991 2998 3011 3010 3014 3022 3028 3037 3045 3034 3023 3044 3056 3045 3037 3054 3058 3074 3089 3103 3110 3123 3136 3135 3136 3159 3173 3174 3179 3192 3206 3195 3178 3175 3162 3151 3135 3107 3073 3075 3070 3062 3057 3033 3012 3001 2994 2990 3012 2988 2984 2991 2987 2997 3001 2986 2975 2962 2958 2956 2955 2916 2883 2882 2885 2865 2847 2839 2830 2787 2734 2732 2738 2705 2675 2653 2639 2609 2591 2570 2571 2535 2525 2508 2483 2449 2412 2388 2388 2319 2266 2252 2240 2206 2173 2166 2179 2148 2138 2116 2085 2067 2040 2031 2035 1980 1942 1918 1901 1881 1877 1892 1893 1893 1895 1896 1891 1896 1908 1922 1920 1938 1939 1957 1963 1966 1954 1970 1980 1995 2007 2006 2007 2026 2051 2058 2064 2091 2121 2149 2175 2186 2198 2192 2176 2200 2216 2209 2210 2191 2179 2182 2193 2187 2201 2187 2189 2183 2175 2189 2198 2197 2195 2186 2188 2183 2181 2172 2167 2148 2140 2133 2140 2106 2071 2060 2057 2043 2036 2015 2005 1996 1995 1968 1943 1911 1874 1868 1863 1854 1850 1829 1816 1794 1769 1757 1751
2296 2289 2300 2308 2311 2320 2331 2354 2360 2349 2338 2318 2323 2327 2330 2337 2347 2388 2400 2441 2443 2452 2456 2473 2487 2504 2492 2502 2495 2499 2501 2504 2497 2485 2489 2482 2479 2464 2460 2447 2458 2486 2503 2543 2545 2560 2573 2585 2590 2599 2606 2633 2638 2649 2655 2663 2669 2664 2663 2649 2664 2687 2687 2707 2715 2740 2735 2757 2776 2808 2830 2892 2907 2945 2939 2960 2967 2972 2963 2966 2969 2967 2958 2954 2953 2953 2959 2972 2972 2953 2944 2915 2916 2917 2909 2891 2884 2849 2846 2829 2810 2788 2772 2734 2706 2668 2653 2603 2596 2578 2580 2557 2551 2533 2515 2480 2467 2442 2441 2419 2416 2440 2449 2464 2472 2479 2480 2498 2508 2511 2508 2502 2498 2487 2484 2470 2463 2450 2440 2418 2419 2411 2408 2409 2417 2428 2426 2440 2459 2489 2492 2520 2532 2546 2537 2551 2547 2539 2539 2542 2543 2545 2553 2561 2563 2576 2577 2586 2575 2580 2581 2580 2577 2579 2594 2614 2619 2633 2620 2624 2635 2633 2639 2652 2659 2683 2689 2717 2718 2716 2717 2722 2722 2734 2742 2762 2761 2777 2783 2808 2817 2840 2839 2858 2862 2867 2858 2857 2861 2874 2882 2887 2899 2945 2958 3021 3029 3030 2999 2978 2970 2948 2925 2894 2872 2829 2839 2813 2794 2769 2753 2704 2690 2665 2675 2667 2669 2659 2661 2634 2616 2576 2570 2531 2518 2509 2506 2473 2478 2497 2505 2528 2536 2530 2530 2531 2545 2552 2546 2544 2542 2533 2530 2526 2524 2539 2550 2564 2561 2564 2564 2568 2569 2570 2586 2605 2614 2643 2644 2660 2654 2668 2676 2689 2701 2717 2722 2745 2746 2759 2759 2778 2785 2794 2802 2831 2828 2844 2832 2831 2832 2837 2843 2860 2856 2855 2862 2877 2895 2919 2928 2958 2966 2970 2967 2973 2975 2974 2980 2995 2991 3007 3009 3024 3028 3029 3032 3038 3039 3039 3048 3049 3049 3057 3069 3094 3105 3130 3126 3137 3144 3154 3155 3172 3175 3178 3168 3169 3167 3150 3145 3135 3115 3076 3076 3046 3033 3022 3011 2985 2973 2947 2957 2950 2955 2964 2976 2980 2977 2986 2973 2964 2956 2937 2951 2961 2947 2913 2913 2887 2881 2872 2855 2832 2821 2785 2758 2701 2694 2683 2664 2613 2603 2568 2569 2546 2537 2515 2525 2508 2489 2449 2420 2363 2346 2302 2292 2234 2220 2195 2194 2157 2152 2147 2146 2117 2107 2070 2058 2028 2006 1974 1960 1897 1874 1848 1868 1875 1867 1877 1870 1872 1862 1862 1880 1898 1905 1916 1920 1938 1943 1951 1953 1955 1956 1972 1972 1979 1980 1993 2011 2034 2051 2072 2094 2148 2165 2190 2170 2170 2179 2188 2176 2183 2179 2171 2173 2164 2161 2166 2164 2162 2175 2173 2173 2168 2177 2191 2175 2160 2161 2148 2148 2137 2128 2114 2111 2096 2101 2089 2073 2037 2031 2025 2011 1990 1996 1972 1966 1946 1935 1895 1871 1828 1818 1813 1811 1788 1786 1761 1755 1729 1708
2294 2295 2299 2305 2321 2326 2334 2354 2388 2354 2338 2330 2322 2332 2332 2336 2334 2381 2418 2440 2470 2460 2471 2474 2492 2476 2469 2466 2456 2470 2484 2475 2461 2458 2460 2455 2442 2442 2436 2438 2418 2466 2490 2517 2536 2558 2584 2582 2578 2592 2611 2626 2645 2650 2662 2666 2669 2664 2658 2665 2671 2684 2693 2708 2728 2740 2761 2771 2791 2820 2852 2901 2973 2957 2969 2969 2985 2981 2982 2982 2995 2975 2974 2967 2984 2969 2973 2984 3005 2974 2957 2941 2932 2928 2920 2903 2891 2872 2860 2844 2827 2804 2774 2742 2706 2679 2645 2615 2580 2582 2581 2571 2568 2541 2514 2498 2470 2461 2443 2430 2407 2440 2466 2470 2489 2492 2503 2520 2544 2527 2517 2505 2487 2494 2494 2473 2449 2446 2437 2419 2389 2392 2388 2394 2388 2412 2421 2438 2465 2473 2490 2504 2530 2524 2525 2533 2536 2536 2535 2537 2541 2547 2556 2554 2544 2564 2573 2574 2559 2567 2571 2569 2556 2578 2586 2602 2614 2619 2625 2625 2630 2636 2646 2655 2669 2680 2696 2714 2731 2727 2735 2728 2728 2741 2753 2765 2771 2786 2800 2811 2829 2836 2848 2849 2855 2850 2847 2828 2808 2840 2862 2871 2884 2915 2944 2978 3036 2985 2953 2930 2898 2886 2856 2832 2773 2784 2761 2753 2724 2711 2682 2660 2622 2629 2629 2632 2644 2633 2625 2600 2574 2545 2517 2503 2475 2474 2468 2446 2422 2455 2474 2492 2514 2502 2507 2514 2549 2535 2529 2525 2520 2512 2506 2501 2485 2513 2532 2542 2542 2547 2555 2555 2546 2570 2589 2601 2602 2631 2651 2646 2630 2664 2687 2694 2704 2710 2716 2732 2741 2745 2755 2762 2773 2785 2796 2810 2820 2813 2803 2803 2797 2812 2819 2829 2836 2842 2848 2862 2879 2900 2919 2942 2975 2953 2949 2959 2971 2962 2963 2964 2954 2978 2992 3008 3034 3015 3017 3029 3056 3047 3048 3052 3055 3062 3069 3087 3108 3121 3128 3135 3150 3151 3160 3162 3178 3161 3149 3147 3143 3133 3119 3109 3087 3063 3050 3025 2993 2986 2970 2946 2903 2917 2919 2918 2915 2932 2948 2949 2961 2960 2958 2945 2923 2930 2933 2944 2958 2919 2897 2885 2883 2854 2834 2820 2820 2768 2716 2688 2658 2651 2622 2596 2558 2546 2526 2519 2499 2505 2508 2491 2477 2431 2385 2351 2310 2283 2244 2226 2186 2199 2184 2166 2133 2142 2141 2123 2104 2079 2052 2029 1985 1970 1937 1889 1809 1840 1848 1852 1842 1844 1841 1840 1821 1844 1869 1878 1898 1898 1909 1918 1944 1935 1945 1941 1943 1955 1960 1958 1942 1982 2013 2028 2050 2064 2093 2134 2203 2160 2146 2148 2160 2160 2160 2154 2148 2151 2149 2142 2135 2137 2135 2144 2166 2156 2163 2161 2177 2165 2154 2142 2143 2131 2122 2105 2081 2081 2068 2070 2079 2055 2027 2013 1993 1991 1974 1971 1987 1954 1942 1915 1905 1865 1819 1796 1757 1781 1783 1762 1746 1730 1714 1684 1645
2290 2299 2292 2292 2306 2330 2328 2341 2334 2341 2357 2343 2346 2349 2340 2344 2357 2385 2393 2431 2428 2450 2456 2460 2450 2439 2444 2439 2443 2441 2447 2453 2448 2429 2433 2436 2440 2429 2441 2451 2456 2470 2473 2501 2514 2554 2563 2581 2580 2580 2592 2617 2622 2644 2653 2671 2665 2668 2677 2685 2679 2685 2687 2704 2709 2734 2745 2778 2787 2831 2843 2889 2888 2944 2962 2964 2973 2985 2989 2988 2978 2965 2968 2959 2965 2966 2980 2986 2980 2983 2985 2963 2959 2944 2934 2910 2910 2890 2882 2860 2853 2828 2804 2754 2748 2697 2677 2635 2629 2590 2585 2579 2572 2550 2557 2530 2522 2491 2477 2451 2460 2450 2448 2463 2473 2499 2516 2537 2525 2536 2528 2517 2523 2511 2499 2481 2483 2451 2446 2434 2418 2382 2384 2391 2401 2412 2413 2429 2425 2448 2456 2477 2479 2495 2514 2521 2523 2536 2531 2532 2537 2548 2552 2557 2560 2564 2565 2578 2568 2558 2566 2572 2580 2592 2585 2595 2592 2606 2611 2621 2627 2638 2643 2655 2658 2675 2683 2712 2709 2727 2731 2728 2741 2752 2758 2777 2774 2797 2796 2808 2807 2827 2832 2837 2831 2832 2816 2801 2819 2819 2828 2852 2857 2890 2888 2912 2904 2922 2927 2891 2885 2842 2837 2807 2809 2773 2745 2716 2702 2670 2659 2632 2632 2602 2589 2590 2592 2604 2594 2568 2555 2516 2510 2489 2479 2446 2440 2424 2437 2429 2434 2455 2448 2460 2465 2472 2487 2513 2511 2507 2506 2489 2492 2488 2496 2499 2500 2530 2527 2529 2542 2554 2565 2578 2583 2608 2616 2631 2637 2643 2657 2674 2671 2699 2694 2706 2715 2729 2717 2726 2730 2743 2752 2779 2780 2795 2781 2785 2780 2784 2787 2797 2791 2802 2809 2830 2830 2845 2856 2886 2896 2919 2909 2918 2936 2945 2937 2941 2943 2944 2953 2961 2963 2985 2980 2982 2994 3005 3014 3045 3051 3059 3056 3069 3067 3080 3086 3119 3118 3127 3126 3140 3142 3141 3142 3141 3139 3127 3126 3123 3112 3098 3080 3042 3037 3012 3005 2962 2952 2927 2926 2899 2888 2888 2891 2903 2905 2910 2917 2935 2934 2936 2935 2927 2918 2926 2912 2910 2902 2874 2863 2829 2824 2796 2791 2753 2736 2678 2680 2641 2632 2592 2585 2534 2524 2508 2510 2501 2490 2471 2460 2413 2395 2347 2340 2279 2271 2241 2250 2234 2214 2193 2184 2149 2141 2131 2123 2091 2082 2052 2035 1986 1964 1916 1913 1856 1843 1845 1835 1819 1823 1828 1825 1826 1826 1848 1850 1869 1876 1883 1890 1903 1917 1922 1929 1948 1948 1952 1963 1981 1987 2015 2014 2042 2056 2093 2081 2102 2122 2118 2125 2135 2134 2125 2134 2137 2125 2121 2121 2112 2109 2114 2112 2125 2131 2139 2140 2138 2132 2114 2120 2112 2105 2083 2078 2062 2048 2039 2033 2028 2018 1998 1991 1974 1956 1936 1932 1917 1903 1869 1870 1843 1828 1783 1788 1774 1751 1731 1727 1702 1688 1649 1639
2277 2286 2286 2292 2305 2316 2320 2325 2322 2339 2356 2351 2357 2351 2345 2349 2368 2391 2422 2419 2415 2432 2446 2439 2431 2422 2407 2418 2425 2434 2441 2436 2428 2418 2407 2424 2437 2436 2444 2454 2468 2478 2505 2509 2513 2548 2584 2579 2578 2584 2596 2614 2618 2640 2654 2660 2660 2671 2686 2684 2688 2685 2690 2703 2708 2726 2740 2765 2780 2821 2863 2866 2870 2920 2967 2968 2976 2985 2999 2984 2977 2966 2956 2956 2963 2969 2986 2987 2980 2984 2991 2977 2974 2957 2951 2930 2921 2904 2888 2872 2866 2838 2807 2780 2770 2713 2670 2655 2647 2614 2592 2585 2578 2575 2582 2559 2555 2521 2498 2488 2496 2481 2472 2472 2467 2506 2539 2532 2525 2528 2518 2536 2547 2535 2518 2504 2506 2474 2452 2432 2419 2394 2374 2397 2416 2416 2426 2421 2405 2429 2434 2449 2454 2485 2511 2508 2513 2519 2520 2528 2533 2545 2565 2556 2565 2566 2574 2572 2566 2570 2576 2578 2588 2596 2599 2595 2582 2597 2603 2613 2626 2636 2651 2656 2656 2670 2679 2701 2704 2723 2738 2740 2752 2757 2777 2769 2770 2791 2810 2798 2793 2812 2838 2822 2810 2802 2779 2794 2812 2812 2836 2826 2826 2850 2867 2857 2841 2856 2861 2850 2854 2821 2802 2797 2800 2755 2718 2689 2664 2635 2610 2609 2614 2581 2544 2548 2545 2556 2563 2532 2512 2486 2461 2459 2466 2434 2417 2419 2430 2426 2430 2415 2403 2418 2416 2440 2456 2470 2478 2494 2501 2485 2471 2481 2493 2493 2489 2508 2518 2533 2543 2560 2574 2592 2603 2623 2639 2652 2673 2662 2661 2671 2681 2690 2684 2703 2722 2713 2699 2707 2711 2725 2734 2752 2775 2764 2749 2749 2731 2753 2766 2771 2768 2783 2787 2806 2810 2824 2845 2867 2901 2890 2881 2894 2908 2911 2913 2916 2917 2927 2944 2946 2955 2961 2961 2962 2958 2976 2990 3017 3046 3043 3049 3057 3066 3067 3079 3097 3121 3112 3111 3125 3140 3126 3129 3122 3111 3104 3105 3094 3085 3075 3064 3033 3007 3001 2998 2962 2929 2916 2909 2887 2865 2861 2854 2875 2895 2881 2877 2897 2907 2918 2919 2909 2896 2889 2879 2872 2867 2855 2852 2812 2788 2786 2784 2740 2693 2681 2688 2649 2638 2606 2593 2541 2499 2499 2508 2491 2491 2464 2449 2399 2344 2340 2350 2294 2255 2268 2282 2257 2245 2219 2211 2177 2152 2143 2129 2106 2082 2061 2052 2008 1972 1950 1946 1895 1864 1848 1829 1816 1806 1810 1805 1812 1812 1821 1814 1841 1856 1861 1866 1878 1899 1899 1902 1924 1949 1945 1959 1981 2011 2000 1988 2017 2040 2042 2036 2053 2065 2085 2104 2107 2118 2110 2117 2108 2097 2099 2103 2086 2078 2080 2077 2091 2097 2111 2122 2115 2101 2094 2100 2089 2084 2062 2047 2029 2012 2007 1999 1988 1967 1964 1967 1941 1923 1910 1901 1876 1841 1837 1828 1805 1781 1772 1777 1758 1742 1713 1695 1679 1656 1637 1623
2270 2283 2281 2287 2301 2312 2309 2319 2327 2340 2341 2351 2351 2356 2348 2340 2355 2390 2389 2411 2418 2420 2414 2420 2420 2413 2414 2401 2409 2429 2422 2422 2420 2410 2413 2419 2424 2436 2439 2455 2452 2469 2489 2517 2527 2544 2551 2574 2575 2585 2599 2626 2627 2644 2645 2658 2660 2670 2671 2679 2678 2679 2697 2711 2714 2722 2735 2764 2776 2813 2814 2844 2857 2902 2912 2965 2970 2983 2981 2974 2977 2966 2963 2949 2956 2962 2976 2997 2991 2985 2979 2982 2981 2961 2960 2938 2940 2918 2906 2876 2874 2851 2829 2791 2772 2717 2712 2668 2646 2627 2619 2594 2594 2592 2577 2570 2566 2540 2534 2508 2514 2507 2502 2487 2492 2519 2513 2529 2539 2534 2550 2563 2563 2564 2542 2514 2512 2487 2469 2423 2419 2401 2410 2409 2408 2413 2416 2424 2423 2430 2424 2431 2448 2481 2473 2487 2499 2507 2512 2527 2523 2535 2534 2540 2552 2562 2566 2570 2574 2582 2576 2579 2595 2607 2606 2604 2602 2597 2594 2605 2609 2629 2639 2663 2663 2672 2681 2710 2711 2724 2724 2744 2739 2750 2751 2755 2771 2787 2776 2781 2784 2792 2793 2806 2807 2789 2789 2785 2771 2784 2785 2792 2810 2817 2808 2810 2807 2801 2797 2796 2800 2788 2791 2781 2764 2732 2715 2661 2643 2598 2602 2581 2573 2564 2553 2515 2516 2513 2499 2487 2482 2456 2444 2422 2416 2408 2414 2405 2409 2415 2395 2375 2386 2395 2397 2416 2411 2436 2454 2490 2488 2479 2483 2474 2482 2493 2494 2495 2511 2544 2548 2572 2585 2615 2615 2642 2651 2668 2662 2672 2675 2669 2679 2699 2696 2700 2694 2703 2694 2692 2701 2713 2714 2723 2727 2739 2741 2732 2735 2733 2731 2753 2756 2775 2778 2797 2790 2797 2810 2839 2840 2859 2866 2869 2871 2881 2884 2896 2894 2905 2910 2927 2932 2943 2946 2948 2948 2951 2955 2988 2998 3019 3034 3044 3042 3043 3053 3072 3074 3090 3098 3109 3096 3094 3104 3108 3097 3075 3074 3063 3070 3056 3045 3020 3015 2990 2981 2961 2942 2900 2899 2877 2867 2839 2837 2850 2842 2845 2860 2870 2881 2911 2907 2897 2883 2857 2855 2835 2836 2829 2807 2780 2793 2778 2768 2733 2716 2666 2658 2631 2629 2601 2588 2539 2526 2484 2473 2465 2458 2445 2437 2390 2375 2320 2310 2295 2309 2297 2285 2270 2263 2228 2223 2198 2194 2160 2156 2122 2099 2058 2053 2024 2006 1966 1954 1916 1901 1855 1842 1810 1812 1804 1804 1806 1807 1811 1814 1826 1826 1840 1838 1844 1855 1874 1882 1899 1902 1922 1945 1974 1968 1987 1999 2001 1991 2000 1999 2009 2022 2056 2056 2074 2076 2083 2084 2081 2082 2077 2069 2052 2055 2052 2058 2065 2068 2087 2092 2101 2086 2064 2066 2062 2055 2036 2027 1996 1999 1980 1972 1961 1947 1925 1913 1901 1901 1882 1875 1845 1836 1810 1791 1769 1768 1750 1747 1740 1722 1687 1690 1664 1645 1622 1604
2251 2271 2279 2295 2321 2305 2302 2314 2332 2339 2352 2346 2342 2344 2342 2335 2345 2366 2388 2397 2419 2408 2403 2398 2403 2403 2412 2403 2400 2413 2413 2410 2409 2400 2396 2412 2437 2430 2429 2440 2441 2468 2505 2517 2545 2556 2576 2571 2558 2585 2608 2625 2644 2652 2661 2663 2658 2671 2677 2676 2668 2693 2713 2726 2734 2738 2749 2768 2789 2805 2822 2830 2822 2875 2912 2942 2968 2980 2992 2986 2970 2967 2961 2958 2958 2971 2984 2989 2999 2979 2972 2980 2991 2972 2970 2953 2953 2925 2910 2893 2881 2847 2811 2790 2776 2731 2694 2664 2621 2619 2608 2594 2599 2581 2570 2566 2574 2552 2535 2537 2544 2532 2519 2508 2491 2525 2539 2553 2554 2563 2580 2588 2608 2574 2543 2531 2530 2495 2460 2429 2402 2409 2411 2416 2437 2417 2414 2419 2414 2424 2430 2438 2447 2464 2472 2483 2492 2494 2504 2508 2512 2522 2530 2541 2543 2561 2568 2569 2572 2580 2577 2589 2618 2619 2625 2616 2611 2603 2595 2600 2599 2625 2641 2663 2667 2681 2688 2711 2732 2727 2724 2730 2724 2744 2750 2758 2765 2771 2766 2764 2755 2774 2782 2792 2796 2780 2773 2761 2739 2750 2752 2767 2796 2786 2780 2772 2752 2757 2753 2756 2758 2747 2741 2740 2742 2698 2669 2631 2596 2579 2565 2551 2538 2532 2521 2500 2492 2474 2452 2439 2422 2407 2389 2381 2374 2378 2377 2386 2399 2378 2361 2356 2346 2369 2376 2386 2377 2411 2436 2471 2507 2478 2479 2475 2493 2491 2497 2502 2516 2539 2560 2584 2611 2618 2632 2650 2694 2673 2669 2676 2688 2682 2688 2691 2704 2693 2692 2684 2660 2686 2700 2704 2710 2713 2715 2720 2720 2723 2728 2722 2708 2721 2732 2750 2774 2777 2780 2787 2794 2810 2819 2832 2837 2847 2853 2852 2852 2863 2865 2876 2894 2901 2917 2928 2939 2935 2935 2932 2924 2959 2995 3006 3029 3026 3034 3033 3034 3046 3056 3062 3075 3075 3073 3072 3077 3081 3076 3062 3049 3053 3056 3039 3022 3004 2988 2973 2969 2941 2911 2896 2891 2867 2843 2823 2794 2814 2819 2826 2831 2850 2866 2889 2913 2884 2862 2846 2832 2818 2802 2788 2755 2761 2765 2766 2775 2725 2681 2660 2642 2617 2597 2584 2577 2523 2488 2466 2444 2431 2417 2421 2425 2379 2342 2314 2284 2296 2294 2304 2320 2289 2275 2244 2222 2215 2209 2190 2190 2136 2089 2067 2050 2018 1984 1968 1965 1922 1889 1859 1840 1817 1806 1800 1801 1802 1809 1807 1810 1819 1826 1826 1814 1831 1838 1849 1858 1875 1887 1903 1935 1942 1952 1971 1999 1981 1977 1968 1950 1975 1988 2015 2030 2037 2045 2052 2055 2053 2056 2056 2052 2031 2015 2024 2040 2036 2046 2059 2086 2071 2057 2048 2040 2033 2024 2009 1992 1983 1975 1954 1936 1928 1904 1890 1862 1869 1854 1855 1850 1821 1788 1774 1745 1738 1725 1723 1720 1702 1684 1669 1667 1637 1601 1588 1568
2261 2272 2279 2295 2284 2285 2297 2305 2311 2332 2335 2340 2339 2337 2322 2313 2326 2342 2356 2371 2375 2390 2381 2369 2380 2385 2397 2401 2404 2412 2403 2399 2392 2387 2391 2398 2400 2421 2422 2436 2441 2459 2473 2503 2520 2562 2565 2576 2584 2589 2601 2624 2636 2661 2668 2676 2678 2681 2679 2680 2697 2715 2723 2748 2738 2750 2757 2771 2772 2799 2809 2833 2838 2865 2875 2925 2936 2980 2997 3010 2995 2974 2967 2966 2973 2981 2977 2976 2972 2961 2971 2977 2968 2966 2963 2951 2944 2920 2925 2908 2887 2848 2823 2784 2775 2737 2724 2673 2664 2620 2599 2576 2576 2563 2559 2550 2563 2561 2565 2561 2554 2559 2552 2537 2544 2553 2562 2590 2582 2587 2595 2602 2586 2582 2571 2539 2528 2503 2480 2431 2440 2423 2407 2409 2405 2407 2423 2427 2420 2422 2426 2444 2441 2457 2466 2484 2471 2475 2477 2492 2502 2512 2530 2553 2553 2573 2566 2567 2577 2589 2582 2584 2597 2629 2627 2626 2624 2612 2608 2602 2619 2633 2650 2681 2678 2700 2700 2716 2715 2731 2733 2729 2743 2754 2754 2763 2760 2766 2765 2754 2763 2770 2773 2787 2770 2764 2761 2749 2739 2728 2718 2729 2731 2753 2751 2747 2739 2723 2719 2720 2715 2702 2704 2697 2682 2649 2642 2599 2604 2558 2548 2520 2523 2508 2498 2473 2470 2440 2424 2396 2388 2363 2356 2341 2356 2353 2353 2365 2351 2338 2347 2343 2355 2361 2362 2375 2382 2395 2412 2454 2437 2450 2454 2455 2464 2481 2492 2503 2511 2538 2554 2593 2590 2614 2619 2633 2639 2663 2673 2675 2677 2684 2682 2674 2675 2676 2686 2682 2691 2694 2692 2696 2699 2704 2704 2707 2709 2715 2717 2721 2709 2694 2701 2721 2727 2759 2764 2778 2775 2788 2795 2814 2820 2831 2827 2823 2832 2841 2833 2843 2847 2867 2889 2915 2908 2919 2914 2920 2922 2931 2945 2983 2976 3000 3015 3022 3023 3024 3020 3028 3039 3044 3051 3046 3054 3064 3055 3049 3053 3044 3036 3024 3014 2988 2968 2948 2945 2924 2918 2882 2880 2857 2847 2817 2816 2795 2789 2809 2813 2835 2846 2866 2857 2864 2855 2834 2824 2806 2790 2767 2768 2745 2737 2747 2732 2714 2699 2653 2642 2601 2584 2562 2538 2490 2487 2448 2440 2399 2397 2397 2384 2361 2353 2313 2329 2312 2305 2307 2296 2291 2284 2251 2258 2234 2222 2202 2183 2143 2120 2073 2063 2015 2003 1957 1947 1918 1896 1852 1846 1814 1806 1792 1793 1792 1792 1800 1807 1816 1819 1827 1822 1830 1823 1828 1838 1856 1857 1868 1877 1909 1923 1947 1935 1948 1953 1945 1952 1954 1959 1987 1979 1999 2009 2028 2021 2021 2034 2040 2023 2007 1995 1990 1983 1995 2003 2018 2021 2041 2040 2031 2020 2007 2003 1986 1981 1969 1952 1927 1933 1912 1902 1869 1872 1859 1845 1836 1828 1803 1791 1756 1748 1715 1703 1698 1685 1666 1658 1640 1635 1616 1600 1562 1551
2260 2278 2301 2290 2279 2281 2278 2295 2308 2323 2339 2335 2329 2321 2297 2304 2309 2336 2366 2359 2352 2358 2347 2356 2366 2378 2399 2393 2394 2398 2403 2383 2371 2368 2372 2382 2387 2401 2394 2423 2441 2463 2492 2506 2513 2554 2577 2589 2595 2617 2636 2640 2651 2668 2691 2691 2694 2691 2697 2702 2719 2737 2763 2756 2744 2762 2775 2775 2772 2798 2815 2832 2835 2869 2891 2922 2929 2986 3033 3020 3006 2987 2961 2971 2986 2984 2996 2980 2968 2957 2947 2962 2959 2957 2946 2943 2938 2926 2921 2899 2882 2832 2781 2771 2771 2736 2710 2682 2669 2618 2582 2565 2557 2543 2527 2551 2572 2567 2565 2563 2563 2568 2570 2564 2568 2583 2615 2612 2614 2625 2640 2607 2580 2566 2558 2539 2527 2491 2457 2444 2448 2422 2394 2397 2396 2410 2422 2419 2419 2423 2426 2431 2433 2455 2478 2468 2454 2462 2452 2479 2503 2516 2543 2552 2558 2570 2584 2579 2585 2585 2585 2591 2598 2620 2635 2632 2633 2623 2609 2627 2646 2660 2687 2689 2691 2710 2717 2724 2728 2739 2743 2757 2765 2773 2777 2772 2761 2770 2775 2765 2763 2766 2781 2766 2749 2747 2738 2723 2706 2695 2677 2689 2691 2706 2708 2710 2708 2694 2682 2682 2687 2676 2662 2657 2644 2613 2581 2581 2593 2550 2519 2502 2500 2482 2473 2456 2447 2408 2371 2354 2341 2318 2301 2320 2342 2331 2320 2327 2326 2320 2309 2328 2356 2353 2366 2370 2382 2396 2425 2421 2408 2417 2407 2424 2442 2462 2493 2493 2509 2534 2570 2586 2594 2609 2620 2622 2629 2645 2663 2671 2681 2679 2682 2674 2665 2673 2683 2686 2696 2703 2720 2701 2697 2694 2696 2694 2700 2701 2714 2703 2695 2686 2681 2693 2697 2723 2745 2755 2755 2774 2784 2807 2816 2824 2818 2821 2811 2813 2798 2809 2816 2843 2882 2883 2884 2888 2880 2896 2904 2919 2942 2939 2929 2966 3010 3004 3012 3004 2994 3015 3029 3032 3040 3034 3035 3035 3030 3036 3044 3035 3030 3006 2991 2958 2914 2916 2921 2903 2897 2873 2871 2841 2823 2808 2811 2783 2758 2776 2790 2821 2853 2842 2832 2825 2809 2802 2794 2773 2756 2752 2758 2729 2704 2711 2705 2687 2656 2642 2635 2583 2531 2521 2503 2465 2434 2425 2427 2382 2348 2357 2361 2342 2316 2327 2350 2326 2320 2307 2294 2286 2275 2267 2272 2247 2233 2204 2178 2132 2077 2072 2076 2023 1992 1949 1929 1884 1850 1836 1831 1801 1779 1777 1785 1774 1775 1787 1806 1810 1824 1810 1806 1811 1823 1825 1833 1842 1846 1848 1847 1877 1904 1902 1896 1912 1921 1924 1934 1936 1947 1949 1943 1966 1980 1991 1992 2001 2021 2008 1992 1965 1932 1938 1935 1949 1961 1970 1982 1992 2002 1995 1986 1976 1980 1957 1948 1934 1921 1910 1918 1893 1892 1866 1859 1839 1823 1826 1819 1789 1757 1742 1736 1688 1657 1653 1653 1629 1608 1602 1601 1579 1555 1534 1525
2255 2279 2278 2288 2289 2283 2286 2292 2295 2316 2321 2335 2336 2324 2319 2300 2299 2330 2330 2350 2352 2344 2342 2345 2348 2363 2364 2379 2384 2384 2377 2362 2354 2342 2360 2372 2380 2403 2407 2423 2430 2463 2474 2516 2529 2567 2571 2608 2625 2651 2641 2649 2658 2669 2680 2706 2699 2695 2706 2714 2730 2753 2753 2772 2772 2780 2774 2784 2793 2809 2818 2845 2858 2887 2901 2943 2962 3003 3001 3034 3034 3008 2997 2971 2971 2976 2982 2980 2975 2954 2963 2965 2953 2957 2948 2939 2936 2926 2915 2887 2876 2820 2808 2751 2743 2729 2715 2678 2650 2604 2594 2548 2539 2528 2543 2557 2553 2570 2572 2563 2573 2582 2575 2584 2583 2596 2602 2629 2654 2660 2629 2606 2590 2546 2544 2533 2514 2479 2472 2440 2433 2426 2420 2392 2402 2417 2407 2410 2412 2425 2423 2424 2429 2455 2450 2457 2461 2467 2468 2470 2478 2506 2524 2556 2555 2568 2571 2583 2584 2583 2586 2600 2601 2620 2625 2636 2645 2639 2642 2654 2654 2677 2680 2700 2710 2732 2728 2736 2748 2756 2770 2791 2795 2798 2788 2787 2788 2780 2772 2771 2758 2753 2750 2747 2747 2739 2724 2701 2681 2670 2669 2662 2663 2673 2674 2679 2674 2665 2660 2642 2647 2654 2645 2625 2611 2579 2582 2554 2549 2533 2521 2470 2462 2447 2446 2433 2412 2376 2362 2308 2286 2267 2293 2299 2299 2310 2310 2299 2307 2307 2308 2307 2314 2332 2346 2360 2365 2383 2384 2398 2403 2403 2394 2395 2399 2432 2443 2468 2490 2519 2543 2588 2600 2611 2602 2608 2620 2627 2639 2666 2671 2670 2674 2676 2669 2669 2674 2684 2697 2703 2693 2693 2692 2682 2679 2675 2672 2678 2679 2683 2684 2676 2676 2674 2676 2693 2712 2743 2754 2772 2784 2816 2825 2833 2827 2833 2822 2805 2793 2781 2780 2809 2821 2854 2862 2872 2869 2880 2879 2902 2894 2905 2914 2928 2941 2973 2987 2989 2997 3012 3008 3018 3014 3016 3016 3012 3014 3024 3018 3022 3005 2982 2971 2940 2923 2882 2880 2872 2863 2845 2828 2815 2810 2784 2776 2768 2765 2749 2767 2807 2800 2817 2815 2798 2790 2774 2755 2739 2742 2730 2724 2712 2711 2690 2693 2674 2658 2625 2606 2565 2550 2488 2464 2434 2431 2391 2382 2355 2361 2325 2325 2332 2335 2331 2328 2325 2329 2310 2303 2286 2282 2271 2263 2249 2240 2206 2188 2132 2116 2063 2039 2011 1983 1919 1895 1842 1847 1813 1803 1782 1779 1755 1746 1744 1762 1769 1781 1797 1789 1783 1791 1788 1801 1816 1821 1836 1828 1831 1837 1851 1849 1864 1879 1885 1884 1897 1900 1911 1914 1920 1937 1945 1944 1967 1974 1973 1971 1979 1963 1931 1924 1895 1892 1907 1904 1921 1927 1943 1948 1963 1953 1931 1927 1914 1911 1900 1891 1876 1869 1852 1856 1846 1844 1816 1825 1829 1816 1780 1757 1721 1691 1646 1645 1606 1604 1592 1587 1559 1559 1547 1528 1494 1481
2228 2269 2288 2290 2286 2285 2290 2296 2294 2312 2326 2337 2349 2334 2323 2305 2272 2312 2333 2340 2350 2341 2329 2335 2339 2347 2349 2363 2374 2374 2368 2351 2309 2338 2356 2369 2376 2398 2415 2426 2442 2457 2477 2509 2542 2568 2597 2625 2665 2659 2670 2669 2680 2686 2694 2701 2705 2713 2724 2735 2759 2763 2771 2776 2773 2782 2788 2793 2804 2823 2846 2862 2885 2905 2940 2967 3012 3018 3038 3040 3062 3023 3003 2986 2977 2984 2986 2980 2973 2966 2968 2955 2946 2944 2938 2935 2935 2920 2911 2890 2876 2826 2782 2752 2713 2708 2682 2653 2611 2592 2555 2538 2498 2525 2533 2549 2559 2568 2584 2574 2583 2576 2574 2581 2585 2598 2618 2643 2712 2658 2636 2600 2568 2546 2520 2509 2487 2469 2445 2435 2411 2420 2414 2412 2406 2411 2407 2406 2392 2412 2425 2422 2414 2441 2456 2453 2442 2468 2482 2486 2485 2513 2533 2546 2553 2570 2577 2584 2589 2580 2576 2588 2601 2626 2649 2652 2670 2651 2644 2662 2678 2687 2700 2711 2724 2739 2756 2764 2786 2788 2807 2818 2850 2814 2803 2801 2810 2792 2776 2761 2733 2745 2738 2736 2723 2724 2707 2681 2616 2647 2641 2644 2640 2648 2654 2650 2646 2639 2627 2625 2613 2620 2616 2601 2578 2567 2554 2543 2530 2519 2490 2457 2413 2422 2405 2398 2369 2351 2320 2274 2201 2246 2266 2274 2287 2288 2291 2289 2302 2296 2293 2297 2310 2320 2339 2342 2353 2364 2375 2378 2386 2376 2372 2371 2362 2402 2431 2449 2481 2510 2556 2579 2632 2599 2598 2600 2625 2619 2634 2653 2688 2664 2670 2663 2650 2666 2681 2691 2718 2696 2680 2677 2675 2670 2662 2655 2642 2655 2658 2660 2666 2662 2662 2666 2656 2686 2715 2733 2757 2770 2795 2820 2869 2836 2829 2829 2834 2805 2778 2763 2732 2781 2807 2827 2843 2840 2841 2845 2856 2862 2868 2872 2882 2905 2934 2949 2977 2972 2975 2991 3010 2998 2993 2996 2998 2990 2986 2991 2999 2984 2975 2957 2933 2913 2882 2869 2854 2842 2816 2801 2756 2778 2771 2757 2732 2741 2734 2744 2756 2775 2789 2794 2795 2777 2756 2735 2699 2711 2707 2704 2701 2696 2687 2690 2706 2659 2631 2607 2581 2548 2514 2471 2405 2417 2396 2377 2350 2347 2337 2323 2296 2317 2318 2331 2341 2332 2331 2313 2298 2287 2277 2268 2260 2243 2234 2204 2182 2135 2091 2056 2008 1979 1928 1894 1827 1822 1804 1790 1770 1762 1751 1737 1706 1733 1750 1767 1786 1780 1773 1773 1769 1779 1797 1799 1812 1812 1814 1815 1820 1830 1835 1846 1864 1859 1861 1868 1872 1884 1894 1910 1938 1923 1921 1937 1978 1947 1943 1930 1922 1901 1878 1859 1836 1855 1856 1876 1885 1902 1905 1914 1919 1895 1880 1869 1851 1850 1840 1837 1827 1820 1811 1813 1825 1805 1799 1812 1835 1763 1710 1681 1641 1616 1592 1574 1563 1560 1545 1532 1522 1503 1473 1451 1424
2260 2281 2276 2300 2290 2282 2294 2309 2305 2313 2318 2340 2332 2341 2338 2328 2326 2313 2314 2328 2332 2341 2335 2330 2332 2337 2338 2351 2356 2371 2375 2366 2369 2347 2348 2372 2379 2398 2412 2425 2429 2446 2466 2503 2516 2566 2586 2631 2624 2653 2673 2678 2688 2704 2697 2702 2708 2728 2728 2745 2750 2770 2777 2791 2785 2788 2790 2799 2806 2834 2848 2875 2880 2911 2936 2976 2978 3019 3026 3028 3023 3021 3023 2995 3006 2998 2979 2982 2976 2969 2963 2944 2946 2937 2935 2931 2925 2910 2901 2886 2877 2826 2816 2762 2761 2710 2679 2641 2635 2599 2583 2552 2558 2541 2534 2549 2549 2562 2569 2568 2569 2568 2573 2583 2581 2594 2598 2615 2607 2626 2628 2591 2589 2553 2531 2496 2499 2468 2467 2445 2444 2432 2431 2437 2427 2416 2422 2418 2414 2408 2414 2428 2434 2441 2442 2460 2461 2481 2485 2507 2508 2531 2528 2543 2558 2582 2577 2589 2577 2575 2578 2578 2599 2637 2636 2653 2649 2654 2664 2675 2673 2693 2701 2722 2720 2747 2753 2781 2781 2806 2817 2827 2811 2808 2810 2806 2801 2802 2790 2765 2776 2758 2747 2739 2746 2730 2726 2701 2700 2664 2646 2634 2631 2625 2627 2622 2625 2621 2623 2620 2610 2599 2593 2586 2585 2560 2551 2537 2537 2523 2502 2457 2459 2423 2407 2388 2376 2340 2320 2270 2285 2250 2232 2244 2251 2266 2268 2264 2272 2284 2279 2279 2283 2299 2303 2317 2322 2348 2348 2356 2350 2344 2354 2355 2366 2384 2388 2417 2435 2487 2503 2542 2533 2556 2569 2570 2574 2590 2601 2627 2619 2630 2649 2659 2663 2666 2668 2682 2675 2685 2678 2662 2663 2664 2653 2641 2643 2644 2632 2635 2637 2646 2657 2672 2675 2680 2689 2718 2722 2756 2772 2802 2796 2816 2825 2820 2819 2806 2798 2764 2779 2777 2771 2804 2793 2806 2810 2805 2811 2823 2826 2834 2854 2879 2885 2913 2917 2947 2963 2967 2969 2973 2981 2978 2973 2965 2960 2958 2953 2940 2944 2940 2932 2899 2890 2861 2852 2826 2817 2790 2793 2773 2751 2742 2744 2732 2733 2739 2740 2749 2759 2777 2764 2760 2747 2714 2723 2700 2688 2679 2686 2685 2685 2677 2657 2628 2627 2593 2584 2534 2524 2480 2482 2434 2401 2373 2367 2348 2346 2335 2337 2322 2318 2336 2328 2331 2327 2313 2307 2287 2282 2267 2257 2232 2227 2195 2187 2138 2120 2062 2044 1969 1952 1905 1887 1815 1796 1774 1769 1746 1751 1738 1742 1734 1744 1763 1755 1764 1768 1769 1761 1763 1763 1774 1775 1787 1793 1795 1797 1814 1812 1821 1818 1826 1829 1842 1843 1859 1870 1890 1875 1889 1885 1884 1887 1895 1901 1879 1884 1875 1861 1828 1836 1823 1821 1844 1847 1875 1871 1869 1855 1851 1843 1832 1827 1810 1806 1805 1797 1793 1783 1770 1776 1781 1786 1785 1756 1727 1716 1653 1641 1588 1568 1538 1550 1542 1524 1504 1495 1472 1450 1416 1405
2272 2288 2297 2302 2292 2298 2302 2312 2310 2316 2325 2329 2321 2335 2334 2334 2343 2333 2344 2333 2326 2331 2320 2326 2334 2333 2326 2348 2356 2377 2389 2387 2398 2376 2367 2384 2391 2415 2451 2436 2432 2452 2473 2502 2520 2562 2607 2610 2618 2653 2699 2696 2703 2704 2702 2708 2708 2722 2737 2754 2761 2774 2790 2786 2791 2791 2801 2799 2806 2839 2880 2881 2889 2926 2973 2978 2979 3017 3048 3023 3005 3008 3015 3014 3028 2999 2961 2971 2970 2967 2966 2945 2938 2935 2928 2928 2923 2901 2873 2880 2886 2838 2801 2792 2792 2723 2654 2637 2618 2594 2572 2574 2585 2567 2551 2553 2555 2568 2590 2566 2556 2554 2560 2568 2574 2584 2601 2591 2571 2586 2585 2579 2577 2546 2507 2512 2512 2486 2468 2461 2457 2445 2447 2444 2442 2437 2449 2432 2425 2425 2430 2438 2443 2444 2453 2453 2449 2481 2512 2512 2512 2539 2554 2565 2574 2583 2584 2578 2567 2569 2570 2585 2605 2629 2653 2647 2642 2654 2660 2671 2681 2697 2714 2714 2711 2737 2760 2777 2782 2817 2849 2826 2803 2796 2778 2791 2796 2795 2786 2790 2806 2784 2758 2767 2777 2763 2753 2735 2728 2696 2671 2643 2624 2622 2624 2610 2604 2604 2608 2606 2594 2588 2574 2578 2578 2556 2530 2533 2535 2516 2498 2470 2467 2431 2407 2389 2373 2341 2301 2292 2301 2264 2235 2236 2230 2243 2256 2252 2250 2253 2254 2253 2261 2274 2289 2285 2287 2307 2338 2331 2326 2329 2334 2337 2354 2365 2391 2397 2408 2455 2504 2496 2478 2506 2518 2531 2540 2558 2563 2584 2585 2603 2620 2638 2658 2658 2676 2669 2655 2656 2647 2649 2647 2648 2635 2634 2628 2622 2610 2616 2609 2629 2647 2667 2686 2688 2703 2703 2700 2740 2773 2780 2771 2789 2796 2812 2824 2802 2790 2783 2798 2781 2774 2768 2755 2775 2788 2782 2777 2788 2792 2813 2835 2848 2868 2875 2875 2921 2962 2961 2964 2960 2965 2959 2959 2937 2919 2930 2928 2917 2900 2910 2914 2893 2869 2846 2839 2811 2798 2794 2793 2763 2734 2733 2731 2729 2731 2735 2738 2745 2755 2744 2731 2734 2721 2717 2722 2695 2675 2669 2674 2674 2679 2660 2637 2612 2581 2577 2580 2532 2501 2494 2501 2444 2395 2368 2353 2345 2354 2346 2354 2336 2320 2334 2327 2329 2325 2312 2299 2283 2277 2262 2254 2230 2223 2196 2183 2138 2098 2065 2054 1982 1926 1910 1900 1827 1770 1759 1753 1743 1750 1746 1748 1749 1773 1755 1744 1751 1755 1751 1742 1742 1746 1743 1744 1761 1780 1766 1768 1783 1795 1794 1792 1791 1787 1800 1810 1830 1862 1843 1829 1836 1830 1842 1848 1851 1854 1842 1839 1831 1822 1813 1818 1798 1782 1801 1814 1838 1857 1826 1798 1794 1770 1781 1789 1770 1761 1757 1753 1754 1742 1741 1745 1748 1755 1734 1713 1678 1650 1622 1614 1552 1507 1517 1530 1509 1490 1473 1460 1431 1393 1384 1377
2289 2305 2304 2322 2319 2317 2318 2328 2318 2318 2328 2332 2343 2345 2338 2334 2336 2332 2336 2334 2336 2337 2330 2323 2320 2336 2343 2359 2362 2393 2390 2397 2401 2395 2407 2407 2408 2421 2424 2439 2444 2458 2475 2513 2525 2556 2560 2587 2605 2643 2659 2705 2715 2709 2714 2722 2713 2715 2734 2773 2774 2776 2773 2774 2781 2787 2787 2790 2810 2838 2845 2881 2899 2934 2945 2984 2998 3024 3009 3014 3009 2991 3003 3019 3019 3010 2996 2971 2969 2965 2954 2934 2941 2940 2934 2931 2915 2898 2897 2876 2872 2842 2841 2814 2788 2738 2708 2638 2613 2588 2596 2589 2590 2591 2578 2557 2564 2568 2555 2552 2548 2532 2544 2555 2560 2570 2568 2579 2574 2564 2562 2564 2561 2550 2548 2534 2521 2498 2497 2474 2454 2446 2451 2451 2451 2443 2445 2437 2434 2438 2439 2453 2445 2441 2447 2453 2462 2482 2489 2519 2533 2561 2565 2590 2593 2595 2583 2575 2571 2566 2571 2587 2596 2621 2622 2642 2652 2662 2656 2668 2677 2700 2695 2711 2712 2732 2748 2786 2803 2831 2814 2827 2818 2795 2795 2786 2784 2799 2801 2806 2809 2814 2809 2796 2794 2795 2779 2758 2750 2724 2697 2643 2629 2617 2607 2592 2586 2584 2592 2602 2596 2586 2585 2574 2576 2559 2550 2533 2527 2511 2495 2459 2455 2430 2425 2391 2380 2352 2336 2296 2292 2271 2264 2236 2230 2221 2224 2239 2232 2227 2223 2218 2230 2248 2239 2248 2252 2258 2271 2305 2309 2314 2305 2307 2310 2333 2346 2374 2391 2424 2425 2460 2462 2474 2475 2498 2510 2539 2542 2562 2560 2580 2590 2617 2620 2635 2648 2663 2655 2637 2643 2641 2641 2647 2640 2633 2628 2609 2612 2610 2603 2616 2629 2663 2671 2683 2688 2691 2709 2733 2739 2774 2770 2774 2790 2808 2799 2791 2796 2782 2785 2777 2765 2740 2748 2753 2753 2759 2759 2763 2773 2793 2796 2813 2824 2844 2860 2900 2905 2953 2952 2941 2941 2937 2928 2907 2918 2918 2909 2903 2902 2888 2892 2890 2867 2818 2806 2782 2798 2797 2783 2753 2753 2727 2721 2722 2727 2732 2734 2738 2728 2716 2723 2726 2722 2714 2704 2685 2676 2650 2657 2660 2656 2647 2638 2602 2589 2554 2545 2514 2518 2494 2483 2449 2419 2354 2343 2328 2342 2342 2350 2350 2358 2356 2345 2336 2325 2311 2299 2270 2268 2251 2239 2211 2209 2186 2173 2133 2105 2046 2024 1979 1967 1912 1890 1825 1810 1741 1735 1724 1739 1751 1745 1741 1743 1741 1749 1743 1739 1738 1734 1720 1720 1710 1718 1735 1724 1723 1736 1755 1756 1771 1763 1760 1762 1764 1777 1792 1791 1793 1802 1799 1805 1809 1805 1808 1803 1798 1796 1789 1791 1784 1780 1769 1771 1767 1784 1809 1787 1780 1780 1760 1750 1734 1723 1722 1723 1711 1725 1731 1721 1709 1705 1712 1698 1685 1671 1625 1616 1571 1546 1500 1516 1494 1490 1477 1463 1438 1431 1402 1393 1351 1347
2292 2305 2319 2323 2342 2333 2335 2330 2327 2334 2352 2351 2371 2359 2354 2351 2346 2341 2338 2338 2330 2334 2335 2324 2303 2335 2344 2363 2370 2399 2417 2419 2424 2424 2431 2434 2439 2440 2445 2446 2430 2470 2500 2524 2559 2566 2578 2586 2585 2632 2671 2702 2749 2726 2723 2724 2715 2730 2743 2772 2812 2784 2781 2772 2776 2780 2782 2795 2812 2834 2856 2876 2902 2937 2974 2989 3013 3009 3019 3000 2986 2990 3000 3008 3035 2999 2977 2971 2979 2957 2948 2936 2927 2935 2927 2924 2906 2898 2891 2888 2897 2851 2825 2809 2799 2730 2667 2627 2573 2588 2591 2597 2608 2593 2581 2577 2581 2564 2547 2537 2518 2523 2534 2543 2555 2554 2551 2555 2553 2549 2549 2548 2547 2542 2531 2537 2547 2521 2505 2474 2429 2451 2453 2457 2463 2464 2460 2448 2415 2440 2443 2453 2459 2451 2452 2460 2460 2486 2509 2527 2543 2566 2597 2608 2635 2604 2589 2579 2562 2566 2565 2582 2609 2613 2620 2633 2654 2655 2654 2666 2680 2687 2688 2692 2694 2733 2765 2794 2838 2821 2816 2817 2802 2802 2798 2788 2773 2798 2804 2817 2831 2825 2822 2818 2827 2807 2786 2771 2766 2733 2693 2647 2585 2605 2597 2577 2546 2568 2579 2582 2590 2579 2588 2584 2598 2559 2531 2529 2536 2503 2476 2451 2435 2425 2414 2389 2373 2348 2324 2310 2301 2269 2248 2238 2231 2214 2207 2210 2206 2202 2198 2193 2200 2202 2202 2205 2214 2217 2234 2257 2282 2280 2276 2277 2267 2296 2323 2344 2376 2391 2408 2414 2410 2435 2450 2464 2487 2508 2528 2536 2535 2558 2580 2594 2610 2625 2637 2642 2647 2638 2640 2636 2630 2639 2636 2634 2635 2615 2604 2602 2578 2614 2630 2660 2691 2686 2693 2703 2709 2733 2752 2763 2760 2784 2810 2805 2803 2792 2788 2785 2794 2765 2745 2737 2727 2741 2745 2742 2726 2747 2760 2776 2786 2798 2806 2820 2830 2868 2895 2919 2952 2928 2924 2914 2903 2898 2890 2897 2897 2892 2889 2886 2891 2869 2847 2808 2758 2771 2774 2781 2786 2756 2740 2724 2703 2713 2726 2727 2736 2731 2723 2708 2695 2709 2717 2709 2698 2671 2648 2643 2644 2643 2645 2629 2627 2591 2564 2541 2532 2506 2485 2476 2489 2430 2372 2343 2298 2331 2348 2350 2355 2363 2372 2367 2368 2343 2327 2309 2293 2267 2253 2235 2220 2205 2187 2167 2151 2109 2061 2025 1973 1961 1925 1904 1898 1827 1775 1741 1707 1721 1728 1738 1740 1742 1745 1741 1742 1732 1733 1726 1724 1711 1711 1697 1682 1692 1696 1693 1688 1715 1731 1734 1728 1736 1734 1751 1767 1766 1769 1763 1754 1776 1786 1780 1773 1768 1758 1759 1744 1752 1752 1747 1746 1739 1731 1744 1781 1759 1745 1734 1723 1722 1711 1691 1667 1672 1671 1682 1700 1698 1692 1677 1659 1659 1652 1640 1622 1585 1557 1521 1464 1467 1456 1462 1483 1436 1408 1398 1395 1374 1361 1333 1314
2299 2305 2303 2309 2319 2339 2335 2331 2335 2340 2341 2351 2352 2367 2368 2372 2365 2350 2355 2351 2346 2334 2337 2337 2348 2358 2355 2381 2383 2416 2418 2440 2434 2446 2445 2459 2455 2455 2466 2470 2478 2493 2487 2527 2528 2573 2582 2594 2603 2630 2637 2683 2685 2725 2734 2737 2737 2747 2742 2761 2753 2770 2772 2759 2771 2777 2783 2798 2807 2830 2835 2866 2884 2940 2949 2986 2973 2983 2992 2984 2993 2984 2978 2979 2978 2975 2985 2958 2954 2938 2943 2935 2943 2946 2938 2934 2919 2900 2896 2889 2865 2841 2835 2798 2776 2719 2698 2630 2644 2603 2597 2601 2594 2592 2594 2590 2575 2560 2554 2533 2529 2511 2515 2528 2530 2540 2542 2538 2533 2531 2532 2532 2536 2541 2537 2537 2537 2534 2527 2488 2498 2479 2460 2461 2475 2493 2487 2481 2475 2466 2452 2458 2453 2452 2466 2477 2476 2493 2504 2540 2540 2566 2585 2613 2603 2600 2611 2592 2589 2572 2565 2567 2578 2603 2609 2618 2630 2651 2657 2662 2662 2682 2676 2678 2703 2743 2748 2787 2783 2802 2819 2823 2818 2815 2803 2798 2809 2817 2811 2827 2827 2833 2841 2829 2827 2822 2805 2774 2773 2749 2723 2668 2666 2624 2594 2573 2572 2564 2550 2558 2555 2555 2568 2576 2559 2549 2541 2518 2511 2489 2474 2436 2442 2421 2408 2378 2376 2346 2340 2321 2300 2258 2256 2240 2225 2197 2198 2190 2186 2177 2168 2156 2162 2160 2156 2158 2159 2165 2182 2208 2216 2248 2253 2260 2258 2261 2272 2304 2311 2357 2363 2378 2386 2409 2407 2423 2440 2478 2493 2519 2528 2539 2549 2569 2585 2619 2617 2623 2630 2629 2637 2636 2639 2646 2638 2634 2626 2614 2615 2616 2625 2635 2628 2657 2657 2679 2700 2721 2721 2739 2745 2768 2777 2792 2799 2802 2798 2788 2783 2776 2767 2746 2750 2736 2742 2740 2736 2739 2743 2742 2742 2766 2764 2789 2789 2802 2812 2848 2848 2879 2876 2897 2905 2892 2903 2894 2890 2884 2881 2881 2882 2879 2871 2849 2845 2811 2810 2773 2763 2768 2752 2746 2739 2726 2723 2702 2704 2715 2718 2727 2717 2699 2708 2699 2703 2707 2684 2655 2650 2632 2631 2625 2615 2600 2598 2571 2557 2517 2517 2493 2470 2437 2433 2411 2398 2348 2362 2352 2337 2356 2365 2377 2378 2375 2362 2344 2336 2308 2295 2255 2247 2217 2221 2203 2180 2145 2137 2091 2082 2021 2018 1967 1932 1883 1865 1810 1793 1741 1749 1726 1720 1735 1730 1742 1736 1737 1722 1711 1709 1711 1703 1691 1688 1686 1678 1658 1660 1667 1675 1686 1689 1707 1713 1722 1720 1739 1733 1738 1745 1739 1752 1766 1755 1754 1746 1736 1737 1738 1732 1725 1718 1707 1711 1712 1703 1699 1701 1704 1708 1688 1698 1695 1678 1652 1654 1630 1635 1647 1652 1670 1661 1648 1642 1614 1612 1603 1580 1539 1526 1494 1491 1449 1435 1416 1400 1377 1379 1352 1359 1339 1335 1306 1289
2302 2302 2307 2308 2311 2322 2329 2336 2336 2342 2346 2347 2338 2358 2365 2371 2384 2374 2374 2368 2364 2357 2347 2357 2365 2366 2380 2386 2393 2420 2447 2445 2435 2450 2454 2461 2475 2477 2501 2493 2504 2505 2500 2518 2512 2565 2603 2599 2612 2633 2653 2662 2662 2700 2726 2738 2744 2746 2748 2749 2741 2749 2749 2757 2770 2775 2782 2804 2819 2826 2833 2856 2876 2925 2968 2966 2951 2970 2989 2978 2985 2971 2965 2963 2958 2960 2973 2950 2945 2932 2922 2928 2944 2943 2947 2935 2917 2900 2889 2867 2841 2820 2804 2779 2765 2703 2645 2653 2678 2627 2611 2600 2594 2592 2587 2582 2572 2555 2542 2525 2526 2507 2506 2514 2519 2529 2538 2527 2513 2511 2512 2520 2522 2525 2524 2534 2547 2539 2539 2518 2520 2498 2474 2489 2495 2504 2514 2501 2495 2484 2471 2468 2460 2473 2477 2486 2482 2501 2524 2543 2546 2579 2618 2608 2602 2602 2617 2604 2603 2577 2559 2572 2578 2594 2606 2620 2634 2644 2664 2661 2653 2670 2667 2685 2705 2739 2768 2778 2778 2798 2816 2819 2821 2818 2799 2814 2824 2829 2827 2841 2847 2860 2874 2851 2836 2825 2799 2794 2785 2754 2712 2692 2682 2633 2595 2575 2557 2547 2534 2540 2529 2541 2553 2546 2526 2518 2501 2503 2506 2473 2438 2431 2437 2412 2401 2377 2366 2337 2322 2312 2297 2258 2228 2219 2215 2186 2176 2174 2173 2151 2133 2130 2135 2117 2106 2105 2111 2125 2143 2159 2175 2202 2222 2227 2235 2239 2259 2266 2261 2310 2344 2343 2350 2372 2387 2403 2410 2455 2488 2508 2526 2537 2556 2560 2573 2598 2616 2625 2632 2634 2639 2634 2636 2638 2644 2628 2621 2605 2596 2622 2647 2649 2645 2659 2662 2693 2710 2731 2732 2752 2766 2789 2797 2818 2842 2816 2795 2783 2766 2767 2758 2744 2727 2736 2748 2743 2741 2748 2746 2746 2737 2746 2744 2766 2780 2789 2793 2817 2837 2844 2835 2863 2879 2892 2904 2893 2882 2872 2869 2870 2871 2867 2868 2847 2831 2814 2809 2774 2754 2742 2720 2717 2699 2711 2724 2703 2696 2702 2704 2710 2707 2701 2711 2707 2714 2689 2660 2639 2615 2619 2621 2606 2592 2587 2577 2548 2516 2506 2497 2466 2418 2411 2399 2372 2346 2352 2379 2352 2345 2363 2379 2389 2405 2380 2358 2340 2324 2304 2291 2251 2225 2215 2212 2187 2155 2140 2128 2092 2065 2030 2026 1956 1906 1864 1844 1786 1726 1734 1757 1728 1715 1720 1718 1726 1725 1717 1697 1694 1672 1680 1678 1670 1652 1662 1660 1643 1634 1638 1651 1657 1676 1682 1693 1698 1694 1712 1721 1727 1736 1735 1737 1744 1747 1729 1711 1709 1703 1702 1707 1696 1697 1678 1675 1664 1656 1663 1670 1666 1662 1659 1664 1654 1645 1632 1626 1611 1596 1612 1621 1630 1627 1617 1614 1590 1574 1554 1526 1493 1452 1458 1466 1426 1411 1376 1354 1326 1306 1320 1340 1309 1303 1272 1247
2291 2294 2299 2307 2311 2312 2326 2351 2349 2349 2346 2356 2355 2364 2355 2363 2376 2388 2390 2384 2384 2386 2382 2379 2363 2363 2376 2391 2400 2424 2432 2461 2461 2465 2455 2458 2468 2479 2488 2500 2515 2526 2522 2533 2540 2573 2563 2587 2605 2637 2638 2653 2670 2688 2704 2746 2743 2748 2746 2747 2746 2739 2747 2753 2752 2771 2789 2820 2817 2824 2834 2851 2873 2918 2922 2960 2958 2960 2955 2955 2957 2953 2955 2950 2939 2934 2929 2927 2929 2923 2918 2912 2915 2936 2936 2943 2933 2895 2883 2851 2835 2794 2788 2752 2739 2686 2693 2660 2635 2618 2624 2594 2602 2598 2584 2579 2566 2549 2537 2499 2491 2488 2501 2506 2511 2519 2516 2521 2509 2489 2499 2514 2510 2514 2519 2531 2533 2537 2533 2525 2526 2521 2524 2526 2519 2515 2513 2517 2518 2507 2503 2484 2494 2504 2499 2508 2500 2507 2526 2562 2564 2586 2582 2601 2600 2591 2598 2604 2599 2576 2586 2586 2579 2589 2594 2622 2618 2628 2641 2665 2668 2679 2678 2692 2702 2743 2745 2782 2785 2798 2799 2818 2826 2837 2837 2837 2838 2849 2853 2866 2874 2889 2870 2867 2866 2843 2839 2821 2808 2771 2753 2709 2676 2631 2620 2575 2555 2534 2539 2539 2531 2527 2523 2531 2521 2499 2495 2490 2475 2462 2450 2416 2404 2390 2385 2365 2347 2317 2326 2310 2298 2252 2239 2193 2183 2158 2164 2157 2142 2123 2117 2099 2089 2069 2068 2048 2058 2084 2088 2111 2124 2164 2168 2193 2199 2204 2216 2240 2249 2280 2276 2302 2321 2345 2359 2395 2406 2446 2451 2499 2512 2527 2532 2542 2557 2586 2599 2629 2626 2638 2629 2627 2627 2629 2625 2615 2606 2590 2612 2631 2642 2669 2664 2673 2689 2722 2725 2761 2761 2771 2788 2825 2826 2841 2829 2825 2816 2786 2780 2768 2755 2748 2742 2733 2733 2743 2753 2766 2762 2762 2747 2739 2740 2751 2756 2782 2780 2790 2802 2827 2835 2842 2857 2896 2893 2894 2874 2854 2854 2859 2853 2851 2858 2840 2826 2808 2791 2763 2757 2728 2724 2704 2701 2696 2691 2693 2697 2696 2701 2704 2698 2690 2697 2707 2692 2676 2668 2628 2629 2609 2598 2589 2589 2582 2564 2528 2527 2497 2484 2456 2436 2390 2360 2332 2346 2335 2327 2332 2358 2375 2387 2398 2385 2383 2368 2335 2324 2293 2275 2235 2237 2208 2198 2181 2167 2134 2122 2086 2065 2008 1985 1925 1910 1826 1806 1764 1759 1712 1710 1714 1720 1713 1718 1722 1717 1709 1706 1697 1685 1661 1660 1660 1653 1652 1639 1620 1619 1603 1607 1618 1633 1654 1672 1686 1689 1696 1707 1713 1718 1730 1722 1726 1712 1705 1695 1688 1678 1660 1659 1657 1651 1635 1627 1615 1631 1628 1632 1629 1633 1625 1617 1613 1615 1608 1607 1595 1595 1586 1584 1602 1592 1581 1581 1561 1548 1515 1501 1456 1447 1421 1398 1379 1367 1325 1310 1269 1281 1283 1268 1256 1255 1234 1212
2277 2284 2293 2302 2318 2318 2332 2344 2370 2354 2344 2348 2356 2357 2357 2370 2389 2397 2407 2400 2392 2401 2402 2391 2363 2381 2387 2398 2405 2429 2451 2461 2471 2469 2463 2473 2482 2489 2499 2515 2536 2527 2525 2539 2556 2566 2581 2583 2593 2624 2652 2662 2686 2699 2720 2732 2754 2742 2747 2750 2752 2749 2756 2750 2738 2766 2795 2814 2845 2836 2842 2863 2893 2913 2936 2941 2947 2944 2956 2945 2933 2930 2932 2920 2908 2906 2897 2899 2893 2898 2895 2895 2890 2912 2924 2930 2947 2899 2870 2840 2806 2787 2766 2740 2714 2689 2662 2649 2617 2618 2606 2604 2607 2585 2565 2564 2552 2543 2530 2493 2438 2472 2484 2495 2515 2504 2505 2499 2489 2488 2483 2495 2501 2510 2512 2525 2541 2529 2524 2524 2520 2525 2531 2543 2564 2539 2527 2531 2535 2527 2528 2519 2518 2521 2524 2520 2511 2532 2554 2569 2585 2588 2596 2597 2590 2593 2595 2598 2602 2585 2582 2585 2585 2586 2590 2607 2618 2627 2637 2651 2667 2678 2690 2696 2708 2731 2751 2773 2794 2796 2804 2819 2833 2844 2856 2862 2870 2872 2876 2890 2917 2893 2878 2876 2881 2861 2859 2840 2842 2784 2747 2704 2655 2630 2592 2565 2516 2534 2529 2531 2524 2515 2505 2506 2502 2487 2467 2460 2448 2437 2417 2402 2373 2364 2350 2332 2306 2311 2314 2304 2308 2254 2216 2186 2155 2144 2128 2122 2113 2093 2075 2061 2055 2034 2023 2008 1995 2029 2048 2069 2081 2115 2140 2157 2178 2178 2186 2203 2217 2238 2261 2278 2295 2322 2349 2373 2397 2424 2450 2488 2534 2522 2535 2541 2547 2582 2608 2615 2623 2622 2619 2619 2616 2617 2620 2605 2577 2594 2609 2636 2675 2670 2669 2687 2718 2732 2758 2775 2804 2801 2824 2835 2873 2855 2853 2828 2812 2793 2772 2758 2738 2744 2729 2733 2730 2744 2755 2759 2782 2754 2743 2737 2735 2741 2748 2759 2769 2776 2801 2810 2837 2839 2857 2873 2906 2864 2844 2832 2823 2830 2834 2844 2873 2824 2791 2780 2763 2748 2728 2718 2712 2698 2686 2680 2676 2674 2677 2685 2710 2702 2697 2689 2687 2687 2676 2664 2657 2635 2622 2598 2581 2574 2565 2559 2556 2529 2506 2485 2470 2438 2401 2362 2303 2320 2321 2315 2297 2324 2348 2376 2430 2393 2381 2367 2349 2332 2311 2286 2249 2236 2217 2198 2178 2166 2141 2124 2113 2077 2040 1996 1944 1912 1864 1811 1731 1742 1717 1711 1689 1699 1697 1713 1725 1723 1720 1708 1694 1692 1687 1665 1649 1644 1624 1633 1633 1613 1596 1586 1573 1596 1612 1638 1675 1673 1684 1694 1727 1709 1709 1707 1699 1696 1683 1672 1642 1655 1656 1637 1616 1617 1608 1595 1563 1593 1609 1609 1617 1609 1609 1589 1568 1574 1578 1577 1583 1579 1575 1565 1555 1566 1566 1559 1557 1524 1502 1481 1461 1428 1387 1371 1342 1327 1299 1278 1238 1231 1220 1226 1229 1208 1192 1172 1155
2268 2274 2279 2292 2295 2312 2316 2323 2331 2354 2352 2337 2344 2353 2359 2372 2379 2404 2412 2419 2424 2426 2426 2422 2424 2413 2407 2412 2413 2438 2436 2463 2460 2478 2481 2490 2485 2497 2506 2526 2514 2521 2528 2545 2543 2555 2564 2573 2588 2616 2625 2658 2668 2704 2703 2710 2711 2722 2741 2754 2748 2749 2749 2753 2761 2761 2768 2797 2810 2835 2847 2868 2868 2906 2905 2923 2911 2913 2928 2937 2925 2903 2902 2890 2896 2885 2881 2879 2882 2883 2883 2884 2889 2901 2902 2906 2899 2885 2876 2833 2826 2783 2765 2728 2730 2695 2684 2657 2657 2632 2622 2611 2597 2572 2574 2561 2560 2541 2537 2507 2506 2478 2467 2475 2475 2480 2489 2481 2492 2493 2484 2485 2493 2516 2514 2518 2510 2515 2521 2530 2530 2529 2542 2552 2545 2553 2550 2548 2542 2541 2543 2549 2544 2538 2546 2538 2546 2557 2561 2577 2571 2585 2591 2602 2596 2596 2597 2593 2594 2583 2589 2588 2588 2582 2590 2601 2605 2625 2629 2636 2648 2679 2680 2694 2702 2723 2732 2765 2771 2788 2804 2823 2830 2853 2864 2887 2884 2894 2899 2902 2888 2890 2891 2880 2876 2864 2864 2839 2824 2778 2767 2707 2705 2643 2620 2580 2585 2559 2538 2535 2519 2505 2500 2488 2484 2482 2470 2438 2436 2423 2420 2402 2383 2344 2336 2308 2315 2309 2295 2284 2269 2243 2226 2183 2171 2135 2112 2091 2084 2061 2047 2017 2015 1989 1987 1967 1983 1992 2000 2038 2043 2078 2090 2120 2121 2144 2156 2171 2175 2194 2214 2255 2263 2299 2315 2352 2362 2403 2423 2471 2464 2494 2519 2543 2553 2587 2585 2600 2604 2610 2612 2615 2616 2606 2609 2610 2618 2603 2610 2632 2642 2670 2678 2690 2696 2733 2747 2777 2781 2806 2811 2821 2828 2856 2849 2823 2825 2804 2786 2756 2768 2762 2751 2743 2744 2751 2735 2735 2734 2730 2741 2733 2735 2731 2738 2737 2738 2744 2753 2776 2785 2821 2825 2836 2819 2812 2823 2807 2812 2805 2805 2821 2803 2792 2791 2761 2761 2741 2723 2706 2706 2690 2681 2663 2659 2653 2653 2658 2673 2698 2693 2682 2679 2678 2665 2649 2643 2633 2617 2583 2585 2563 2553 2536 2540 2529 2508 2468 2463 2425 2406 2356 2367 2327 2309 2307 2314 2319 2322 2352 2343 2365 2372 2355 2355 2334 2325 2293 2284 2243 2224 2190 2190 2167 2143 2108 2105 2072 2054 1992 1984 1918 1890 1824 1827 1758 1744 1728 1712 1698 1701 1720 1715 1725 1724 1709 1710 1690 1685 1663 1664 1644 1630 1626 1615 1604 1598 1573 1582 1582 1582 1611 1616 1648 1658 1672 1670 1687 1695 1691 1689 1676 1669 1658 1660 1636 1630 1618 1609 1589 1585 1577 1587 1587 1573 1583 1580 1581 1576 1556 1560 1540 1542 1542 1553 1563 1555 1546 1547 1543 1538 1532 1514 1479 1474 1447 1441 1408 1384 1334 1330 1290 1283 1253 1244 1198 1189 1172 1169 1158 1145 1110 1105
2255 2263 2273 2279 2286 2301 2314 2313 2316 2334 2347 2344 2342 2351 2358 2371 2386 2413 2436 2441 2444 2450 2466 2455 2460 2443 2442 2431 2415 2430 2441 2451 2451 2467 2487 2487 2490 2498 2519 2518 2512 2512 2511 2535 2550 2560 2575 2583 2585 2616 2636 2649 2658 2688 2714 2701 2695 2710 2734 2737 2744 2743 2745 2756 2775 2778 2777 2800 2813 2829 2840 2853 2857 2883 2898 2892 2874 2893 2916 2914 2905 2891 2882 2881 2880 2871 2855 2871 2871 2874 2875 2875 2878 2892 2912 2894 2884 2865 2839 2827 2818 2778 2743 2740 2732 2701 2673 2669 2678 2647 2630 2615 2601 2580 2556 2565 2573 2556 2549 2526 2511 2492 2479 2471 2463 2474 2480 2479 2491 2482 2470 2480 2488 2506 2524 2512 2498 2506 2499 2521 2539 2550 2569 2554 2547 2548 2537 2554 2553 2553 2548 2556 2562 2571 2591 2572 2567 2578 2599 2585 2570 2586 2592 2597 2591 2599 2611 2606 2605 2595 2583 2596 2602 2594 2592 2600 2607 2627 2640 2641 2640 2667 2680 2693 2701 2724 2735 2767 2783 2806 2814 2835 2841 2870 2883 2897 2901 2911 2931 2910 2886 2886 2880 2880 2883 2871 2874 2839 2823 2782 2742 2724 2726 2659 2602 2604 2610 2578 2542 2527 2507 2498 2484 2473 2462 2460 2459 2430 2418 2405 2409 2386 2372 2342 2321 2298 2296 2281 2281 2254 2235 2208 2173 2156 2150 2104 2070 2063 2056 2031 2000 1984 1981 1952 1939 1942 1951 1963 1975 1995 2010 2048 2081 2084 2082 2108 2133 2148 2150 2173 2190 2226 2237 2283 2317 2338 2346 2386 2421 2438 2441 2472 2506 2529 2547 2578 2609 2602 2600 2606 2600 2617 2626 2616 2605 2624 2640 2630 2628 2645 2658 2674 2680 2692 2693 2728 2763 2771 2783 2803 2815 2813 2813 2831 2847 2828 2821 2794 2772 2769 2782 2772 2761 2757 2754 2745 2727 2720 2716 2719 2721 2725 2734 2730 2749 2731 2724 2724 2724 2741 2745 2778 2807 2789 2774 2774 2767 2777 2795 2782 2771 2774 2766 2757 2739 2738 2751 2715 2683 2691 2703 2678 2659 2644 2634 2630 2626 2642 2661 2670 2685 2666 2662 2650 2649 2631 2615 2609 2598 2580 2574 2552 2534 2531 2532 2513 2482 2462 2456 2410 2376 2368 2387 2335 2300 2303 2310 2314 2321 2317 2309 2330 2341 2340 2351 2331 2325 2296 2290 2251 2217 2195 2189 2155 2120 2108 2099 2063 2039 2000 1987 1921 1877 1861 1864 1800 1762 1733 1707 1696 1700 1710 1719 1722 1738 1721 1724 1702 1695 1670 1662 1635 1602 1609 1606 1594 1584 1572 1580 1569 1565 1586 1593 1622 1640 1646 1639 1661 1676 1677 1680 1666 1644 1654 1663 1638 1625 1598 1576 1569 1559 1566 1579 1573 1560 1561 1548 1553 1551 1542 1536 1529 1518 1530 1529 1536 1528 1527 1527 1522 1525 1501 1482 1451 1416 1414 1410 1372 1335 1315 1312 1269 1248 1233 1227 1183 1150 1139 1129 1108 1083 1065 1050
2240 2252 2260 2267 2279 2293 2293 2302 2306 2322 2331 2350 2346 2354 2363 2371 2388 2427 2432 2465 2463 2466 2473 2474 2475 2460 2464 2458 2446 2429 2434 2452 2444 2452 2466 2484 2485 2486 2496 2515 2509 2506 2515 2536 2537 2563 2576 2601 2605 2629 2625 2646 2653 2679 2670 2688 2684 2690 2696 2716 2722 2734 2743 2753 2771 2800 2802 2816 2819 2829 2834 2847 2851 2873 2864 2874 2867 2870 2877 2900 2892 2877 2885 2874 2868 2864 2873 2880 2872 2867 2870 2866 2872 2877 2879 2875 2874 2854 2848 2819 2803 2770 2780 2759 2739 2707 2697 2671 2662 2651 2647 2618 2611 2594 2586 2572 2567 2561 2553 2537 2523 2501 2487 2467 2470 2476 2467 2464 2470 2477 2483 2478 2489 2499 2503 2511 2514 2515 2511 2516 2532 2565 2554 2551 2560 2557 2565 2578 2572 2572 2569 2567 2581 2596 2592 2594 2594 2591 2587 2596 2602 2597 2595 2603 2602 2598 2604 2616 2618 2612 2613 2611 2607 2603 2608 2600 2610 2637 2635 2648 2655 2671 2677 2700 2709 2737 2754 2787 2799 2839 2841 2862 2873 2904 2901 2920 2920 2921 2921 2924 2912 2890 2886 2879 2871 2864 2852 2823 2819 2786 2769 2723 2702 2665 2668 2627 2617 2601 2577 2527 2513 2497 2483 2460 2451 2437 2427 2406 2395 2373 2379 2364 2364 2333 2315 2269 2260 2239 2239 2216 2215 2184 2161 2120 2101 2063 2068 2037 2039 2010 1987 1939 1918 1900 1910 1913 1915 1934 1934 1957 1976 2023 2025 2053 2061 2074 2095 2138 2143 2160 2183 2223 2230 2280 2288 2338 2345 2374 2389 2420 2423 2450 2476 2522 2535 2572 2577 2601 2607 2615 2615 2630 2624 2630 2637 2642 2642 2650 2653 2664 2673 2691 2693 2706 2702 2725 2732 2763 2782 2808 2799 2804 2804 2811 2810 2824 2811 2781 2787 2769 2778 2786 2779 2771 2769 2751 2734 2704 2707 2711 2706 2715 2706 2706 2713 2715 2715 2707 2710 2720 2716 2742 2731 2741 2744 2744 2742 2742 2750 2757 2754 2739 2744 2733 2725 2704 2700 2687 2689 2675 2672 2663 2652 2623 2617 2609 2616 2626 2627 2639 2642 2636 2635 2613 2615 2611 2604 2592 2581 2568 2563 2537 2541 2522 2524 2511 2486 2442 2420 2385 2383 2355 2355 2328 2329 2298 2296 2307 2295 2286 2297 2305 2305 2313 2319 2314 2304 2279 2283 2256 2234 2185 2179 2146 2136 2105 2082 2045 2027 1982 1961 1903 1909 1880 1861 1816 1795 1737 1714 1682 1694 1704 1705 1707 1711 1716 1713 1699 1690 1662 1662 1634 1628 1603 1594 1583 1573 1554 1557 1549 1564 1576 1586 1610 1612 1634 1631 1644 1649 1661 1668 1664 1663 1652 1642 1629 1613 1576 1568 1555 1553 1552 1554 1566 1561 1553 1541 1533 1530 1525 1525 1524 1524 1533 1530 1526 1517 1508 1501 1496 1487 1465 1463 1430 1421 1386 1367 1336 1324 1281 1262 1227 1232 1206 1195 1159 1146 1105 1091 1063 1050 1017 1003
2215 2245 2266 2269 2283 2285 2291 2290 2288 2316 2337 2338 2334 2361 2385 2388 2396 2428 2453 2471 2487 2491 2509 2501 2503 2486 2478 2471 2457 2451 2443 2447 2434 2458 2478 2476 2483 2487 2494 2497 2496 2496 2507 2527 2539 2564 2590 2601 2615 2625 2640 2648 2651 2653 2656 2660 2647 2669 2684 2696 2704 2724 2743 2757 2789 2798 2819 2831 2857 2842 2847 2846 2845 2855 2855 2843 2829 2849 2864 2878 2877 2879 2884 2869 2853 2863 2868 2879 2887 2874 2878 2876 2873 2881 2887 2877 2858 2851 2836 2817 2786 2781 2775 2763 2748 2711 2678 2669 2656 2650 2641 2621 2603 2594 2577 2579 2582 2562 2541 2529 2507 2489 2470 2470 2458 2472 2465 2468 2461 2484 2486 2498 2509 2516 2517 2518 2508 2521 2518 2534 2549 2564 2563 2565 2565 2575 2581 2590 2604 2590 2585 2587 2615 2613 2619 2607 2602 2599 2597 2605 2618 2608 2611 2611 2618 2614 2613 2622 2636 2625 2627 2627 2632 2626 2628 2619 2614 2633 2650 2658 2664 2682 2700 2711 2722 2758 2793 2811 2837 2863 2882 2898 2914 2927 2941 2947 2957 2940 2938 2925 2903 2898 2892 2879 2861 2856 2840 2818 2795 2774 2746 2716 2679 2671 2655 2638 2641 2606 2572 2533 2489 2488 2471 2449 2423 2419 2404 2383 2344 2357 2363 2355 2353 2318 2288 2253 2212 2211 2207 2187 2181 2142 2108 2081 2051 2040 2024 2022 2041 1988 1943 1896 1833 1852 1848 1858 1876 1877 1894 1915 1950 1985 2014 2026 2036 2060 2087 2118 2142 2164 2199 2215 2227 2267 2299 2329 2352 2384 2417 2419 2402 2454 2493 2518 2542 2571 2590 2601 2605 2614 2617 2630 2637 2643 2653 2657 2673 2662 2660 2680 2710 2712 2717 2708 2697 2726 2750 2769 2796 2795 2801 2801 2789 2797 2795 2800 2795 2779 2777 2775 2785 2778 2778 2775 2793 2751 2730 2707 2686 2691 2682 2686 2684 2685 2698 2693 2691 2688 2690 2688 2681 2698 2698 2695 2685 2699 2710 2721 2737 2726 2727 2723 2733 2711 2697 2677 2670 2658 2645 2650 2669 2637 2622 2600 2579 2588 2598 2604 2619 2622 2633 2614 2607 2586 2574 2575 2567 2561 2551 2551 2550 2534 2533 2526 2531 2496 2459 2421 2372 2361 2338 2340 2362 2323 2305 2292 2279 2280 2278 2272 2278 2282 2293 2297 2310 2287 2272 2264 2272 2239 2206 2185 2170 2133 2105 2080 2059 2020 1983 1951 1922 1893 1868 1866 1874 1813 1766 1725 1676 1682 1685 1695 1712 1701 1702 1699 1701 1683 1676 1657 1657 1637 1616 1605 1591 1572 1551 1544 1541 1543 1553 1569 1594 1605 1613 1613 1607 1632 1655 1660 1674 1657 1658 1647 1644 1614 1586 1561 1518 1530 1530 1535 1542 1545 1546 1533 1519 1520 1514 1504 1500 1505 1505 1520 1543 1517 1506 1489 1474 1472 1460 1443 1435 1406 1387 1358 1332 1304 1270 1242 1207 1196 1183 1170 1168 1126 1093 1075 1048 1022 993 969 942
2225 2247 2244 2263 2264 2276 2280 2282 2300 2319 2320 2333 2351 2373 2380 2400 2418 2438 2451 2479 2479 2505 2513 2519 2513 2503 2502 2494 2485 2478 2469 2462 2465 2468 2457 2459 2467 2486 2482 2483 2479 2477 2495 2526 2533 2564 2574 2600 2602 2619 2637 2656 2639 2628 2635 2649 2650 2655 2658 2680 2690 2716 2725 2745 2756 2784 2805 2833 2823 2838 2846 2846 2847 2849 2830 2817 2830 2835 2842 2871 2871 2879 2877 2866 2875 2870 2871 2884 2870 2866 2879 2889 2886 2889 2889 2890 2885 2856 2851 2828 2821 2793 2784 2773 2750 2711 2702 2673 2671 2653 2642 2625 2622 2602 2600 2585 2575 2565 2551 2531 2516 2481 2488 2487 2487 2491 2483 2485 2494 2512 2509 2519 2520 2542 2539 2538 2539 2545 2541 2555 2553 2580 2580 2581 2592 2598 2595 2600 2594 2599 2589 2582 2596 2624 2620 2616 2614 2606 2607 2612 2609 2607 2614 2615 2616 2627 2624 2624 2621 2626 2640 2640 2639 2644 2646 2635 2640 2633 2640 2670 2674 2695 2704 2722 2744 2782 2793 2830 2842 2894 2908 2936 2938 2952 2962 2970 2956 2946 2950 2938 2933 2908 2896 2887 2877 2860 2842 2817 2808 2769 2752 2717 2716 2686 2663 2632 2628 2611 2593 2544 2538 2497 2470 2445 2441 2413 2401 2380 2378 2348 2334 2340 2325 2301 2291 2246 2235 2188 2165 2144 2130 2097 2088 2046 2053 2022 2009 1989 1981 1959 1942 1872 1875 1830 1800 1795 1789 1804 1829 1860 1891 1953 1974 2004 2020 2045 2066 2108 2119 2157 2177 2211 2223 2262 2279 2327 2343 2394 2409 2437 2451 2474 2479 2516 2534 2581 2595 2610 2615 2622 2632 2636 2642 2652 2662 2661 2660 2666 2674 2688 2698 2731 2724 2715 2727 2734 2736 2767 2757 2775 2797 2811 2804 2796 2791 2789 2781 2766 2772 2770 2768 2765 2761 2759 2749 2731 2736 2709 2708 2688 2668 2663 2662 2655 2659 2669 2673 2666 2671 2663 2670 2673 2657 2657 2659 2658 2672 2696 2684 2685 2696 2696 2691 2684 2666 2638 2646 2633 2628 2613 2608 2594 2595 2576 2580 2566 2562 2575 2581 2597 2594 2582 2578 2550 2554 2549 2550 2537 2542 2535 2529 2518 2526 2519 2508 2484 2469 2411 2405 2349 2327 2306 2306 2298 2306 2286 2282 2258 2255 2248 2256 2254 2262 2273 2266 2252 2254 2233 2234 2223 2210 2181 2161 2113 2102 2054 2044 1994 1971 1919 1920 1881 1861 1844 1826 1797 1787 1724 1729 1688 1684 1680 1680 1686 1683 1677 1671 1659 1652 1635 1646 1641 1631 1611 1593 1563 1553 1532 1530 1529 1534 1553 1565 1603 1602 1599 1610 1623 1627 1652 1639 1635 1644 1636 1626 1600 1592 1566 1557 1517 1513 1518 1518 1528 1527 1514 1521 1517 1501 1480 1486 1492 1488 1501 1489 1496 1487 1471 1475 1461 1438 1412 1407 1373 1366 1330 1318 1280 1257 1213 1205 1167 1152 1125 1118 1086 1089 1057 1034 985 965 927 900
2214 2230 2254 2255 2251 2271 2281 2296 2311 2329 2342 2355 2362 2389 2413 2430 2449 2469 2494 2491 2482 2511 2542 2534 2524 2513 2510 2498 2493 2482 2481 2481 2490 2479 2470 2457 2448 2470 2479 2470 2464 2474 2483 2518 2535 2565 2594 2598 2602 2630 2661 2650 2633 2623 2615 2636 2640 2650 2652 2670 2682 2708 2737 2742 2754 2784 2814 2814 2804 2829 2846 2847 2847 2833 2811 2814 2816 2826 2834 2859 2871 2883 2887 2882 2882 2875 2879 2876 2865 2875 2877 2891 2891 2900 2907 2908 2910 2879 2862 2837 2828 2801 2786 2764 2743 2713 2678 2675 2681 2653 2636 2622 2621 2612 2610 2588 2573 2556 2527 2523 2512 2492 2478 2489 2502 2503 2501 2504 2516 2527 2545 2538 2536 2551 2568 2557 2559 2553 2556 2563 2559 2584 2611 2613 2626 2622 2620 2607 2596 2592 2574 2584 2594 2613 2628 2615 2615 2613 2611 2617 2622 2616 2619 2613 2612 2618 2627 2621 2623 2634 2658 2646 2645 2658 2674 2664 2667 2652 2644 2671 2683 2711 2735 2753 2773 2805 2841 2846 2851 2909 2966 2973 2983 2988 3013 2988 2969 2960 2962 2958 2951 2920 2886 2883 2870 2854 2830 2817 2806 2772 2729 2720 2715 2688 2658 2634 2617 2595 2576 2554 2541 2493 2449 2441 2438 2414 2390 2387 2382 2344 2306 2307 2298 2279 2266 2232 2219 2165 2116 2095 2072 2052 2030 2025 2037 2002 1977 1964 1955 1921 1898 1864 1856 1797 1745 1730 1711 1748 1778 1825 1860 1926 1990 2005 2019 2048 2078 2106 2127 2164 2200 2211 2220 2263 2303 2332 2355 2407 2453 2465 2478 2500 2525 2537 2547 2594 2647 2642 2641 2657 2668 2660 2663 2677 2698 2679 2661 2668 2670 2693 2715 2729 2742 2740 2745 2745 2746 2749 2739 2774 2806 2806 2810 2796 2790 2781 2776 2767 2757 2758 2762 2750 2736 2734 2730 2712 2714 2705 2708 2674 2637 2644 2650 2642 2630 2646 2659 2655 2667 2651 2654 2639 2619 2624 2626 2637 2651 2653 2648 2655 2669 2665 2658 2640 2609 2614 2619 2607 2598 2587 2582 2557 2544 2546 2559 2537 2528 2546 2557 2569 2581 2556 2547 2529 2513 2530 2542 2532 2529 2520 2513 2515 2517 2511 2496 2473 2451 2414 2404 2340 2282 2282 2284 2277 2281 2270 2280 2247 2235 2237 2244 2241 2243 2247 2246 2240 2221 2214 2209 2190 2165 2153 2146 2094 2071 2032 2023 1963 1914 1900 1897 1849 1800 1804 1796 1772 1755 1738 1741 1703 1693 1675 1672 1664 1659 1650 1646 1631 1613 1625 1635 1624 1617 1601 1583 1555 1528 1517 1510 1513 1513 1538 1554 1587 1614 1609 1605 1617 1626 1626 1615 1620 1633 1623 1611 1588 1560 1564 1561 1530 1502 1507 1498 1515 1526 1509 1508 1497 1488 1464 1461 1463 1462 1462 1457 1457 1439 1454 1465 1439 1408 1393 1385 1351 1328 1296 1275 1237 1206 1184 1170 1139 1111 1088 1080 1055 1046 1021 1001 947 901 866 832
2188 2205 2220 2252 2259 2276 2280 2313 2320 2345 2356 2384 2385 2409 2422 2459 2471 2496 2495 2510 2514 2516 2523 2552 2542 2516 2512 2498 2491 2476 2488 2494 2495 2490 2480 2453 2460 2470 2459 2455 2464 2474 2492 2531 2538 2570 2572 2599 2622 2639 2632 2653 2643 2618 2628 2640 2638 2656 2653 2669 2678 2699 2709 2734 2754 2784 2788 2808 2815 2831 2827 2849 2839 2827 2826 2815 2815 2820 2838 2863 2881 2895 2888 2896 2884 2869 2874 2876 2884 2892 2890 2910 2909 2915 2915 2926 2920 2889 2873 2830 2824 2798 2788 2756 2746 2720 2707 2670 2664 2643 2640 2607 2610 2615 2607 2586 2578 2562 2553 2524 2513 2499 2501 2492 2504 2521 2514 2514 2528 2537 2543 2554 2557 2559 2555 2563 2563 2555 2570 2585 2583 2588 2600 2636 2645 2647 2636 2615 2615 2600 2597 2586 2584 2609 2602 2603 2615 2621 2617 2624 2616 2616 2613 2606 2604 2607 2609 2612 2615 2632 2629 2644 2656 2669 2665 2681 2675 2667 2675 2687 2691 2733 2743 2783 2799 2827 2836 2862 2886 2926 2940 3010 3015 3007 2997 3001 2991 2965 2975 2984 2970 2935 2919 2890 2873 2857 2843 2817 2809 2784 2766 2719 2715 2696 2673 2630 2615 2578 2578 2555 2529 2486 2479 2432 2430 2415 2415 2398 2374 2340 2327 2286 2270 2252 2239 2199 2187 2140 2123 2050 2036 2011 2012 1990 1989 1975 1969 1938 1911 1874 1872 1831 1808 1760 1745 1670 1661 1699 1737 1803 1830 1903 1934 2008 2017 2051 2067 2111 2129 2172 2180 2215 2240 2270 2288 2344 2368 2428 2435 2494 2503 2526 2532 2562 2576 2604 2618 2672 2691 2697 2676 2676 2681 2697 2691 2697 2688 2675 2681 2702 2710 2731 2735 2761 2761 2757 2750 2746 2754 2777 2773 2800 2801 2788 2787 2769 2774 2771 2759 2746 2741 2739 2727 2712 2692 2673 2683 2689 2679 2664 2655 2629 2627 2635 2631 2629 2626 2629 2631 2623 2625 2613 2610 2594 2594 2613 2610 2618 2619 2619 2629 2639 2634 2612 2606 2592 2579 2580 2570 2555 2534 2508 2517 2507 2500 2495 2515 2526 2534 2543 2526 2514 2520 2508 2517 2518 2518 2521 2515 2504 2506 2512 2509 2514 2500 2463 2437 2391 2370 2326 2313 2258 2247 2246 2245 2235 2234 2217 2228 2223 2216 2224 2231 2229 2238 2241 2224 2196 2190 2165 2150 2123 2094 2049 2040 1983 1969 1924 1921 1873 1856 1820 1815 1777 1757 1743 1746 1733 1715 1690 1682 1657 1653 1641 1636 1620 1622 1609 1622 1619 1612 1606 1609 1593 1582 1548 1535 1500 1494 1500 1518 1535 1543 1577 1586 1620 1619 1616 1609 1611 1608 1599 1604 1613 1602 1582 1584 1569 1552 1541 1533 1512 1503 1509 1495 1489 1492 1477 1462 1430 1433 1438 1436 1430 1439 1438 1441 1441 1434 1424 1412 1369 1357 1321 1310 1254 1226 1190 1190 1149 1134 1110 1091 1038 1029 1010 1007 983 955 902 881 807 774
2145 2185 2210 2236 2254 2268 2281 2313 2341 2359 2386 2395 2406 2429 2458 2479 2516 2516 2526 2526 2538 2537 2543 2553 2560 2529 2510 2500 2480 2489 2492 2501 2515 2498 2487 2461 2449 2460 2466 2456 2451 2477 2499 2528 2568 2569 2585 2606 2656 2636 2637 2637 2642 2624 2623 2627 2643 2641 2650 2664 2695 2705 2723 2737 2763 2779 2807 2807 2808 2820 2827 2832 2836 2820 2817 2809 2817 2829 2855 2874 2934 2894 2890 2883 2887 2873 2870 2880 2892 2888 2896 2911 2936 2927 2929 2935 2961 2903 2865 2834 2806 2794 2773 2756 2724 2714 2696 2680 2665 2651 2632 2610 2582 2606 2607 2588 2555 2560 2554 2530 2504 2506 2504 2508 2525 2521 2519 2533 2561 2558 2568 2570 2570 2569 2562 2566 2566 2572 2582 2592 2603 2606 2620 2641 2687 2660 2657 2635 2627 2613 2606 2593 2570 2592 2604 2603 2608 2609 2610 2608 2616 2611 2609 2594 2584 2600 2608 2600 2590 2608 2620 2633 2654 2661 2665 2673 2678 2676 2679 2691 2702 2736 2773 2801 2852 2853 2882 2885 2916 2935 2974 3011 3077 3017 2998 2991 2987 2979 2982 2984 3001 2944 2903 2886 2861 2851 2828 2817 2806 2782 2757 2734 2718 2692 2653 2632 2595 2591 2565 2546 2499 2487 2458 2444 2425 2427 2410 2399 2370 2339 2303 2280 2237 2233 2210 2183 2144 2123 2083 2037 1970 1986 1975 1973 1961 1950 1928 1908 1855 1852 1829 1802 1743 1743 1697 1653 1530 1675 1738 1796 1837 1902 1965 1993 2020 2052 2087 2118 2155 2176 2206 2236 2277 2288 2320 2355 2398 2425 2466 2491 2542 2540 2562 2574 2614 2617 2651 2682 2749 2706 2693 2687 2683 2697 2707 2697 2682 2685 2688 2704 2737 2731 2733 2756 2785 2762 2752 2749 2749 2766 2777 2788 2810 2788 2782 2772 2768 2759 2746 2733 2722 2712 2696 2678 2647 2651 2643 2651 2651 2639 2620 2614 2609 2610 2612 2611 2617 2613 2614 2604 2599 2589 2580 2567 2553 2570 2584 2582 2590 2596 2610 2614 2619 2586 2564 2557 2537 2535 2526 2510 2476 2474 2472 2468 2455 2471 2480 2503 2541 2511 2493 2481 2477 2485 2498 2499 2521 2499 2495 2490 2480 2488 2498 2496 2508 2442 2399 2361 2313 2298 2267 2243 2202 2222 2218 2210 2203 2197 2192 2194 2182 2214 2228 2236 2242 2228 2215 2194 2181 2148 2105 2082 2039 2023 1982 1954 1898 1894 1864 1847 1818 1798 1767 1752 1708 1725 1715 1708 1683 1666 1643 1638 1621 1620 1613 1610 1603 1606 1617 1612 1611 1603 1603 1586 1572 1544 1511 1493 1451 1500 1528 1540 1548 1569 1595 1609 1628 1615 1606 1603 1597 1589 1591 1590 1580 1577 1577 1567 1540 1535 1521 1513 1489 1495 1486 1479 1476 1460 1436 1417 1377 1412 1415 1424 1429 1430 1430 1428 1432 1415 1391 1365 1333 1315 1281 1228 1132 1166 1148 1125 1073 1077 1046 1018 958 976 956 938 892 864 814 767 683
2172 2183 2187 2230 2232 2263 2281 2318 2321 2365 2382 2407 2415 2445 2448 2485 2485 2528 2533 2532 2539 2551 2556 2560 2549 2531 2533 2513 2516 2509 2496 2506 2496 2500 2486 2458 2466 2456 2451 2453 2463 2484 2486 2514 2515 2553 2557 2584 2579 2614 2619 2616 2615 2613 2613 2605 2611 2616 2628 2643 2663 2703 2706 2728 2736 2765 2784 2805 2806 2814 2815 2819 2810 2802 2797 2788 2806 2826 2831 2844 2836 2857 2866 2860 2866 2867 2874 2883 2873 2874 2887 2902 2905 2928 2925 2924 2911 2898 2892 2836 2835 2800 2789 2772 2759 2718 2713 2692 2685 2667 2649 2620 2633 2623 2613 2606 2601 2570 2564 2541 2541 2518 2511 2512 2512 2521 2528 2539 2543 2568 2579 2590 2582 2586 2579 2576 2578 2586 2589 2600 2601 2613 2614 2624 2627 2652 2658 2642 2637 2620 2618 2610 2603 2588 2581 2597 2591 2598 2588 2582 2593 2604 2593 2578 2593 2601 2591 2591 2592 2592 2594 2617 2627 2658 2659 2668 2672 2681 2687 2697 2708 2739 2760 2797 2805 2853 2866 2880 2892 2927 2941 2986 2966 2987 3000 2981 2986 2983 2970 2969 2961 2940 2934 2891 2887 2860 2839 2820 2814 2781 2776 2743 2742 2704 2689 2652 2652 2627 2605 2567 2553 2508 2493 2464 2473 2460 2440 2420 2394 2344 2327 2294 2281 2234 2211 2182 2175 2128 2105 2047 2047 1989 1976 1966 1957 1939 1933 1913 1900 1853 1834 1808 1812 1772 1750 1715 1742 1734 1719 1808 1815 1906 1924 1981 1990 2052 2072 2120 2131 2174 2202 2249 2246 2286 2316 2360 2366 2408 2425 2463 2478 2531 2540 2561 2566 2601 2617 2656 2655 2686 2711 2697 2709 2704 2704 2705 2703 2695 2683 2691 2694 2723 2728 2746 2738 2756 2755 2751 2750 2761 2755 2766 2762 2772 2778 2769 2767 2754 2745 2718 2715 2691 2687 2657 2660 2644 2628 2623 2621 2623 2614 2598 2595 2587 2583 2587 2590 2593 2591 2582 2576 2567 2554 2542 2545 2532 2531 2536 2548 2567 2577 2590 2570 2551 2550 2538 2529 2499 2493 2483 2471 2440 2442 2439 2446 2457 2454 2468 2458 2467 2466 2441 2453 2459 2459 2459 2458 2460 2478 2481 2474 2462 2464 2464 2440 2398 2394 2344 2342 2287 2280 2248 2248 2225 2200 2185 2188 2178 2177 2179 2196 2222 2223 2245 2228 2214 2214 2185 2178 2143 2116 2063 2066 2024 1995 1955 1952 1892 1873 1835 1830 1790 1787 1757 1758 1737 1715 1703 1682 1650 1645 1633 1623 1605 1611 1606 1603 1595 1600 1603 1598 1592 1589 1579 1574 1547 1542 1513 1526 1524 1521 1551 1541 1556 1573 1596 1593 1613 1613 1600 1591 1572 1575 1577 1580 1572 1580 1582 1570 1540 1541 1531 1518 1498 1477 1466 1462 1451 1449 1427 1433 1419 1413 1424 1420 1425 1422 1412 1415 1415 1401 1369 1362 1327 1300 1248 1253 1197 1161 1133 1122 1082 1067 1031 1023 980 947 921 908 848 831 764 742
