4367 4357 4354 4349 4354 4351 4360 4364 4369 4386 4381 4392 4387 4379 4386 4404 4399 4398 4391 4377 4373 4362 4373 4378 4372 4368 4364 4360 4356 4350 4343 4331 4328 4325 4324 4320 4318 4317 4309 4299 4289 4273 4283 4267 4256 4240 4240 4214 4209 4219 4240 4270 4280 4306 4315 4336 4356 4390 4390 4421 4443 4473 4488 4544 4556 4583 4575 4587 4592 4596 4590 4606 4617 4651 4650 4675 4696 4723 4726 4749 4758 4769 4770 4790 4791 4808 4812 4830 4830 4829 4824 4817 4815 4818 4809 4797 4806 4823 4847 4893 4905 4960 4966 5002 5018 5038 5047 5067 5084 5114 5117 5154 5172 5186 5174 5174 5175 5175 5174 5183 5180 5172 5175 5166 5170 5157 5153 5142 5145 5145 5147 5145 5142 5138 5142 5139 5127 5114 5124 5127 5117 5109 5116 5108 5111 5141 5156 5185 5193 5209 5213 5229 5232 5255 5257 5272 5276 5283 5270 5260 5267 5290 5294 5307 5313 5324 5344 5374 5377 5398 5389 5391 5398 5405 5417 5437 5439 5435 5420 5412 5409 5403 5398 5391 5386 5385 5382 5376 5375 5375 5381 5391 5379 5355 5358 5340 5343 5346 5337 5318 5323 5332 5327 5326 5331 5353 5354 5369 5372 5366 5356 5344 5332 5329 5343 5359 5358 5364 5358 5363 5363 5366 5362 5359 5369 5375 5365 5354 5354 5359 5355 5350 5347 5334 5324 5305 5295 5275 5281 5267 5265 5259 5255 5242 5243 5249 5239 5217 5215 5201 5190 5177 5170 5168 5165 5152 5150 5151 5146 5142 5135 5125 5123 5109 5101 5103 5113 5121 5113 5106 5102 5091 5085 5077 5078 5058 5063 5073 5076 5084 5086 5088 5085 5083 5077 5064 5066 5056 5054 5063 5060 5057 5054 5044 5037 5018 5008 4991 4993 4974 4969 4966 4966 4946 4953 4972 4982 4995 5010 5042 5042 5056 5059 5058 5062 5073 5069 5081 5080 5084 5085 5090 5094 5114 5113 5120 5127 5145 5156 5172 5176 5208 5216 5235 5243 5275 5291 5295 5275 5262 5253 5237 5239 5235 5234 5226 5214 5193 5177 5152 5142 5120 5115 5113 5106 5086 5080 5064 5051 5026 5030 5041 5046 5059 5054 5045 5041 5032 5027 5014 5017 5008 5008 5016 5012 5012 5005 5012 5019 5034 5034 5015 5020 5020 5018 5012 5004 4985 4976 4959 4962 4952 4944 4928 4936 4926 4925 4916 4910 4889 4878 4867 4874 4870 4871 4872 4885 4900 4897 4909 4909 4919 4918 4920 4924 4918 4915 4923 4935 4949 4949 4948 4938 4921 4914 4907 4923 4938 4934 4942 4946 4956 4956 4956 4949 4944 4945 4959 4954 4960 4965 4953 4947 4947 4948 4947 4942 4932 4933 4911 4904 4879 4871 4852 4841 4821 4813 4802 4799 4782 4773 4754 4744 4712 4706 4691 4686 4661 4659 4648 4632 4591 4581 4551 4546 4506 4491 4466 4459 4426 4416 4403 4404 4395 4392 4387 4375 4355 4354 4352 4341 4332 4329 4325 4321 4323 4314 4308 4312 4309 4308 4310 4312 4313 4317 4316 4313 4317 4317 4314 4323 4342 4345
4381 4362 4349 4349 4351 4351 4364 4365 4368 4373 4383 4382 4382 4380 4384 4397 4420 4396 4384 4375 4368 4374 4382 4380 4386 4378 4375 4365 4356 4349 4342 4325 4305 4325 4325 4327 4323 4311 4302 4289 4263 4278 4280 4267 4247 4248 4233 4213 4165 4222 4252 4279 4304 4320 4338 4356 4400 4397 4414 4433 4471 4486 4515 4555 4612 4592 4599 4592 4598 4595 4595 4608 4620 4642 4657 4679 4707 4725 4745 4754 4764 4774 4785 4798 4810 4821 4834 4837 4848 4836 4825 4821 4809 4812 4807 4796 4767 4829 4865 4895 4919 4958 4998 5013 5049 5054 5076 5081 5102 5114 5134 5156 5198 5180 5173 5168 5175 5168 5169 5170 5183 5167 5167 5167 5185 5158 5141 5133 5130 5130 5130 5134 5134 5129 5128 5123 5098 5114 5117 5117 5098 5111 5120 5118 5107 5149 5182 5197 5221 5222 5235 5236 5246 5258 5266 5277 5282 5279 5264 5260 5239 5275 5289 5298 5311 5332 5362 5377 5400 5400 5401 5399 5405 5415 5428 5438 5462 5435 5426 5411 5408 5403 5397 5387 5364 5377 5371 5377 5377 5372 5376 5377 5375 5362 5353 5344 5348 5339 5333 5322 5324 5325 5320 5320 5326 5345 5358 5367 5393 5363 5350 5338 5331 5338 5346 5355 5375 5363 5360 5356 5349 5356 5358 5367 5384 5375 5365 5361 5354 5362 5364 5359 5365 5349 5328 5315 5289 5294 5291 5284 5272 5273 5275 5268 5267 5263 5247 5242 5237 5221 5205 5198 5185 5180 5174 5166 5155 5159 5156 5154 5149 5138 5123 5103 5070 5095 5106 5111 5111 5102 5094 5086 5073 5081 5081 5074 5064 5077 5082 5087 5091 5090 5087 5082 5071 5066 5061 5047 5025 5045 5051 5048 5041 5038 5024 5009 4977 4991 4986 4975 4957 4960 4947 4935 4905 4955 4984 4995 5013 5032 5047 5056 5071 5063 5063 5070 5078 5079 5085 5079 5079 5086 5092 5104 5113 5117 5130 5149 5182 5171 5181 5206 5239 5240 5262 5277 5324 5285 5271 5248 5235 5229 5223 5230 5244 5218 5195 5173 5141 5137 5119 5112 5090 5099 5093 5083 5066 5052 5033 5025 5011 5030 5035 5043 5043 5036 5030 5023 5016 5011 5011 5010 5015 5009 5008 5007 5002 5008 5022 5026 5038 5019 5017 5022 5031 5012 4997 4981 4963 4960 4957 4944 4928 4931 4936 4931 4932 4913 4894 4881 4859 4860 4854 4858 4863 4873 4884 4888 4891 4901 4908 4917 4930 4923 4925 4913 4894 4922 4937 4940 4939 4932 4927 4913 4891 4909 4922 4934 4938 4941 4947 4953 4969 4961 4964 4953 4949 4956 4960 4965 4987 4967 4954 4953 4960 4954 4953 4948 4956 4928 4910 4891 4858 4857 4838 4829 4805 4805 4794 4784 4768 4756 4737 4715 4688 4687 4673 4666 4646 4641 4616 4591 4557 4549 4531 4504 4474 4463 4445 4425 4394 4402 4398 4389 4387 4373 4361 4351 4340 4343 4334 4322 4305 4308 4307 4304 4299 4297 4303 4306 4311 4306 4307 4315 4335 4314 4314 4313 4329 4313 4318 4328 4349
4367 4362 4355 4349 4343 4341 4350 4364 4357 4355 4362 4374 4369 4376 4375 4381 4376 4382 4385 4372 4378 4384 4378 4376 4382 4386 4377 4371 4362 4351 4338 4324 4342 4345 4338 4341 4324 4305 4306 4295 4302 4299 4286 4274 4280 4272 4260 4243 4255 4252 4251 4290 4295 4332 4334 4353 4359 4387 4405 4426 4442 4488 4509 4552 4541 4575 4584 4585 4588 4592 4600 4611 4618 4640 4648 4677 4687 4726 4738 4758 4762 4781 4791 4810 4816 4835 4837 4839 4839 4843 4837 4833 4828 4817 4813 4814 4838 4864 4864 4903 4915 4957 4972 5004 5012 5054 5063 5082 5087 5109 5117 5141 5139 5166 5165 5151 5156 5156 5153 5148 5150 5146 5152 5151 5148 5150 5143 5121 5126 5115 5119 5129 5123 5117 5125 5129 5131 5130 5123 5129 5124 5118 5126 5137 5147 5166 5170 5202 5201 5223 5230 5236 5248 5267 5276 5291 5283 5288 5283 5277 5278 5285 5276 5288 5301 5334 5347 5374 5375 5401 5402 5399 5409 5425 5420 5427 5417 5418 5417 5399 5408 5405 5406 5397 5399 5388 5385 5387 5371 5361 5365 5366 5366 5366 5357 5337 5337 5330 5325 5313 5321 5325 5316 5308 5321 5345 5343 5348 5343 5346 5347 5328 5342 5349 5342 5343 5345 5354 5356 5353 5356 5351 5359 5367 5365 5378 5377 5374 5370 5372 5363 5359 5366 5369 5363 5340 5338 5321 5314 5307 5303 5289 5292 5291 5291 5291 5284 5268 5258 5241 5238 5227 5216 5194 5194 5186 5185 5177 5173 5169 5165 5158 5141 5110 5116 5101 5094 5109 5101 5097 5097 5089 5095 5096 5090 5093 5090 5092 5093 5092 5093 5094 5092 5088 5085 5069 5066 5049 5055 5044 5036 5043 5046 5044 5034 5020 5026 5010 5000 4986 4987 4970 4960 4945 4961 4961 4962 4990 5001 5029 5036 5050 5046 5063 5065 5068 5069 5074 5071 5071 5082 5083 5090 5097 5093 5106 5115 5141 5135 5151 5171 5198 5197 5225 5231 5249 5240 5252 5254 5227 5236 5224 5215 5219 5211 5209 5197 5163 5159 5136 5126 5121 5119 5100 5097 5087 5075 5046 5039 5031 5033 5033 5025 5038 5031 5028 5024 5015 5012 5004 5004 5008 5001 4999 5002 5006 5001 4996 5002 5012 5008 5009 5022 5022 5017 5011 5005 4979 4981 4961 4950 4942 4945 4934 4930 4933 4922 4913 4904 4882 4881 4861 4853 4847 4859 4875 4869 4879 4884 4896 4901 4912 4910 4920 4922 4917 4926 4936 4929 4936 4926 4915 4919 4913 4920 4919 4922 4940 4931 4937 4938 4941 4946 4955 4964 4957 4961 4956 4951 4955 4962 4974 4969 4953 4958 4959 4958 4954 4948 4937 4936 4917 4910 4882 4872 4853 4846 4821 4808 4793 4786 4765 4754 4726 4728 4697 4694 4685 4674 4654 4635 4603 4594 4558 4541 4508 4506 4468 4462 4438 4436 4413 4391 4378 4378 4360 4361 4350 4352 4347 4334 4318 4312 4295 4289 4288 4288 4279 4286 4301 4298 4297 4299 4307 4295 4293 4301 4293 4293 4291 4299 4305 4312
4358 4347 4331 4335 4336 4333 4345 4348 4348 4352 4354 4353 4345 4358 4363 4359 4358 4362 4366 4366 4373 4378 4384 4382 4386 4380 4368 4365 4353 4341 4323 4335 4358 4357 4362 4343 4325 4315 4303 4309 4315 4308 4308 4295 4295 4291 4281 4283 4294 4294 4299 4311 4306 4337 4349 4357 4359 4387 4410 4427 4441 4484 4526 4528 4524 4551 4567 4569 4576 4589 4601 4616 4628 4644 4655 4676 4691 4728 4761 4760 4764 4787 4812 4824 4834 4850 4864 4850 4843 4838 4826 4834 4840 4827 4813 4839 4869 4894 4924 4936 4936 4977 5008 5005 4995 5036 5067 5076 5083 5102 5117 5117 5116 5130 5145 5136 5146 5137 5135 5137 5137 5133 5129 5131 5125 5126 5117 5123 5129 5115 5104 5116 5116 5119 5123 5133 5137 5135 5138 5134 5132 5138 5154 5160 5167 5184 5208 5208 5197 5225 5241 5249 5256 5277 5300 5292 5287 5289 5288 5286 5287 5293 5293 5293 5294 5332 5370 5368 5364 5387 5408 5408 5414 5421 5424 5416 5397 5402 5390 5396 5404 5407 5414 5412 5416 5407 5404 5383 5367 5361 5358 5357 5356 5353 5351 5331 5328 5319 5311 5311 5316 5314 5309 5304 5312 5331 5355 5338 5321 5326 5322 5329 5343 5345 5346 5341 5339 5345 5344 5350 5360 5357 5371 5364 5358 5366 5375 5371 5372 5370 5368 5369 5373 5377 5380 5363 5366 5345 5341 5328 5326 5316 5316 5309 5309 5309 5312 5288 5277 5259 5248 5244 5238 5219 5212 5206 5203 5192 5194 5183 5179 5164 5150 5132 5132 5113 5098 5101 5092 5096 5091 5096 5101 5106 5099 5099 5097 5109 5126 5111 5104 5103 5097 5098 5099 5087 5078 5069 5067 5050 5033 5045 5049 5043 5032 5041 5050 5034 5029 5011 5007 4987 4969 4979 4994 4993 4993 5003 5003 5032 5055 5042 5027 5047 5059 5067 5074 5071 5062 5074 5090 5088 5103 5088 5080 5093 5102 5118 5119 5136 5156 5174 5186 5201 5214 5211 5199 5209 5214 5210 5222 5201 5184 5191 5194 5182 5172 5151 5145 5125 5109 5121 5137 5116 5114 5090 5075 5044 5013 5027 5037 5029 5018 5028 5026 5021 5013 5011 5002 4995 4988 4989 4987 4985 4989 4994 4996 4997 4999 4999 4991 5005 5022 5015 5018 5006 4999 4990 4989 4964 4937 4946 4947 4937 4926 4921 4906 4899 4889 4886 4888 4866 4846 4851 4860 4866 4862 4874 4879 4896 4908 4906 4903 4916 4922 4924 4928 4938 4953 4937 4917 4917 4911 4918 4923 4928 4941 4940 4927 4938 4939 4942 4941 4956 4978 4966 4969 4959 4946 4954 4962 4964 4964 4958 4966 4961 4960 4958 4949 4942 4934 4929 4934 4909 4898 4879 4872 4840 4815 4806 4795 4779 4760 4751 4754 4722 4706 4695 4685 4661 4639 4616 4602 4570 4543 4524 4517 4490 4468 4455 4448 4416 4380 4379 4379 4359 4348 4347 4351 4343 4334 4312 4301 4283 4268 4277 4278 4273 4268 4285 4292 4289 4281 4280 4274 4275 4284 4276 4277 4272 4272 4281 4284
4345 4337 4335 4326 4313 4310 4322 4335 4343 4351 4342 4339 4342 4350 4342 4337 4341 4342 4344 4354 4353 4372 4376 4385 4386 4382 4379 4368 4353 4339 4343 4338 4346 4363 4360 4347 4350 4328 4332 4324 4316 4310 4313 4306 4315 4318 4315 4314 4319 4334 4335 4352 4356 4363 4355 4367 4371 4392 4402 4433 4446 4481 4483 4512 4519 4540 4538 4551 4566 4588 4602 4627 4636 4656 4661 4681 4700 4735 4735 4757 4772 4793 4804 4841 4846 4867 4857 4855 4850 4841 4844 4840 4837 4840 4852 4862 4881 4919 4938 4981 4990 5007 4998 5014 5017 5030 5042 5072 5085 5102 5089 5095 5094 5094 5097 5103 5109 5113 5121 5128 5123 5123 5124 5119 5117 5115 5119 5125 5116 5113 5116 5116 5111 5120 5129 5145 5139 5135 5138 5138 5141 5151 5161 5185 5186 5198 5207 5227 5235 5242 5243 5265 5263 5285 5280 5290 5299 5293 5296 5293 5302 5309 5300 5300 5308 5332 5337 5365 5370 5377 5388 5412 5417 5421 5419 5419 5412 5403 5395 5392 5393 5405 5411 5421 5423 5421 5402 5377 5371 5361 5356 5350 5347 5341 5331 5310 5311 5310 5309 5304 5305 5308 5298 5290 5301 5315 5315 5331 5329 5318 5319 5323 5325 5342 5339 5338 5348 5343 5345 5344 5346 5349 5354 5361 5355 5353 5354 5363 5367 5369 5372 5376 5381 5389 5378 5369 5371 5354 5355 5339 5343 5333 5328 5323 5325 5327 5313 5297 5298 5271 5272 5263 5250 5233 5230 5223 5213 5197 5198 5190 5185 5171 5164 5138 5136 5122 5120 5105 5104 5104 5107 5105 5115 5128 5121 5109 5113 5122 5121 5125 5124 5117 5116 5108 5109 5102 5097 5084 5076 5057 5064 5058 5053 5049 5058 5063 5052 5047 5041 5025 5019 5003 5009 5010 5016 5027 5028 5029 5031 5043 5035 5038 5037 5041 5050 5067 5077 5077 5074 5076 5075 5079 5078 5073 5082 5084 5089 5111 5110 5120 5132 5159 5164 5179 5175 5182 5175 5172 5173 5178 5175 5177 5176 5167 5165 5155 5151 5126 5124 5112 5121 5119 5124 5116 5108 5084 5073 5044 5045 5027 5023 5030 5027 5030 5024 5020 5018 5014 5002 4987 4981 4974 4971 4968 4978 4985 4988 4998 4993 4995 4992 5001 4994 5001 5000 4999 5002 4994 4988 4969 4969 4960 4951 4943 4937 4921 4905 4891 4892 4887 4883 4871 4870 4853 4860 4868 4870 4876 4881 4901 4895 4901 4913 4919 4919 4929 4932 4938 4943 4944 4942 4928 4928 4927 4925 4929 4939 4955 4954 4950 4947 4947 4945 4951 4949 4961 4964 4965 4962 4956 4954 4958 4954 4949 4956 4961 4965 4970 4963 4949 4942 4931 4934 4925 4918 4894 4883 4855 4849 4823 4817 4796 4787 4765 4760 4734 4730 4707 4689 4666 4651 4621 4612 4579 4568 4530 4528 4508 4494 4468 4458 4426 4415 4382 4368 4349 4351 4342 4341 4342 4326 4296 4291 4271 4275 4275 4271 4270 4273 4279 4281 4287 4273 4258 4261 4252 4252 4252 4251 4251 4257 4263 4268
4340 4328 4319 4309 4287 4300 4307 4322 4342 4334 4330 4328 4327 4337 4336 4331 4323 4327 4324 4331 4323 4355 4376 4381 4395 4388 4382 4366 4338 4344 4345 4352 4360 4365 4372 4364 4364 4355 4353 4340 4328 4327 4323 4325 4331 4333 4333 4338 4349 4353 4362 4378 4412 4388 4386 4382 4376 4402 4424 4439 4460 4480 4499 4506 4500 4522 4538 4551 4558 4594 4620 4639 4660 4671 4682 4702 4731 4745 4760 4769 4778 4803 4821 4842 4865 4869 4873 4863 4840 4853 4855 4851 4842 4859 4867 4894 4932 4953 4985 5009 5048 5031 5036 5030 5019 5045 5071 5081 5100 5086 5079 5075 5070 5074 5078 5079 5075 5094 5099 5110 5109 5114 5117 5113 5106 5108 5113 5115 5112 5110 5108 5111 5107 5126 5136 5147 5154 5148 5144 5145 5140 5160 5179 5194 5210 5218 5239 5248 5265 5262 5268 5270 5264 5282 5290 5297 5315 5309 5314 5313 5318 5311 5307 5305 5307 5336 5358 5366 5369 5382 5401 5411 5427 5418 5422 5413 5404 5398 5391 5390 5385 5404 5417 5428 5438 5419 5396 5374 5342 5351 5347 5342 5341 5330 5318 5301 5276 5293 5295 5298 5297 5291 5279 5281 5292 5298 5302 5313 5315 5314 5315 5317 5314 5328 5334 5345 5367 5356 5354 5349 5350 5349 5348 5346 5337 5345 5344 5351 5362 5369 5374 5378 5391 5384 5381 5371 5381 5363 5362 5350 5359 5342 5331 5331 5337 5325 5320 5311 5314 5289 5279 5268 5256 5244 5226 5226 5222 5211 5204 5196 5186 5178 5170 5154 5134 5132 5124 5118 5109 5117 5127 5127 5136 5142 5147 5137 5125 5134 5142 5137 5130 5131 5137 5133 5131 5118 5103 5097 5088 5081 5075 5075 5075 5070 5074 5069 5067 5054 5044 5036 5021 5019 5017 5033 5060 5056 5063 5057 5060 5056 5056 5039 5014 5044 5065 5078 5105 5078 5069 5074 5085 5075 5070 5066 5071 5076 5084 5095 5108 5117 5132 5141 5162 5153 5154 5145 5132 5138 5143 5145 5134 5144 5138 5148 5155 5139 5132 5113 5087 5105 5110 5127 5152 5122 5096 5079 5052 5048 5036 5024 5022 5018 5014 5021 5031 5017 5012 5008 4997 4979 4964 4965 4957 4965 4973 4974 4982 4980 4985 4980 4976 4983 4985 4986 4981 4991 4999 4993 4991 4971 4960 4958 4964 4948 4937 4915 4883 4891 4887 4886 4885 4875 4868 4866 4873 4874 4878 4879 4886 4891 4899 4908 4926 4925 4925 4933 4941 4950 4963 4954 4945 4944 4942 4940 4935 4944 4951 4959 4970 4965 4964 4954 4944 4946 4944 4948 4954 4957 4960 4956 4959 4954 4948 4950 4953 4961 4966 4966 4974 4954 4940 4942 4949 4931 4922 4900 4886 4861 4848 4834 4834 4809 4795 4785 4783 4750 4728 4705 4677 4659 4634 4622 4612 4582 4562 4539 4532 4505 4484 4471 4472 4434 4405 4386 4364 4346 4337 4334 4335 4330 4318 4294 4263 4261 4253 4259 4271 4266 4266 4269 4290 4267 4255 4253 4254 4239 4230 4230 4218 4233 4239 4250 4257
4317 4318 4313 4307 4306 4296 4293 4305 4303 4314 4318 4319 4326 4337 4331 4328 4326 4321 4322 4325 4333 4350 4352 4368 4375 4393 4390 4376 4375 4357 4355 4365 4359 4366 4376 4376 4380 4375 4370 4355 4360 4348 4344 4343 4344 4350 4352 4356 4357 4368 4374 4388 4382 4391 4402 4399 4407 4419 4421 4442 4453 4483 4491 4513 4509 4512 4525 4558 4570 4612 4621 4651 4655 4688 4695 4717 4723 4757 4768 4784 4791 4823 4827 4843 4847 4871 4878 4886 4885 4878 4875 4870 4880 4890 4890 4916 4928 4977 4992 5022 5014 5035 5052 5053 5059 5061 5065 5082 5069 5066 5063 5057 5052 5055 5052 5061 5074 5089 5095 5107 5105 5107 5113 5110 5104 5099 5100 5110 5107 5107 5111 5114 5124 5142 5141 5155 5155 5161 5163 5161 5166 5172 5182 5203 5204 5225 5234 5261 5261 5276 5274 5283 5284 5291 5283 5295 5297 5314 5324 5330 5318 5313 5312 5308 5326 5348 5354 5375 5374 5381 5389 5404 5398 5402 5410 5408 5407 5396 5394 5393 5401 5411 5416 5437 5427 5424 5419 5383 5382 5357 5344 5331 5330 5321 5317 5301 5305 5294 5291 5297 5285 5282 5274 5266 5276 5286 5290 5305 5302 5309 5313 5317 5320 5322 5331 5344 5350 5360 5358 5350 5348 5351 5344 5339 5342 5346 5339 5338 5349 5372 5371 5374 5369 5375 5365 5354 5359 5356 5354 5343 5349 5345 5346 5335 5328 5318 5322 5316 5310 5293 5295 5274 5277 5264 5250 5234 5230 5221 5216 5206 5203 5188 5182 5175 5169 5150 5144 5134 5133 5130 5130 5142 5148 5160 5165 5169 5160 5150 5154 5151 5152 5142 5147 5158 5151 5138 5133 5116 5112 5106 5098 5094 5085 5082 5080 5075 5069 5060 5060 5054 5049 5037 5039 5048 5051 5074 5080 5078 5072 5065 5060 5051 5059 5059 5059 5078 5066 5064 5073 5068 5066 5067 5064 5052 5058 5065 5068 5078 5084 5110 5108 5111 5110 5118 5118 5115 5118 5108 5114 5125 5124 5129 5127 5134 5122 5117 5115 5108 5113 5114 5113 5127 5120 5124 5115 5085 5083 5060 5038 5014 5014 5006 5006 5010 5010 5007 5014 5011 4996 4968 4969 4966 4964 4964 4960 4956 4956 4956 4964 4967 4969 4970 4971 4977 4982 4988 4987 4988 4980 4967 4963 4948 4951 4948 4944 4922 4922 4904 4891 4886 4883 4876 4875 4870 4872 4879 4873 4879 4873 4879 4887 4908 4910 4932 4935 4939 4942 4958 4962 4967 4967 4961 4960 4956 4957 4962 4955 4962 4964 4976 4969 4961 4959 4947 4939 4935 4942 4951 4951 4950 4956 4954 4953 4952 4955 4964 4955 4957 4955 4956 4954 4951 4942 4929 4925 4898 4891 4855 4850 4833 4830 4814 4812 4797 4789 4758 4749 4710 4705 4660 4649 4621 4607 4576 4563 4534 4527 4499 4489 4460 4457 4433 4426 4394 4375 4335 4331 4323 4325 4327 4317 4299 4288 4259 4251 4240 4243 4257 4252 4244 4241 4239 4251 4246 4234 4223 4223 4220 4221 4227 4225 4243 4244
4295 4294 4287 4295 4304 4290 4286 4287 4287 4297 4298 4313 4321 4324 4333 4322 4321 4314 4319 4325 4334 4350 4370 4369 4365 4384 4398 4386 4386 4367 4360 4363 4363 4379 4404 4395 4399 4392 4387 4379 4387 4369 4357 4359 4363 4365 4374 4371 4371 4383 4391 4393 4390 4401 4409 4414 4426 4437 4450 4459 4466 4487 4510 4514 4513 4523 4530 4558 4575 4620 4664 4663 4661 4692 4717 4726 4738 4770 4802 4797 4799 4830 4864 4856 4855 4877 4893 4897 4906 4901 4913 4905 4905 4912 4914 4936 4954 4998 5039 5029 5017 5047 5072 5074 5087 5087 5099 5078 5058 5045 5029 5029 5019 5025 5022 5048 5071 5087 5112 5107 5108 5113 5126 5105 5091 5089 5087 5101 5098 5104 5112 5120 5132 5146 5161 5164 5171 5173 5176 5176 5187 5198 5215 5217 5210 5232 5243 5263 5268 5275 5272 5287 5297 5296 5284 5292 5292 5312 5338 5326 5318 5313 5312 5321 5341 5361 5389 5385 5384 5393 5403 5402 5388 5399 5403 5405 5405 5395 5386 5399 5410 5417 5434 5433 5430 5429 5433 5402 5394 5368 5348 5332 5321 5313 5305 5301 5307 5297 5299 5283 5268 5262 5252 5264 5274 5272 5278 5290 5295 5304 5311 5322 5329 5335 5344 5357 5364 5363 5357 5348 5340 5339 5336 5332 5336 5338 5336 5335 5343 5359 5378 5363 5356 5354 5342 5348 5347 5345 5337 5342 5346 5342 5345 5331 5330 5318 5319 5315 5313 5299 5301 5291 5293 5267 5249 5247 5241 5228 5217 5215 5217 5197 5180 5181 5184 5168 5158 5150 5145 5146 5142 5157 5164 5179 5196 5184 5177 5180 5190 5181 5174 5171 5160 5169 5173 5160 5148 5136 5126 5117 5106 5098 5090 5087 5091 5079 5069 5067 5060 5062 5061 5052 5051 5060 5067 5089 5109 5092 5083 5073 5064 5065 5072 5074 5085 5074 5058 5061 5058 5059 5061 5056 5053 5048 5048 5050 5058 5058 5064 5083 5105 5091 5080 5086 5078 5090 5096 5093 5094 5096 5099 5109 5113 5114 5101 5098 5082 5096 5101 5111 5127 5123 5119 5112 5099 5088 5093 5058 5028 5011 5003 4997 4988 5002 5009 5010 5009 5003 4995 4972 4948 4955 4963 4960 4965 4948 4939 4945 4951 4956 4957 4957 4962 4969 4980 4985 4994 4978 4968 4961 4949 4945 4951 4945 4943 4926 4926 4904 4891 4889 4883 4877 4870 4870 4871 4867 4862 4864 4858 4868 4876 4898 4902 4927 4943 4943 4947 4964 4983 4978 4978 4974 4979 4969 4970 4966 4961 4963 4969 4971 4971 4964 4967 4951 4933 4940 4941 4950 4952 4953 4961 4954 4948 4955 4959 4956 4947 4951 4944 4947 4935 4946 4951 4931 4926 4903 4892 4858 4827 4824 4825 4814 4804 4806 4808 4770 4748 4723 4722 4670 4640 4616 4600 4564 4530 4523 4515 4489 4465 4456 4451 4422 4407 4382 4369 4333 4304 4311 4316 4314 4308 4292 4276 4257 4244 4232 4225 4232 4236 4224 4216 4221 4229 4220 4215 4201 4196 4201 4207 4209 4212 4223 4232
4284 4276 4281 4283 4279 4276 4282 4273 4281 4289 4296 4314 4307 4307 4307 4306 4303 4298 4313 4322 4328 4348 4355 4375 4383 4383 4375 4385 4377 4366 4369 4366 4374 4385 4384 4401 4406 4408 4398 4388 4392 4386 4384 4375 4375 4376 4382 4385 4396 4403 4402 4405 4414 4417 4414 4424 4431 4455 4460 4481 4480 4490 4499 4523 4523 4540 4546 4569 4591 4630 4639 4676 4687 4704 4707 4732 4751 4784 4780 4806 4819 4837 4838 4864 4876 4891 4888 4905 4907 4909 4919 4933 4935 4939 4946 4960 4980 5025 5018 5041 5051 5065 5062 5085 5097 5103 5090 5076 5064 5029 5027 5012 5001 5005 5021 5040 5046 5076 5081 5103 5112 5112 5102 5096 5094 5080 5095 5109 5104 5102 5109 5125 5133 5151 5155 5169 5181 5187 5183 5182 5195 5220 5223 5243 5246 5250 5254 5283 5282 5285 5292 5298 5305 5314 5304 5299 5301 5307 5308 5320 5319 5310 5321 5325 5337 5367 5373 5393 5406 5404 5405 5413 5407 5403 5403 5407 5402 5395 5405 5407 5406 5415 5423 5433 5441 5429 5420 5401 5399 5375 5367 5331 5326 5305 5305 5292 5292 5289 5284 5270 5266 5249 5260 5264 5252 5253 5266 5282 5283 5304 5310 5332 5334 5346 5354 5379 5377 5373 5361 5347 5342 5331 5326 5320 5328 5334 5325 5326 5332 5345 5343 5346 5352 5343 5345 5351 5347 5343 5343 5344 5342 5334 5330 5317 5316 5305 5313 5315 5304 5290 5296 5297 5284 5264 5273 5267 5257 5236 5235 5223 5215 5204 5203 5187 5182 5182 5176 5164 5166 5167 5166 5180 5181 5196 5192 5194 5203 5203 5204 5211 5217 5211 5198 5186 5188 5184 5176 5155 5147 5132 5127 5105 5102 5088 5089 5084 5084 5080 5075 5075 5066 5060 5072 5075 5088 5108 5095 5099 5097 5082 5080 5075 5075 5080 5077 5075 5075 5067 5055 5049 5045 5044 5044 5040 5038 5032 5035 5035 5043 5055 5062 5069 5076 5070 5070 5071 5069 5075 5074 5069 5079 5098 5099 5111 5106 5093 5092 5093 5088 5103 5108 5121 5122 5109 5098 5077 5072 5051 5041 5000 4999 4991 4998 5002 5006 5017 5006 4999 4994 4979 4966 4943 4945 4948 4942 4935 4937 4934 4938 4951 4943 4940 4949 4960 4964 4978 4968 4965 4967 4960 4950 4933 4936 4941 4931 4915 4915 4896 4903 4897 4889 4879 4876 4870 4865 4856 4860 4857 4850 4860 4877 4907 4912 4932 4931 4944 4956 4969 4970 4987 4982 4978 4976 4972 4971 4973 4967 4960 4966 4969 4964 4957 4962 4959 4963 4954 4953 4957 4954 4952 4955 4956 4958 4961 4953 4954 4957 4956 4958 4955 4946 4948 4935 4920 4916 4896 4887 4860 4846 4814 4817 4813 4816 4817 4801 4768 4756 4714 4702 4660 4652 4604 4587 4552 4548 4514 4502 4477 4470 4448 4428 4398 4393 4358 4353 4325 4325 4303 4301 4308 4299 4288 4274 4250 4244 4222 4217 4211 4207 4202 4201 4203 4195 4190 4184 4172 4183 4183 4184 4191 4196 4207 4214
4282 4276 4273 4273 4271 4273 4275 4272 4277 4288 4295 4303 4312 4300 4297 4290 4275 4294 4312 4316 4326 4342 4363 4375 4404 4379 4367 4368 4359 4360 4359 4369 4385 4383 4389 4400 4414 4409 4400 4402 4410 4397 4390 4390 4393 4400 4407 4412 4423 4421 4430 4433 4444 4433 4427 4436 4436 4463 4479 4493 4499 4505 4519 4525 4520 4546 4565 4594 4638 4651 4675 4687 4707 4712 4732 4746 4773 4782 4793 4808 4833 4842 4855 4871 4885 4890 4901 4908 4921 4923 4929 4946 4956 4964 4983 4994 5024 5035 5052 5049 5059 5066 5083 5095 5130 5106 5096 5073 5053 5030 5010 4997 4960 4999 5020 5034 5048 5064 5074 5091 5121 5100 5093 5084 5075 5083 5101 5104 5119 5109 5112 5125 5144 5152 5168 5179 5209 5193 5193 5193 5204 5222 5242 5250 5276 5264 5273 5289 5317 5311 5318 5321 5338 5321 5308 5310 5315 5312 5315 5315 5310 5320 5332 5340 5347 5368 5392 5409 5440 5423 5421 5415 5409 5415 5414 5413 5406 5410 5416 5415 5416 5423 5435 5442 5468 5434 5420 5401 5390 5380 5368 5344 5321 5311 5305 5296 5283 5277 5270 5259 5246 5255 5262 5256 5239 5247 5256 5266 5269 5293 5309 5327 5347 5346 5364 5378 5412 5375 5361 5345 5333 5324 5316 5318 5325 5317 5307 5313 5321 5330 5340 5337 5342 5333 5333 5337 5352 5338 5339 5341 5354 5333 5326 5312 5300 5301 5303 5296 5295 5284 5285 5281 5277 5269 5271 5269 5276 5253 5242 5230 5218 5214 5204 5195 5182 5184 5175 5177 5178 5176 5174 5185 5209 5205 5217 5210 5219 5217 5226 5232 5256 5234 5223 5216 5222 5205 5193 5175 5153 5152 5146 5127 5110 5106 5096 5091 5083 5087 5079 5079 5069 5076 5093 5097 5121 5108 5106 5100 5100 5085 5082 5078 5082 5079 5084 5075 5076 5061 5047 5039 5031 5031 5032 5030 5028 5025 5027 5028 5025 5044 5060 5059 5063 5063 5059 5060 5053 5057 5057 5058 5058 5075 5091 5097 5108 5091 5084 5082 5074 5093 5110 5118 5131 5107 5088 5076 5062 5045 5023 5003 4979 4994 4997 5003 5017 5007 5002 4992 4992 4970 4950 4940 4943 4932 4923 4916 4915 4924 4931 4937 4933 4937 4942 4949 4958 4953 4949 4948 4951 4944 4942 4932 4922 4922 4919 4910 4907 4897 4894 4891 4890 4880 4875 4871 4867 4862 4856 4846 4823 4857 4884 4906 4936 4938 4949 4955 4970 4969 4978 4981 4980 4979 4977 4974 4963 4967 4966 4966 4977 4971 4961 4962 4964 4970 4975 4969 4968 4965 4968 4961 4961 4958 4955 4954 4951 4957 4961 4964 4975 4952 4937 4940 4939 4916 4898 4881 4869 4849 4821 4818 4817 4810 4809 4811 4816 4767 4735 4708 4686 4656 4625 4598 4553 4549 4526 4509 4487 4467 4441 4429 4403 4386 4365 4345 4325 4315 4303 4298 4289 4294 4287 4274 4252 4242 4230 4215 4191 4197 4193 4183 4163 4175 4172 4168 4146 4156 4163 4167 4169 4175 4179 4193 4205
4272 4275 4269 4267 4263 4271 4267 4263 4274 4291 4288 4293 4286 4287 4287 4282 4290 4293 4292 4306 4310 4333 4335 4358 4349 4364 4367 4361 4358 4357 4354 4369 4368 4374 4385 4397 4400 4417 4416 4410 4405 4403 4405 4404 4412 4425 4423 4436 4429 4431 4442 4455 4445 4444 4450 4459 4464 4484 4492 4516 4508 4514 4525 4541 4549 4559 4572 4604 4617 4661 4671 4692 4692 4708 4724 4750 4756 4781 4788 4803 4816 4846 4858 4882 4876 4885 4895 4907 4919 4936 4946 4968 4968 4978 4987 5009 5013 5039 5041 5047 5053 5059 5069 5085 5079 5095 5090 5068 5062 5029 5030 5006 5021 5013 5013 5031 5037 5060 5056 5069 5062 5074 5080 5074 5080 5078 5083 5088 5091 5103 5113 5122 5126 5148 5155 5171 5168 5184 5193 5195 5202 5222 5227 5239 5241 5258 5268 5284 5293 5326 5330 5333 5327 5327 5328 5319 5315 5312 5310 5318 5320 5330 5340 5359 5355 5366 5379 5411 5405 5429 5430 5418 5429 5434 5426 5426 5427 5423 5419 5422 5424 5426 5425 5434 5425 5422 5418 5394 5402 5387 5379 5357 5350 5316 5314 5306 5293 5267 5264 5253 5266 5265 5262 5260 5255 5240 5244 5258 5268 5290 5297 5320 5318 5329 5339 5358 5353 5355 5362 5339 5341 5317 5316 5313 5310 5305 5302 5298 5302 5317 5312 5323 5317 5316 5317 5312 5315 5318 5328 5327 5321 5321 5321 5306 5305 5298 5284 5272 5274 5268 5266 5266 5270 5266 5265 5264 5262 5258 5257 5239 5238 5233 5224 5210 5207 5197 5196 5191 5187 5187 5178 5178 5186 5200 5208 5211 5219 5220 5228 5235 5240 5247 5248 5233 5235 5224 5224 5200 5201 5179 5166 5150 5147 5133 5120 5104 5110 5108 5098 5096 5089 5082 5088 5102 5097 5097 5103 5097 5092 5079 5084 5075 5078 5070 5070 5067 5063 5056 5054 5032 5031 5019 5014 5021 5019 5016 5017 5027 5029 5039 5039 5046 5053 5060 5055 5057 5050 5043 5041 5048 5046 5056 5061 5079 5079 5082 5084 5077 5081 5085 5094 5111 5104 5102 5102 5080 5072 5045 5035 5013 5019 5011 4998 4996 4995 4993 4994 4976 4973 4961 4949 4927 4922 4916 4905 4893 4907 4917 4922 4933 4926 4933 4930 4939 4929 4928 4935 4930 4932 4925 4931 4933 4926 4908 4909 4902 4898 4892 4885 4886 4882 4878 4879 4874 4874 4869 4856 4850 4863 4864 4872 4899 4906 4935 4944 4959 4951 4959 4972 4981 4982 4983 4984 4986 4978 4969 4964 4962 4970 4977 4971 4969 4975 4983 4983 4982 4976 4969 4965 4964 4965 4961 4958 4952 4961 4964 4963 4966 4956 4942 4946 4937 4922 4908 4892 4864 4868 4847 4836 4822 4814 4802 4805 4803 4779 4749 4739 4700 4695 4656 4652 4613 4607 4567 4541 4510 4497 4465 4455 4426 4416 4378 4359 4333 4331 4310 4307 4298 4300 4295 4288 4269 4266 4239 4236 4218 4215 4196 4187 4177 4176 4164 4160 4164 4159 4143 4146 4155 4157 4164 4169 4181 4188
4261 4259 4252 4249 4243 4254 4266 4263 4269 4281 4294 4286 4271 4274 4269 4281 4289 4289 4296 4294 4291 4310 4323 4324 4312 4333 4341 4344 4347 4341 4333 4357 4370 4377 4386 4395 4399 4413 4423 4410 4410 4405 4403 4419 4431 4436 4440 4443 4442 4450 4462 4462 4453 4455 4453 4475 4488 4508 4533 4533 4524 4540 4549 4565 4579 4594 4607 4631 4639 4673 4693 4699 4696 4716 4732 4754 4764 4786 4796 4813 4824 4852 4873 4881 4883 4894 4905 4920 4934 4948 4960 4982 4998 5004 5008 5020 5024 5046 5056 5054 5055 5063 5074 5069 5053 5069 5070 5060 5056 5041 5032 5038 5056 5048 5050 5048 5039 5054 5049 5046 5034 5048 5051 5065 5078 5079 5091 5081 5075 5092 5108 5115 5124 5140 5159 5154 5149 5172 5186 5189 5199 5220 5243 5235 5228 5245 5257 5281 5292 5320 5345 5333 5332 5329 5330 5326 5324 5315 5297 5312 5318 5338 5362 5364 5365 5378 5393 5397 5390 5418 5433 5435 5443 5440 5438 5443 5446 5437 5427 5434 5432 5433 5424 5419 5409 5405 5391 5397 5409 5390 5382 5365 5360 5330 5313 5303 5294 5275 5253 5266 5276 5276 5279 5267 5260 5246 5239 5261 5271 5294 5311 5313 5316 5323 5322 5332 5335 5338 5345 5339 5350 5322 5304 5307 5308 5295 5280 5281 5287 5288 5288 5294 5292 5298 5298 5295 5298 5300 5316 5306 5300 5303 5306 5292 5293 5277 5266 5260 5256 5248 5237 5251 5266 5256 5253 5257 5257 5252 5257 5244 5241 5234 5238 5225 5217 5214 5217 5202 5196 5182 5170 5182 5192 5204 5214 5224 5229 5238 5240 5246 5253 5254 5257 5256 5262 5251 5252 5235 5235 5207 5185 5170 5159 5147 5135 5131 5134 5116 5105 5102 5100 5097 5099 5100 5097 5093 5097 5089 5086 5080 5082 5078 5086 5070 5063 5055 5048 5047 5055 5035 5028 5005 4986 5001 5009 5004 5000 5016 5025 5036 5047 5048 5047 5047 5042 5042 5042 5032 5023 5027 5025 5038 5053 5063 5064 5069 5072 5077 5081 5088 5109 5103 5094 5097 5095 5078 5075 5044 5023 5021 5030 5014 5007 4995 4995 4987 4991 4963 4953 4934 4917 4908 4898 4888 4871 4884 4896 4908 4926 4917 4910 4914 4917 4915 4910 4914 4927 4925 4925 4919 4915 4919 4922 4905 4904 4889 4879 4871 4856 4865 4873 4872 4874 4875 4880 4866 4841 4860 4882 4886 4902 4907 4908 4931 4948 4949 4940 4960 4980 4983 4988 4987 4989 4990 4983 4978 4964 4972 4975 4973 4964 4975 4987 4993 5006 4991 4981 4969 4961 4966 4969 4968 4961 4963 4976 4970 4971 4963 4958 4940 4932 4921 4908 4889 4858 4863 4863 4836 4806 4811 4814 4801 4800 4777 4757 4727 4691 4687 4691 4663 4654 4632 4623 4579 4537 4511 4490 4465 4443 4426 4419 4371 4325 4318 4317 4299 4296 4297 4304 4298 4300 4280 4272 4248 4235 4220 4218 4197 4185 4172 4170 4159 4151 4156 4157 4145 4141 4143 4147 4153 4163 4171 4179
4253 4250 4246 4235 4233 4238 4243 4255 4260 4272 4276 4287 4282 4272 4275 4285 4278 4278 4282 4284 4286 4294 4295 4304 4308 4315 4318 4329 4327 4327 4344 4356 4360 4378 4383 4401 4401 4414 4403 4400 4408 4407 4425 4438 4441 4451 4449 4454 4459 4468 4470 4478 4479 4471 4482 4500 4501 4528 4536 4559 4561 4574 4576 4593 4601 4633 4643 4675 4679 4699 4696 4718 4716 4730 4742 4772 4783 4806 4810 4829 4836 4866 4865 4889 4897 4906 4918 4935 4948 4965 4978 5002 5016 5033 5032 5041 5048 5068 5059 5058 5061 5064 5061 5066 5060 5060 5051 5049 5048 5049 5053 5058 5064 5075 5069 5073 5073 5071 5052 5034 5034 5033 5037 5059 5057 5069 5068 5070 5075 5082 5088 5108 5114 5131 5131 5137 5151 5170 5168 5179 5193 5218 5214 5230 5229 5237 5253 5291 5297 5317 5309 5322 5325 5328 5326 5332 5330 5327 5323 5317 5322 5344 5350 5372 5380 5391 5390 5395 5408 5423 5427 5446 5447 5448 5451 5462 5458 5454 5455 5457 5451 5450 5433 5411 5409 5399 5399 5397 5384 5385 5377 5362 5358 5334 5325 5301 5298 5288 5287 5283 5278 5287 5277 5272 5261 5246 5264 5278 5279 5304 5297 5308 5319 5327 5316 5315 5313 5318 5318 5325 5324 5320 5314 5303 5294 5289 5277 5261 5265 5262 5268 5273 5278 5288 5281 5275 5269 5269 5277 5283 5285 5286 5275 5266 5268 5253 5258 5246 5242 5234 5236 5235 5241 5242 5248 5254 5247 5239 5241 5239 5237 5226 5233 5236 5232 5228 5217 5204 5195 5177 5188 5190 5195 5213 5221 5242 5251 5265 5257 5258 5255 5259 5262 5275 5271 5268 5264 5253 5246 5229 5216 5188 5182 5162 5159 5154 5140 5118 5117 5107 5109 5109 5100 5103 5095 5084 5085 5077 5080 5073 5077 5071 5071 5063 5056 5042 5040 5032 5028 5028 5017 4990 4998 4991 4988 4991 5003 5012 5017 5034 5037 5052 5054 5040 5036 5030 5025 5020 5020 5014 5015 5021 5035 5057 5053 5060 5066 5079 5074 5080 5089 5100 5102 5098 5082 5065 5054 5036 5038 5019 5020 5008 5005 4985 4983 4971 4956 4932 4929 4907 4904 4890 4880 4869 4876 4876 4879 4894 4892 4900 4902 4899 4897 4894 4891 4891 4904 4920 4915 4912 4913 4907 4898 4886 4886 4871 4867 4858 4853 4846 4856 4866 4868 4875 4877 4874 4869 4867 4873 4898 4905 4922 4929 4933 4935 4949 4946 4961 4962 4986 4984 4990 4996 5002 4997 4996 4992 4988 4985 4979 4983 4980 4986 4998 4994 4995 4990 4968 4972 4971 4975 4981 4972 4965 4969 4971 4966 4958 4951 4931 4929 4907 4898 4884 4882 4868 4852 4831 4825 4802 4787 4789 4778 4751 4746 4713 4705 4668 4662 4654 4654 4639 4632 4589 4568 4510 4492 4462 4448 4419 4403 4362 4348 4300 4286 4274 4289 4292 4294 4294 4288 4279 4273 4247 4235 4209 4209 4191 4182 4159 4154 4152 4153 4154 4147 4142 4140 4131 4130 4140 4148 4163 4170
4249 4243 4239 4223 4207 4224 4238 4240 4248 4262 4277 4277 4276 4276 4272 4279 4280 4278 4280 4275 4272 4287 4293 4293 4291 4309 4319 4320 4311 4328 4349 4357 4373 4380 4385 4395 4404 4404 4399 4404 4403 4425 4446 4456 4472 4465 4462 4469 4475 4487 4494 4500 4506 4505 4506 4518 4524 4552 4570 4578 4580 4594 4613 4619 4632 4658 4685 4701 4737 4724 4728 4730 4724 4752 4770 4794 4823 4827 4842 4851 4854 4870 4881 4902 4922 4930 4948 4963 4988 4992 5012 5034 5072 5057 5057 5068 5077 5082 5086 5078 5067 5067 5062 5055 5043 5047 5045 5041 5025 5041 5052 5064 5092 5077 5072 5082 5100 5077 5064 5044 5023 5027 5025 5040 5050 5056 5058 5057 5058 5071 5088 5094 5112 5119 5132 5136 5140 5161 5174 5181 5191 5203 5209 5213 5208 5233 5258 5286 5325 5304 5307 5305 5305 5311 5314 5321 5331 5324 5324 5322 5331 5348 5366 5377 5398 5399 5410 5412 5422 5437 5450 5453 5461 5453 5453 5465 5479 5468 5466 5469 5472 5456 5441 5418 5405 5400 5391 5383 5366 5368 5353 5352 5356 5328 5308 5299 5292 5288 5284 5282 5290 5280 5273 5261 5247 5258 5273 5282 5297 5300 5307 5312 5331 5316 5308 5298 5297 5295 5297 5297 5309 5291 5286 5283 5283 5268 5253 5255 5257 5255 5251 5259 5264 5269 5269 5257 5237 5254 5260 5258 5258 5258 5249 5250 5248 5243 5240 5230 5223 5221 5222 5228 5250 5234 5233 5233 5242 5234 5232 5229 5228 5224 5229 5227 5229 5222 5220 5204 5183 5188 5192 5200 5207 5223 5239 5255 5286 5273 5276 5269 5265 5261 5264 5274 5286 5276 5275 5265 5251 5236 5213 5204 5196 5175 5161 5158 5154 5128 5111 5113 5115 5106 5091 5094 5094 5085 5083 5077 5076 5074 5081 5070 5070 5050 5033 5027 5024 5015 5004 5003 4995 4986 4984 4983 4987 4993 5000 5008 5025 5032 5040 5051 5077 5045 5028 5019 5010 5011 5007 5006 5004 5019 5037 5043 5042 5052 5064 5066 5067 5080 5098 5095 5101 5085 5071 5047 5022 5027 5025 5018 5030 5011 4999 4986 4972 4952 4928 4914 4889 4883 4869 4862 4846 4854 4861 4864 4876 4875 4880 4881 4884 4888 4886 4880 4864 4883 4896 4900 4903 4902 4908 4897 4886 4876 4867 4856 4837 4837 4830 4839 4857 4853 4861 4868 4885 4869 4858 4869 4888 4897 4920 4931 4961 4946 4950 4942 4928 4952 4964 4974 4981 4993 5005 5004 5002 5006 5004 5003 5011 4998 4999 4997 5002 4998 4999 4995 4994 4978 4970 4972 4987 4975 4975 4969 4980 4969 4959 4955 4946 4935 4922 4903 4869 4876 4870 4868 4852 4830 4805 4789 4751 4764 4759 4742 4722 4705 4685 4666 4637 4639 4635 4635 4647 4595 4552 4511 4461 4447 4424 4406 4391 4353 4314 4285 4245 4267 4273 4279 4296 4280 4278 4269 4267 4238 4215 4205 4201 4183 4162 4146 4121 4135 4137 4141 4142 4133 4130 4124 4109 4132 4143 4156 4169
4242 4237 4229 4213 4222 4216 4210 4219 4233 4252 4257 4270 4274 4285 4284 4281 4276 4277 4274 4266 4276 4289 4283 4286 4300 4313 4315 4324 4325 4327 4334 4351 4363 4384 4390 4393 4396 4401 4405 4416 4423 4447 4448 4468 4467 4476 4482 4487 4495 4513 4511 4524 4521 4537 4540 4545 4561 4586 4589 4605 4603 4612 4623 4640 4656 4684 4690 4710 4711 4735 4745 4750 4763 4787 4789 4813 4812 4839 4860 4882 4877 4879 4889 4918 4918 4945 4957 4984 4981 5004 5018 5053 5050 5067 5086 5099 5095 5100 5105 5101 5092 5075 5064 5050 5054 5041 5043 5048 5045 5039 5045 5054 5055 5072 5081 5083 5078 5075 5079 5058 5052 5029 5022 5028 5032 5050 5044 5042 5044 5059 5057 5071 5083 5101 5116 5135 5145 5161 5165 5181 5182 5194 5197 5207 5215 5231 5237 5270 5256 5270 5284 5287 5293 5298 5301 5310 5310 5316 5318 5319 5336 5354 5358 5374 5383 5399 5411 5421 5435 5454 5455 5457 5456 5453 5462 5468 5467 5476 5480 5481 5469 5462 5446 5417 5421 5405 5398 5378 5379 5368 5353 5338 5327 5317 5310 5297 5295 5291 5282 5273 5276 5272 5265 5252 5266 5268 5269 5282 5281 5293 5295 5302 5298 5301 5289 5275 5273 5268 5264 5257 5255 5250 5259 5261 5255 5247 5251 5251 5248 5251 5245 5248 5251 5257 5254 5250 5254 5251 5237 5232 5237 5242 5239 5240 5234 5232 5221 5213 5213 5205 5203 5206 5203 5211 5214 5206 5214 5225 5221 5219 5221 5216 5212 5214 5215 5211 5217 5211 5213 5201 5209 5211 5218 5233 5236 5256 5252 5265 5277 5278 5267 5258 5261 5273 5269 5276 5281 5282 5274 5251 5243 5219 5208 5183 5176 5165 5152 5130 5126 5120 5116 5112 5101 5090 5086 5081 5078 5075 5075 5066 5067 5061 5059 5034 5030 5009 5012 5002 4997 4985 4983 4978 4970 4971 4981 4996 4992 4997 5008 5029 5025 5037 5033 5035 5034 5010 5016 5007 5002 5000 5005 5015 5019 5039 5037 5044 5046 5057 5062 5075 5076 5081 5080 5070 5059 5033 5043 5028 5011 5000 5004 5008 5004 4990 4974 4940 4928 4907 4897 4867 4864 4845 4849 4842 4837 4844 4844 4852 4856 4863 4870 4884 4881 4876 4879 4881 4879 4883 4885 4887 4894 4890 4884 4866 4861 4852 4843 4825 4821 4823 4822 4830 4842 4853 4853 4859 4865 4865 4867 4884 4898 4924 4925 4940 4952 4944 4954 4956 4954 4965 4976 4996 5001 5009 5012 5022 5018 5011 5011 5006 5012 5010 5005 4995 4997 4994 4990 4980 4976 4962 4961 4957 4961 4957 4966 4968 4969 4959 4954 4942 4936 4914 4911 4883 4884 4882 4865 4835 4824 4799 4790 4760 4745 4738 4726 4701 4697 4675 4662 4633 4623 4622 4613 4592 4581 4523 4507 4442 4424 4393 4380 4348 4329 4282 4294 4277 4258 4256 4253 4255 4256 4255 4245 4224 4219 4198 4195 4181 4166 4142 4144 4133 4130 4132 4126 4121 4130 4127 4134 4139 4141 4152 4162
4242 4230 4219 4214 4221 4209 4200 4213 4223 4243 4261 4262 4267 4281 4295 4281 4277 4275 4274 4272 4272 4280 4287 4295 4308 4317 4334 4331 4333 4339 4347 4356 4368 4389 4412 4405 4405 4404 4399 4415 4432 4451 4476 4479 4480 4486 4493 4507 4518 4528 4534 4536 4532 4554 4573 4589 4610 4624 4643 4634 4628 4643 4660 4672 4687 4711 4735 4726 4715 4741 4761 4772 4787 4806 4835 4828 4826 4858 4897 4903 4906 4907 4907 4923 4930 4954 4980 4988 4990 5012 5028 5056 5068 5085 5106 5120 5127 5134 5145 5121 5109 5086 5064 5064 5065 5052 5043 5049 5049 5054 5062 5055 5045 5062 5079 5083 5083 5078 5085 5065 5060 5036 5009 5021 5028 5030 5034 5023 5018 5027 5042 5061 5075 5097 5118 5138 5153 5165 5179 5184 5182 5195 5196 5204 5216 5227 5242 5242 5226 5250 5256 5271 5282 5290 5292 5302 5303 5308 5307 5328 5349 5360 5373 5383 5394 5412 5429 5440 5458 5470 5487 5470 5464 5464 5467 5470 5473 5479 5486 5477 5470 5455 5434 5423 5421 5406 5405 5387 5382 5362 5341 5321 5303 5290 5272 5281 5284 5278 5272 5274 5278 5265 5247 5259 5273 5274 5280 5281 5279 5283 5289 5286 5283 5272 5252 5246 5243 5239 5237 5228 5219 5218 5218 5225 5227 5225 5226 5235 5237 5234 5227 5237 5250 5251 5247 5245 5247 5239 5229 5220 5214 5219 5218 5219 5216 5206 5193 5192 5197 5187 5179 5178 5174 5182 5190 5188 5193 5200 5201 5206 5217 5205 5190 5200 5208 5214 5219 5221 5223 5225 5241 5232 5237 5244 5250 5250 5251 5260 5282 5268 5257 5250 5248 5257 5263 5272 5282 5284 5288 5267 5253 5229 5217 5188 5161 5156 5153 5126 5102 5114 5122 5109 5090 5085 5085 5073 5065 5070 5077 5070 5065 5062 5060 5034 5007 5008 5006 4990 4977 4968 4965 4957 4939 4959 4976 4985 4991 4997 5007 5014 5012 5021 5022 5023 5015 5014 5021 5005 4991 4998 5001 5014 5019 5026 5028 5036 5043 5050 5054 5070 5083 5082 5074 5058 5034 5035 5040 5016 4995 4990 4984 4983 4989 4975 4968 4930 4895 4890 4887 4864 4857 4846 4842 4832 4819 4824 4820 4827 4834 4847 4854 4867 4880 4876 4876 4877 4891 4879 4875 4883 4896 4883 4872 4856 4841 4836 4831 4818 4802 4808 4805 4817 4829 4836 4840 4845 4853 4854 4863 4874 4898 4910 4919 4938 4964 4960 4968 4967 4967 4975 4981 5002 5018 5015 5013 5026 5039 5024 5024 5020 5022 5020 5017 5005 4997 4990 4988 4976 4970 4963 4955 4948 4943 4951 4964 4963 4972 4960 4959 4944 4942 4928 4925 4904 4902 4886 4873 4841 4812 4805 4798 4761 4733 4722 4709 4694 4691 4672 4657 4630 4603 4609 4604 4582 4565 4534 4514 4451 4401 4376 4358 4327 4297 4296 4305 4276 4256 4247 4231 4228 4218 4227 4225 4209 4190 4189 4189 4170 4143 4139 4142 4135 4134 4129 4117 4122 4130 4129 4140 4147 4164 4161 4167
4233 4223 4217 4205 4202 4202 4210 4213 4227 4238 4238 4250 4263 4278 4268 4272 4276 4273 4276 4276 4276 4275 4285 4299 4301 4314 4316 4335 4337 4349 4349 4360 4368 4395 4392 4412 4410 4412 4409 4414 4420 4450 4463 4495 4496 4498 4511 4531 4537 4550 4548 4554 4560 4574 4587 4629 4636 4657 4655 4662 4666 4674 4682 4703 4719 4740 4734 4745 4749 4753 4757 4792 4796 4815 4824 4841 4857 4870 4882 4927 4932 4939 4932 4940 4940 4964 4973 5000 5009 5027 5038 5077 5081 5102 5116 5149 5160 5166 5141 5129 5123 5098 5096 5079 5073 5062 5066 5056 5062 5069 5065 5059 5056 5054 5065 5087 5079 5072 5071 5058 5058 5046 5041 5022 5013 5009 5006 4998 4985 4992 5022 5056 5069 5097 5107 5146 5151 5170 5174 5196 5199 5208 5199 5198 5205 5221 5223 5231 5238 5248 5245 5260 5265 5288 5291 5306 5303 5306 5321 5337 5341 5366 5373 5391 5400 5426 5428 5453 5462 5481 5477 5474 5479 5473 5473 5475 5475 5481 5478 5473 5466 5454 5444 5423 5407 5396 5396 5386 5381 5357 5342 5302 5287 5271 5280 5274 5270 5268 5277 5275 5270 5265 5269 5266 5266 5276 5276 5283 5275 5271 5267 5271 5268 5253 5242 5216 5215 5211 5208 5199 5195 5185 5193 5194 5192 5202 5214 5227 5221 5222 5223 5224 5235 5251 5243 5237 5233 5232 5222 5205 5211 5204 5200 5202 5192 5186 5185 5167 5167 5169 5163 5155 5156 5153 5159 5165 5167 5181 5182 5189 5198 5200 5198 5188 5198 5218 5218 5231 5230 5236 5236 5241 5254 5259 5246 5244 5242 5242 5245 5255 5256 5240 5246 5245 5255 5270 5274 5286 5294 5278 5258 5228 5219 5191 5176 5146 5138 5122 5125 5112 5109 5112 5101 5077 5075 5062 5068 5064 5063 5072 5068 5062 5056 5038 5033 5010 4991 4977 4971 4946 4948 4948 4950 4950 4954 4980 4981 4994 5000 5009 5010 5013 5021 5022 5018 5013 5007 5002 5005 5001 5007 5021 5015 5020 5021 5031 5036 5047 5053 5071 5070 5092 5086 5057 5051 5036 5017 5003 5001 4981 4965 4954 4959 4956 4947 4918 4911 4873 4860 4848 4850 4840 4832 4825 4821 4814 4804 4803 4817 4838 4838 4853 4858 4873 4867 4863 4868 4870 4872 4876 4868 4874 4866 4846 4841 4823 4818 4814 4811 4805 4800 4807 4811 4824 4826 4831 4829 4836 4840 4853 4871 4902 4914 4930 4939 4964 4979 4977 4982 4989 4995 5014 5007 5022 5021 5032 5025 5024 5032 5031 5032 5031 5026 5013 5003 4984 4975 4967 4969 4965 4954 4937 4943 4942 4947 4949 4950 4953 4951 4935 4938 4934 4924 4909 4905 4888 4878 4844 4843 4812 4786 4756 4747 4708 4695 4677 4682 4667 4658 4629 4627 4608 4590 4568 4566 4536 4507 4450 4431 4352 4325 4307 4316 4302 4285 4266 4269 4246 4229 4208 4215 4212 4207 4199 4197 4180 4174 4168 4159 4131 4133 4134 4136 4133 4126 4122 4121 4121 4130 4148 4154 4164 4174
4236 4213 4198 4191 4185 4194 4205 4220 4259 4238 4241 4246 4264 4257 4255 4258 4264 4269 4278 4279 4280 4285 4295 4300 4307 4308 4310 4323 4331 4344 4354 4359 4373 4382 4395 4396 4405 4405 4407 4415 4418 4449 4476 4495 4516 4517 4537 4548 4576 4568 4573 4572 4579 4593 4615 4641 4686 4680 4692 4688 4687 4700 4723 4736 4775 4762 4765 4762 4765 4763 4771 4794 4818 4827 4854 4860 4882 4885 4907 4925 4967 4944 4944 4944 4950 4972 4999 5010 5031 5040 5060 5084 5120 5122 5146 5167 5219 5171 5143 5131 5121 5111 5098 5094 5089 5085 5084 5080 5082 5080 5083 5070 5049 5066 5077 5083 5078 5075 5074 5060 5046 5045 5037 5029 5015 5009 4992 4973 4917 4985 5023 5053 5084 5096 5111 5139 5171 5167 5179 5190 5214 5206 5208 5204 5205 5215 5224 5229 5233 5240 5247 5252 5257 5276 5291 5303 5309 5318 5338 5347 5355 5370 5389 5398 5411 5428 5440 5458 5487 5484 5495 5487 5483 5482 5481 5478 5480 5482 5488 5472 5451 5449 5432 5413 5376 5389 5383 5384 5377 5357 5329 5297 5236 5267 5273 5276 5269 5278 5282 5276 5269 5269 5267 5271 5278 5275 5273 5271 5268 5260 5250 5251 5262 5236 5217 5201 5184 5188 5182 5174 5159 5166 5176 5172 5155 5181 5202 5208 5212 5211 5212 5217 5240 5236 5236 5227 5218 5215 5204 5203 5206 5195 5180 5177 5163 5173 5173 5160 5139 5141 5131 5133 5137 5140 5145 5144 5132 5157 5167 5181 5203 5195 5190 5190 5197 5207 5217 5224 5235 5236 5246 5251 5275 5252 5244 5236 5234 5234 5235 5244 5247 5242 5242 5250 5260 5264 5277 5286 5331 5273 5240 5223 5205 5180 5150 5139 5123 5120 5113 5110 5112 5103 5095 5082 5071 5065 5062 5059 5054 5059 5061 5060 5062 5042 5024 5004 4971 4971 4956 4943 4921 4937 4938 4944 4949 4963 4974 4986 5006 5005 5013 5018 5038 5021 5016 5012 5001 5001 4998 5002 5016 5016 5019 5019 5015 5032 5040 5047 5051 5058 5066 5084 5113 5067 5040 5022 4998 4997 4982 4970 4932 4944 4943 4940 4926 4911 4886 4866 4826 4833 4825 4820 4806 4811 4803 4798 4782 4796 4808 4817 4827 4839 4853 4854 4852 4856 4866 4857 4851 4854 4850 4849 4848 4834 4825 4814 4795 4801 4796 4792 4786 4798 4808 4811 4821 4815 4811 4817 4818 4846 4867 4893 4926 4928 4945 4968 5012 4993 4995 5002 5013 5016 5014 5015 5014 5026 5031 5031 5034 5038 5045 5038 5041 5014 5000 4975 4954 4960 4959 4954 4947 4935 4938 4942 4955 4940 4937 4939 4944 4931 4927 4923 4913 4907 4899 4891 4880 4863 4843 4812 4766 4756 4728 4709 4664 4680 4676 4668 4645 4634 4614 4607 4581 4572 4557 4530 4477 4455 4409 4352 4243 4298 4300 4295 4277 4272 4260 4242 4206 4211 4209 4211 4199 4192 4184 4178 4159 4161 4149 4138 4125 4138 4136 4133 4116 4121 4125 4121 4124 4144 4166 4173 4193
4200 4197 4190 4176 4181 4184 4188 4205 4200 4214 4229 4231 4227 4231 4241 4241 4251 4263 4268 4284 4284 4291 4294 4301 4298 4303 4307 4317 4324 4344 4347 4349 4351 4366 4368 4375 4385 4398 4408 4423 4428 4454 4465 4495 4496 4519 4528 4549 4553 4576 4584 4582 4591 4605 4610 4635 4647 4687 4702 4713 4710 4717 4722 4746 4747 4769 4776 4775 4771 4764 4775 4798 4797 4822 4838 4863 4867 4884 4887 4902 4905 4928 4939 4943 4955 4977 4986 5013 5018 5042 5054 5082 5088 5123 5134 5156 5144 5158 5157 5133 5139 5130 5120 5110 5113 5108 5105 5100 5096 5089 5092 5089 5093 5086 5082 5091 5088 5079 5077 5063 5066 5052 5047 5044 5037 5022 5015 4988 5007 5008 5006 5050 5052 5094 5102 5128 5128 5148 5160 5172 5180 5196 5200 5206 5204 5210 5216 5231 5227 5235 5238 5244 5256 5271 5285 5308 5311 5322 5334 5359 5358 5373 5387 5403 5413 5435 5441 5454 5456 5474 5487 5497 5493 5494 5487 5478 5482 5482 5485 5477 5481 5462 5451 5424 5427 5404 5395 5393 5387 5368 5358 5324 5327 5289 5282 5290 5289 5293 5290 5281 5281 5275 5282 5276 5276 5276 5271 5262 5256 5251 5239 5223 5220 5212 5208 5189 5191 5175 5166 5157 5156 5146 5152 5164 5164 5165 5173 5191 5189 5198 5193 5194 5203 5218 5221 5218 5217 5207 5205 5199 5196 5193 5182 5164 5173 5170 5164 5161 5149 5127 5119 5109 5116 5126 5130 5135 5142 5151 5153 5165 5169 5188 5187 5187 5190 5197 5207 5216 5221 5227 5235 5244 5235 5231 5236 5222 5229 5226 5227 5239 5236 5241 5246 5253 5245 5251 5249 5253 5244 5244 5249 5219 5207 5174 5166 5140 5139 5124 5116 5103 5104 5096 5100 5088 5082 5067 5063 5056 5054 5049 5055 5055 5049 5045 5036 5014 5005 4980 4964 4950 4953 4942 4937 4941 4941 4952 4956 4972 4974 4993 5001 5011 5007 5008 5019 5018 5012 5006 4996 4993 5001 5008 5018 5022 5028 5042 5040 5053 5044 5044 5053 5065 5054 5058 5051 5015 5024 5005 4998 4986 4978 4949 4943 4937 4930 4916 4905 4882 4872 4836 4821 4811 4812 4812 4805 4796 4796 4793 4790 4796 4804 4823 4828 4839 4841 4846 4845 4843 4841 4839 4830 4824 4829 4820 4825 4814 4814 4802 4795 4784 4790 4794 4792 4792 4793 4798 4803 4806 4818 4846 4850 4880 4881 4912 4925 4951 4955 4991 5009 5012 5013 5023 5014 5010 5021 5029 5030 5037 5039 5044 5041 5035 5021 5004 4996 4965 4972 4960 4949 4947 4935 4919 4927 4936 4926 4920 4927 4923 4928 4920 4923 4918 4918 4908 4905 4898 4899 4887 4869 4828 4824 4774 4765 4739 4738 4706 4698 4686 4675 4651 4645 4627 4612 4584 4573 4552 4540 4484 4463 4406 4403 4345 4310 4301 4299 4287 4273 4257 4250 4222 4224 4225 4209 4188 4191 4192 4188 4171 4162 4147 4158 4160 4151 4150 4138 4121 4121 4117 4125 4140 4147 4172 4180
4169 4164 4153 4158 4168 4169 4179 4179 4178 4195 4213 4210 4208 4216 4230 4235 4247 4255 4263 4277 4285 4292 4306 4299 4296 4300 4301 4318 4327 4344 4365 4346 4337 4351 4359 4366 4375 4389 4407 4420 4429 4461 4494 4496 4494 4519 4531 4547 4553 4580 4605 4598 4604 4612 4623 4639 4651 4691 4722 4719 4721 4728 4739 4745 4750 4770 4788 4782 4782 4773 4773 4788 4800 4826 4850 4859 4868 4877 4882 4891 4884 4909 4920 4942 4958 4980 5004 5017 5019 5045 5061 5081 5089 5119 5140 5133 5119 5129 5121 5134 5150 5134 5119 5124 5137 5127 5123 5117 5114 5109 5109 5112 5116 5109 5104 5106 5106 5099 5090 5080 5076 5060 5049 5046 5045 5039 5036 5031 5042 5043 5051 5055 5044 5086 5105 5120 5125 5143 5152 5168 5176 5185 5186 5193 5195 5203 5218 5216 5218 5231 5243 5254 5264 5284 5307 5317 5325 5336 5349 5358 5363 5384 5419 5420 5427 5446 5465 5462 5457 5477 5492 5492 5486 5494 5494 5490 5489 5494 5503 5493 5498 5479 5469 5453 5451 5428 5408 5406 5404 5385 5365 5359 5367 5332 5315 5310 5303 5309 5318 5298 5289 5294 5308 5290 5286 5276 5268 5254 5239 5233 5216 5210 5198 5189 5171 5177 5186 5167 5148 5142 5140 5135 5142 5147 5154 5166 5183 5176 5168 5171 5170 5180 5188 5199 5210 5208 5210 5203 5198 5198 5190 5183 5167 5172 5181 5170 5165 5147 5135 5116 5103 5101 5098 5113 5124 5129 5140 5151 5165 5163 5157 5176 5172 5186 5189 5204 5220 5226 5226 5234 5234 5231 5222 5222 5218 5216 5224 5214 5211 5222 5231 5235 5245 5237 5234 5228 5235 5218 5202 5204 5204 5197 5197 5165 5145 5140 5145 5127 5115 5103 5105 5098 5107 5092 5079 5067 5059 5051 5050 5054 5063 5049 5036 5031 5026 5010 5005 4976 4958 4956 4967 4950 4945 4938 4933 4940 4952 4957 4959 4979 4997 4997 4997 5005 5013 5014 5010 5002 4985 4998 5006 5014 5026 5024 5030 5040 5051 5049 5040 5046 5052 5044 5030 5028 5018 5024 5039 5015 5003 4997 4996 4974 4957 4939 4924 4916 4899 4889 4885 4845 4811 4807 4803 4801 4806 4793 4793 4789 4792 4790 4789 4810 4824 4828 4829 4833 4840 4831 4817 4815 4807 4815 4824 4816 4818 4810 4818 4802 4801 4789 4787 4792 4797 4784 4775 4787 4787 4799 4811 4837 4859 4868 4868 4895 4911 4928 4936 4978 5021 5018 5022 5021 5012 5024 5034 5035 5040 5042 5044 5045 5054 5026 5002 4987 4976 4963 4963 4946 4935 4929 4918 4910 4908 4915 4912 4912 4911 4919 4933 4922 4911 4920 4921 4912 4902 4904 4912 4897 4882 4857 4853 4814 4784 4779 4781 4748 4736 4710 4689 4671 4659 4641 4624 4600 4575 4573 4567 4522 4486 4466 4454 4398 4351 4331 4311 4298 4271 4266 4261 4246 4245 4235 4216 4202 4188 4200 4205 4185 4171 4170 4176 4171 4172 4157 4145 4137 4133 4126 4120 4139 4153 4167 4176
4142 4139 4139 4135 4134 4146 4150 4156 4161 4175 4172 4190 4190 4196 4202 4222 4232 4247 4254 4276 4276 4288 4288 4296 4300 4302 4309 4327 4326 4341 4335 4334 4343 4345 4348 4355 4363 4379 4395 4421 4435 4470 4470 4501 4516 4535 4532 4555 4558 4586 4585 4604 4609 4618 4626 4647 4664 4704 4701 4720 4729 4736 4737 4747 4753 4773 4768 4783 4776 4773 4777 4781 4800 4835 4835 4856 4868 4877 4885 4896 4892 4906 4919 4948 4956 4982 4999 5035 5039 5058 5065 5092 5101 5126 5112 5117 5118 5121 5123 5133 5126 5139 5140 5130 5136 5142 5141 5132 5129 5126 5130 5135 5137 5132 5127 5124 5125 5122 5107 5091 5083 5065 5060 5048 5050 5056 5055 5060 5059 5074 5074 5076 5092 5104 5100 5122 5126 5150 5153 5172 5175 5183 5180 5188 5182 5190 5192 5199 5214 5230 5241 5266 5277 5295 5307 5331 5336 5349 5351 5364 5368 5384 5397 5431 5444 5459 5458 5472 5479 5486 5485 5496 5499 5505 5498 5499 5501 5502 5498 5496 5499 5490 5486 5471 5467 5452 5442 5422 5417 5404 5400 5380 5378 5358 5357 5334 5329 5324 5316 5307 5306 5306 5297 5291 5293 5277 5267 5248 5243 5229 5218 5204 5192 5176 5175 5163 5164 5162 5148 5124 5118 5114 5126 5130 5142 5162 5156 5165 5157 5149 5161 5169 5170 5183 5185 5196 5199 5199 5203 5206 5199 5185 5181 5177 5166 5166 5152 5128 5126 5101 5104 5095 5091 5107 5110 5120 5131 5149 5153 5167 5178 5188 5186 5197 5193 5211 5220 5243 5250 5249 5238 5227 5228 5218 5210 5201 5194 5197 5204 5208 5211 5225 5216 5219 5208 5194 5194 5185 5182 5169 5167 5168 5156 5145 5151 5133 5138 5127 5116 5092 5093 5087 5094 5095 5084 5063 5056 5040 5049 5057 5048 5043 5040 5020 5010 4998 4983 4964 4968 4952 4955 4947 4948 4934 4929 4924 4933 4945 4951 4968 4972 4986 4990 5004 5004 5016 5011 5009 5008 5010 5006 5019 5019 5021 5028 5038 5041 5052 5049 5050 5038 5029 5022 5008 5019 5024 5019 5013 5018 5003 5007 4994 4973 4939 4941 4928 4915 4893 4886 4850 4842 4804 4792 4783 4787 4780 4784 4780 4781 4784 4792 4804 4806 4822 4814 4819 4822 4826 4816 4799 4806 4806 4802 4804 4800 4790 4793 4790 4798 4785 4790 4790 4784 4773 4780 4788 4788 4793 4806 4833 4840 4866 4874 4890 4892 4915 4927 4965 4976 5018 5028 5030 5033 5040 5033 5038 5039 5048 5049 5039 5030 5014 5003 4969 4968 4948 4937 4926 4928 4917 4914 4897 4902 4906 4901 4905 4910 4912 4918 4927 4933 4933 4930 4917 4915 4905 4909 4909 4894 4865 4865 4846 4840 4813 4802 4771 4760 4729 4712 4685 4680 4656 4645 4618 4616 4598 4580 4553 4551 4518 4496 4443 4422 4361 4354 4323 4310 4278 4273 4258 4262 4256 4244 4218 4222 4216 4207 4194 4198 4188 4184 4176 4175 4163 4167 4152 4145 4136 4131 4143 4147 4167 4175
4119 4119 4115 4111 4105 4121 4132 4132 4135 4143 4145 4160 4164 4176 4183 4202 4231 4236 4249 4260 4278 4279 4286 4288 4298 4299 4313 4322 4335 4335 4340 4333 4328 4340 4357 4356 4362 4377 4405 4420 4444 4462 4481 4507 4536 4541 4547 4555 4560 4579 4597 4605 4612 4621 4635 4656 4682 4705 4730 4731 4740 4742 4745 4751 4754 4763 4768 4770 4763 4770 4774 4788 4812 4829 4849 4865 4890 4893 4902 4897 4885 4912 4938 4955 4976 5000 5024 5049 5062 5078 5092 5107 5127 5124 5116 5110 5096 5115 5119 5125 5112 5131 5143 5142 5154 5155 5156 5144 5135 5142 5146 5152 5172 5152 5137 5142 5151 5129 5112 5098 5087 5068 5051 5053 5050 5059 5061 5066 5069 5084 5105 5111 5137 5129 5133 5130 5127 5153 5165 5177 5195 5183 5176 5174 5164 5175 5185 5192 5209 5232 5253 5279 5305 5315 5338 5343 5357 5357 5368 5370 5378 5387 5411 5430 5470 5466 5476 5482 5493 5496 5502 5503 5505 5506 5503 5505 5510 5505 5506 5502 5509 5494 5487 5480 5477 5461 5443 5437 5436 5419 5412 5407 5411 5386 5372 5356 5346 5339 5330 5314 5293 5306 5304 5302 5299 5281 5258 5245 5228 5215 5201 5189 5172 5166 5164 5157 5163 5140 5122 5107 5087 5111 5122 5128 5135 5145 5145 5148 5134 5151 5159 5162 5161 5168 5173 5186 5192 5194 5197 5204 5210 5190 5174 5165 5155 5148 5134 5121 5110 5096 5088 5083 5061 5092 5115 5123 5134 5141 5157 5168 5192 5196 5202 5201 5195 5221 5240 5258 5288 5260 5251 5239 5234 5217 5200 5191 5163 5181 5190 5193 5202 5194 5190 5186 5177 5168 5165 5156 5141 5141 5131 5129 5108 5125 5130 5133 5147 5120 5103 5090 5078 5084 5092 5081 5072 5060 5045 5042 5041 5042 5042 5037 5034 5010 4986 4975 4944 4956 4952 4955 4964 4952 4945 4935 4914 4922 4932 4937 4939 4960 4977 4976 4974 4993 5002 5008 5007 5007 5005 5011 5013 5022 5032 5031 5030 5036 5044 5045 5044 5039 5034 5021 5001 5008 5017 5019 5024 5020 5018 5017 5028 4995 4966 4954 4942 4930 4915 4904 4905 4866 4831 4809 4772 4787 4785 4780 4771 4770 4767 4777 4791 4800 4812 4807 4794 4807 4816 4810 4802 4802 4803 4802 4791 4789 4783 4780 4775 4791 4800 4790 4787 4788 4789 4779 4763 4784 4797 4801 4811 4830 4853 4863 4884 4888 4897 4910 4918 4957 4985 5011 5046 5038 5043 5043 5042 5037 5039 5051 5070 5039 5023 5004 4978 4965 4954 4932 4900 4912 4909 4906 4909 4897 4887 4894 4885 4905 4912 4918 4924 4932 4941 4946 4959 4931 4920 4919 4921 4904 4890 4874 4867 4860 4850 4840 4840 4794 4762 4734 4700 4699 4692 4669 4649 4637 4624 4610 4594 4579 4566 4547 4537 4479 4433 4402 4382 4354 4328 4305 4286 4279 4273 4267 4260 4244 4241 4234 4230 4215 4205 4203 4203 4190 4186 4180 4182 4163 4150 4135 4112 4140 4158 4171 4184
4096 4104 4100 4092 4101 4102 4098 4108 4111 4117 4124 4142 4144 4162 4159 4172 4184 4217 4228 4238 4245 4265 4270 4272 4278 4284 4296 4316 4313 4326 4331 4331 4331 4331 4340 4353 4354 4364 4378 4411 4422 4456 4473 4510 4511 4546 4550 4558 4561 4575 4580 4607 4607 4619 4637 4661 4676 4707 4718 4736 4735 4748 4748 4758 4754 4760 4762 4767 4769 4772 4775 4788 4801 4823 4836 4865 4874 4905 4906 4907 4912 4920 4926 4961 4977 5019 5040 5076 5074 5100 5108 5119 5119 5129 5126 5113 5123 5125 5127 5139 5133 5131 5135 5143 5151 5168 5164 5153 5161 5164 5157 5158 5162 5168 5163 5156 5143 5132 5126 5104 5096 5072 5069 5065 5065 5069 5071 5076 5078 5090 5105 5128 5128 5143 5145 5140 5153 5170 5164 5176 5170 5180 5176 5171 5166 5164 5164 5177 5198 5236 5256 5294 5293 5324 5332 5348 5347 5357 5360 5371 5366 5378 5386 5410 5423 5459 5473 5488 5494 5505 5506 5509 5509 5514 5508 5511 5503 5503 5503 5497 5499 5491 5495 5486 5482 5472 5462 5447 5443 5427 5432 5428 5424 5405 5401 5372 5372 5356 5347 5326 5333 5324 5319 5314 5304 5291 5276 5247 5235 5204 5200 5181 5174 5154 5146 5139 5132 5114 5116 5098 5117 5123 5115 5126 5127 5140 5146 5150 5154 5164 5158 5162 5158 5156 5166 5183 5179 5188 5193 5203 5194 5191 5180 5154 5155 5137 5127 5112 5107 5086 5091 5090 5091 5088 5095 5123 5117 5126 5139 5156 5171 5203 5205 5211 5221 5239 5238 5262 5247 5255 5259 5245 5239 5216 5217 5202 5194 5176 5166 5173 5167 5161 5165 5161 5157 5139 5139 5133 5135 5124 5120 5112 5117 5117 5118 5125 5115 5106 5104 5090 5095 5081 5077 5068 5070 5062 5054 5042 5040 5031 5033 5030 5022 5002 4995 4972 4977 4964 4951 4953 4953 4955 4956 4948 4938 4919 4922 4935 4943 4958 4958 4968 4980 4994 4998 5009 5008 5010 5012 5016 5019 5026 5035 5042 5038 5034 5039 5042 5036 5029 5025 5022 5019 5007 5011 5013 5019 5028 5030 5019 5010 4993 4990 4970 4960 4936 4924 4905 4904 4881 4872 4832 4832 4809 4789 4786 4775 4762 4761 4768 4775 4796 4799 4802 4801 4800 4797 4796 4804 4805 4807 4808 4795 4779 4781 4773 4785 4799 4792 4789 4793 4787 4794 4792 4795 4791 4788 4803 4808 4825 4829 4852 4858 4883 4888 4912 4924 4962 4966 4997 4996 5033 5042 5049 5041 5031 5039 5048 5031 5025 5022 5001 4991 4960 4949 4928 4931 4915 4899 4891 4896 4898 4896 4899 4904 4918 4914 4926 4928 4936 4945 4951 4938 4928 4938 4932 4918 4898 4896 4876 4883 4879 4871 4859 4836 4803 4791 4748 4754 4719 4707 4681 4679 4659 4645 4627 4625 4605 4595 4567 4554 4503 4492 4434 4427 4385 4367 4331 4324 4300 4292 4279 4273 4259 4256 4251 4242 4232 4224 4218 4208 4198 4195 4190 4179 4169 4159 4145 4156 4150 4156 4177 4180
4065 4078 4085 4086 4096 4087 4078 4088 4088 4095 4102 4118 4128 4137 4141 4155 4165 4196 4226 4224 4231 4243 4265 4262 4271 4279 4288 4293 4297 4314 4334 4324 4324 4335 4348 4346 4345 4361 4378 4403 4417 4451 4484 4504 4509 4541 4563 4565 4564 4577 4580 4598 4607 4631 4657 4678 4704 4726 4747 4735 4728 4739 4748 4755 4754 4760 4767 4771 4772 4777 4780 4802 4819 4834 4847 4866 4877 4904 4922 4915 4919 4928 4941 4970 4990 5040 5089 5100 5098 5127 5151 5144 5139 5138 5136 5136 5139 5142 5149 5146 5145 5149 5157 5157 5151 5168 5182 5172 5174 5171 5171 5173 5178 5170 5156 5153 5148 5134 5120 5106 5097 5074 5053 5068 5075 5082 5090 5090 5087 5108 5134 5137 5139 5155 5163 5164 5170 5176 5186 5169 5159 5159 5160 5156 5155 5156 5152 5179 5197 5241 5288 5299 5301 5330 5354 5350 5345 5354 5358 5354 5348 5366 5378 5398 5415 5450 5476 5492 5510 5512 5518 5515 5511 5511 5505 5502 5496 5497 5502 5502 5505 5500 5496 5487 5485 5469 5454 5456 5456 5441 5439 5446 5453 5430 5417 5396 5388 5373 5363 5353 5353 5348 5348 5323 5307 5289 5270 5247 5232 5206 5188 5175 5163 5143 5120 5120 5112 5102 5092 5105 5125 5124 5127 5123 5120 5138 5161 5159 5160 5167 5173 5169 5158 5162 5164 5172 5172 5181 5191 5190 5185 5173 5166 5154 5155 5131 5106 5099 5098 5086 5080 5087 5099 5099 5109 5113 5105 5125 5140 5154 5169 5193 5217 5219 5233 5241 5259 5248 5232 5243 5251 5246 5245 5224 5218 5202 5198 5173 5154 5157 5146 5147 5139 5142 5140 5127 5108 5115 5121 5107 5103 5102 5108 5110 5122 5110 5101 5091 5073 5089 5106 5089 5081 5069 5061 5057 5040 5043 5043 5031 5030 5025 5015 4997 4973 4979 4986 4966 4944 4954 4954 4958 4959 4947 4942 4929 4923 4938 4947 4963 4969 4977 4984 4998 5016 5012 5011 5010 5017 5020 5031 5039 5060 5049 5046 5043 5051 5039 5031 5022 5008 5014 5016 5015 5026 5020 5019 5030 5052 5028 5011 4990 4969 4968 4971 4943 4916 4917 4918 4892 4870 4852 4856 4819 4791 4779 4767 4753 4746 4760 4771 4787 4810 4800 4792 4797 4799 4798 4801 4802 4814 4800 4792 4782 4783 4781 4786 4794 4805 4796 4796 4798 4811 4807 4808 4802 4798 4808 4808 4821 4828 4843 4845 4870 4875 4903 4926 4956 4989 4980 4971 5013 5041 5042 5041 5037 5036 5030 5015 5005 4992 4984 4980 4954 4931 4928 4929 4910 4892 4888 4886 4887 4879 4901 4915 4924 4930 4935 4939 4951 4972 4952 4934 4929 4933 4925 4924 4906 4891 4884 4888 4882 4879 4860 4835 4809 4775 4772 4788 4748 4731 4703 4687 4669 4647 4642 4646 4623 4615 4597 4582 4534 4494 4466 4459 4406 4373 4344 4338 4313 4304 4287 4281 4266 4256 4249 4246 4232 4218 4217 4214 4198 4190 4184 4173 4160 4141 4159 4179 4175 4186 4180 4181
4047 4061 4062 4074 4075 4072 4073 4078 4075 4075 4085 4102 4107 4120 4124 4143 4147 4176 4173 4202 4202 4211 4224 4242 4259 4276 4270 4271 4282 4300 4301 4309 4323 4339 4336 4340 4352 4360 4374 4406 4419 4448 4464 4513 4522 4546 4549 4576 4577 4591 4591 4599 4613 4642 4653 4692 4716 4748 4731 4731 4737 4733 4743 4762 4758 4760 4769 4778 4779 4784 4801 4821 4826 4850 4856 4875 4883 4914 4908 4915 4923 4933 4956 4990 5010 5062 5078 5138 5149 5159 5151 5169 5161 5148 5155 5157 5157 5158 5153 5152 5161 5166 5167 5177 5173 5174 5171 5182 5175 5178 5179 5186 5189 5181 5171 5155 5148 5136 5130 5104 5092 5077 5087 5081 5083 5096 5098 5108 5107 5123 5131 5150 5163 5177 5171 5185 5181 5181 5170 5155 5153 5137 5140 5139 5142 5155 5167 5192 5201 5244 5257 5313 5324 5341 5337 5354 5357 5356 5349 5341 5348 5360 5370 5392 5412 5451 5462 5496 5509 5518 5520 5522 5521 5514 5507 5496 5490 5487 5499 5507 5508 5511 5498 5482 5481 5466 5473 5467 5454 5442 5454 5466 5460 5447 5434 5407 5401 5387 5379 5370 5372 5368 5349 5323 5319 5288 5274 5241 5229 5202 5197 5171 5161 5138 5134 5112 5104 5091 5102 5108 5110 5124 5124 5120 5129 5133 5142 5168 5168 5171 5173 5184 5181 5173 5169 5171 5170 5173 5170 5181 5171 5153 5154 5141 5143 5127 5118 5083 5081 5083 5083 5079 5090 5103 5106 5116 5125 5132 5132 5151 5157 5183 5190 5218 5225 5235 5231 5241 5240 5234 5234 5245 5235 5220 5212 5191 5182 5166 5169 5155 5145 5142 5135 5129 5126 5123 5115 5099 5088 5081 5088 5086 5087 5093 5092 5092 5092 5084 5091 5090 5087 5091 5087 5068 5073 5066 5056 5049 5036 5023 5028 5028 5018 5000 5000 4988 4982 4972 4972 4966 4961 4964 4949 4941 4939 4934 4944 4950 4958 4979 4975 4989 4993 5000 5004 5013 5010 5005 5013 5019 5030 5042 5040 5051 5053 5042 5040 5032 5035 5021 5019 5013 5012 5011 5017 5023 5025 5024 5025 5031 5026 4990 4985 4964 4963 4951 4950 4931 4923 4902 4887 4850 4842 4821 4807 4774 4758 4739 4752 4756 4758 4773 4781 4797 4802 4798 4797 4799 4796 4791 4791 4789 4787 4776 4778 4782 4780 4787 4789 4796 4798 4798 4809 4820 4821 4814 4822 4824 4823 4826 4834 4849 4856 4880 4881 4899 4912 4949 4948 4963 4983 5010 5011 5038 5048 5042 5031 5023 5010 4989 4982 4965 4958 4948 4943 4924 4919 4906 4902 4885 4884 4887 4899 4912 4917 4934 4936 4947 4951 4959 4952 4951 4946 4923 4922 4914 4918 4913 4903 4884 4889 4885 4880 4869 4856 4825 4811 4778 4771 4757 4748 4714 4708 4684 4672 4651 4642 4628 4635 4624 4605 4559 4539 4480 4454 4409 4394 4336 4328 4310 4309 4284 4284 4270 4265 4246 4239 4234 4230 4218 4212 4193 4193 4184 4172 4158 4165 4172 4169 4187 4180 4179 4178
4016 4036 4048 4055 4070 4056 4047 4059 4069 4066 4075 4083 4104 4101 4107 4118 4130 4144 4151 4163 4170 4190 4213 4230 4253 4255 4263 4261 4269 4284 4301 4301 4311 4322 4341 4345 4361 4372 4388 4413 4444 4457 4481 4514 4547 4554 4565 4577 4580 4595 4610 4620 4632 4651 4672 4706 4768 4748 4744 4737 4737 4742 4752 4762 4764 4773 4787 4787 4788 4804 4830 4837 4855 4866 4880 4885 4897 4915 4929 4924 4923 4950 4983 5010 5047 5078 5123 5152 5210 5179 5180 5171 5176 5167 5176 5171 5179 5170 5166 5168 5180 5179 5183 5179 5185 5183 5180 5174 5160 5173 5178 5193 5219 5189 5173 5157 5146 5141 5132 5109 5067 5085 5093 5097 5104 5109 5116 5114 5107 5138 5166 5173 5193 5186 5183 5189 5195 5182 5175 5152 5134 5131 5128 5125 5115 5145 5169 5189 5218 5241 5276 5305 5356 5344 5353 5357 5366 5357 5357 5345 5334 5358 5381 5400 5429 5455 5486 5510 5547 5531 5530 5533 5530 5523 5510 5498 5475 5497 5507 5511 5515 5504 5497 5487 5483 5478 5474 5466 5454 5455 5453 5465 5489 5453 5431 5412 5393 5387 5374 5379 5390 5371 5352 5331 5317 5287 5260 5239 5205 5198 5185 5169 5148 5139 5123 5110 5096 5101 5099 5109 5118 5121 5128 5132 5138 5140 5147 5161 5173 5174 5180 5187 5195 5181 5177 5173 5174 5163 5157 5161 5159 5144 5137 5134 5141 5123 5108 5086 5053 5072 5072 5082 5098 5104 5108 5123 5144 5136 5140 5144 5155 5175 5192 5209 5233 5220 5217 5224 5226 5226 5227 5227 5225 5207 5195 5180 5155 5164 5160 5149 5129 5133 5123 5123 5114 5112 5100 5091 5067 5071 5066 5069 5067 5072 5076 5076 5072 5081 5090 5092 5094 5088 5084 5080 5080 5068 5051 5045 5032 5028 5021 5021 5016 5008 4999 4995 4996 4978 4964 4965 4971 4959 4940 4937 4923 4937 4951 4961 4982 4979 4988 4995 5015 5011 5020 5014 5006 5009 5018 5019 5042 5036 5038 5048 5062 5045 5042 5036 5036 5020 5011 5011 5018 5016 5018 5020 5029 5023 5028 5023 5034 4998 4978 4967 4971 4954 4948 4941 4944 4904 4879 4851 4829 4805 4777 4760 4730 4744 4748 4756 4759 4769 4785 4789 4803 4795 4799 4795 4798 4789 4783 4777 4769 4767 4762 4769 4768 4783 4789 4792 4794 4805 4825 4831 4839 4837 4845 4843 4846 4846 4854 4862 4869 4883 4902 4910 4927 4940 4956 4960 4970 4998 5028 5041 5074 5035 5018 5003 4992 4980 4959 4950 4930 4931 4920 4916 4916 4905 4890 4888 4875 4895 4911 4921 4943 4943 4951 4957 4969 4956 4959 4949 4940 4928 4919 4914 4915 4905 4893 4894 4896 4887 4878 4866 4852 4831 4806 4790 4775 4759 4736 4724 4704 4692 4669 4663 4643 4643 4642 4630 4625 4579 4535 4493 4434 4414 4373 4345 4294 4312 4305 4292 4281 4273 4264 4245 4221 4227 4222 4221 4219 4198 4184 4177 4159 4160 4159 4168 4178 4176 4176 4178 4175
4009 4019 4022 4031 4033 4035 4038 4043 4039 4048 4049 4052 4059 4075 4090 4095 4103 4120 4122 4130 4142 4167 4178 4212 4210 4229 4242 4244 4251 4266 4270 4284 4287 4299 4315 4338 4349 4380 4389 4414 4420 4457 4475 4515 4517 4558 4566 4587 4588 4601 4618 4641 4637 4660 4663 4694 4693 4735 4741 4737 4742 4748 4754 4771 4770 4781 4785 4797 4803 4816 4828 4844 4853 4879 4878 4888 4902 4922 4923 4931 4946 4964 4983 5022 5030 5080 5095 5139 5135 5170 5173 5162 5171 5169 5175 5172 5177 5179 5181 5177 5176 5187 5180 5174 5183 5193 5187 5176 5175 5176 5172 5190 5180 5183 5183 5157 5162 5152 5149 5135 5129 5105 5099 5110 5112 5120 5121 5128 5139 5157 5162 5186 5183 5194 5198 5193 5183 5177 5168 5144 5148 5128 5122 5121 5132 5144 5149 5178 5185 5226 5240 5276 5286 5327 5344 5358 5352 5352 5352 5349 5357 5358 5369 5401 5411 5454 5471 5511 5503 5530 5547 5552 5545 5540 5528 5512 5518 5520 5511 5516 5506 5495 5497 5487 5495 5492 5488 5472 5477 5473 5461 5454 5449 5447 5445 5419 5417 5394 5387 5382 5378 5377 5364 5335 5322 5285 5275 5250 5242 5203 5195 5174 5168 5149 5134 5112 5121 5120 5113 5114 5111 5115 5126 5143 5139 5144 5147 5158 5161 5175 5180 5190 5181 5181 5181 5171 5163 5148 5151 5148 5143 5130 5131 5120 5123 5117 5114 5100 5099 5080 5075 5079 5087 5110 5111 5125 5116 5128 5132 5133 5147 5172 5171 5194 5185 5198 5207 5212 5209 5220 5216 5212 5204 5190 5195 5182 5187 5178 5165 5155 5153 5138 5133 5126 5121 5113 5110 5100 5089 5070 5064 5057 5060 5055 5058 5064 5071 5079 5085 5097 5088 5085 5088 5090 5083 5075 5072 5048 5048 5037 5032 5021 5025 5017 5011 4999 4992 4982 4971 4960 4961 4961 4954 4945 4942 4940 4942 4964 4958 4968 4981 4990 4998 5012 5014 5017 5010 5007 4997 5000 5010 5025 5033 5044 5036 5037 5038 5037 5028 5012 5008 5003 5008 5017 5011 5010 5007 5011 5009 5001 4999 4990 4980 4958 4956 4948 4948 4942 4924 4894 4889 4846 4839 4793 4786 4762 4770 4762 4754 4764 4757 4760 4765 4773 4776 4783 4792 4785 4786 4785 4775 4767 4769 4764 4765 4766 4772 4788 4784 4789 4799 4806 4817 4843 4842 4851 4853 4857 4857 4860 4864 4878 4874 4882 4892 4915 4911 4930 4938 4954 4961 4986 4994 5024 5005 5006 5008 4982 4990 4980 4969 4948 4945 4926 4917 4907 4913 4909 4909 4902 4900 4908 4904 4921 4923 4944 4954 4964 4949 4940 4945 4949 4944 4930 4925 4911 4912 4899 4905 4905 4896 4889 4885 4868 4861 4842 4829 4802 4796 4770 4763 4742 4738 4713 4706 4691 4681 4661 4648 4632 4627 4597 4583 4523 4508 4441 4419 4379 4379 4341 4319 4300 4297 4279 4270 4251 4249 4231 4227 4225 4218 4199 4200 4182 4179 4165 4162 4165 4162 4163 4172 4182 4179
3993 4003 4022 4017 4018 4013 4005 4017 4021 4023 4028 4029 4035 4059 4086 4081 4090 4099 4111 4117 4122 4147 4164 4181 4189 4214 4244 4235 4234 4249 4261 4264 4266 4290 4313 4329 4338 4376 4402 4414 4422 4458 4484 4505 4516 4550 4572 4589 4599 4623 4650 4644 4640 4654 4666 4675 4672 4709 4727 4734 4741 4750 4762 4773 4776 4788 4798 4806 4815 4835 4866 4862 4859 4879 4891 4904 4919 4931 4945 4951 4960 4990 5023 5034 5036 5081 5116 5120 5110 5140 5151 5162 5175 5177 5183 5181 5183 5184 5190 5180 5175 5179 5180 5177 5182 5187 5195 5180 5169 5169 5165 5171 5169 5174 5173 5166 5168 5161 5164 5153 5147 5133 5116 5126 5127 5136 5133 5147 5157 5178 5199 5197 5189 5202 5214 5193 5182 5171 5156 5147 5146 5124 5106 5122 5135 5144 5159 5168 5169 5206 5242 5257 5265 5301 5336 5346 5347 5348 5341 5355 5366 5373 5384 5401 5410 5451 5493 5492 5487 5522 5559 5555 5558 5546 5532 5529 5532 5532 5536 5520 5508 5501 5494 5499 5507 5503 5505 5491 5489 5474 5464 5451 5445 5438 5425 5417 5427 5398 5382 5382 5382 5371 5354 5331 5317 5278 5249 5249 5257 5219 5200 5173 5164 5145 5130 5128 5131 5128 5122 5117 5117 5122 5131 5139 5144 5148 5148 5159 5166 5176 5182 5180 5174 5176 5178 5163 5157 5142 5137 5139 5139 5129 5117 5115 5119 5110 5100 5103 5109 5095 5089 5085 5089 5100 5114 5109 5104 5112 5124 5132 5145 5157 5165 5167 5157 5173 5185 5187 5189 5199 5209 5195 5187 5185 5185 5188 5195 5181 5173 5165 5161 5146 5142 5131 5125 5114 5114 5097 5088 5076 5062 5061 5065 5055 5046 5062 5065 5080 5092 5092 5082 5087 5083 5084 5084 5080 5085 5064 5057 5042 5038 5037 5041 5025 5013 4999 4991 4970 4946 4957 4959 4952 4942 4940 4945 4939 4944 4950 4950 4968 4986 4992 5003 5007 5012 5004 4999 4989 4976 4990 4999 5011 5021 5024 5026 5022 5019 5022 5021 5000 4983 4994 5001 5004 5002 4995 4991 4990 4998 4984 4979 4963 4940 4936 4943 4933 4931 4919 4913 4889 4873 4846 4838 4794 4761 4770 4781 4768 4760 4760 4759 4766 4770 4769 4766 4782 4798 4781 4777 4771 4752 4764 4765 4767 4763 4765 4772 4783 4792 4803 4814 4818 4825 4849 4852 4866 4868 4869 4869 4870 4874 4878 4885 4891 4905 4905 4897 4922 4941 4945 4949 4972 4998 4984 4965 4974 4970 4971 4981 4964 4956 4950 4950 4927 4906 4909 4919 4910 4912 4902 4901 4907 4915 4918 4917 4940 4965 4956 4942 4937 4925 4935 4941 4929 4922 4918 4920 4907 4903 4898 4897 4888 4887 4866 4856 4836 4823 4808 4806 4780 4766 4761 4764 4735 4716 4708 4706 4681 4656 4650 4640 4611 4590 4553 4535 4476 4425 4418 4425 4378 4341 4320 4305 4287 4269 4260 4252 4239 4232 4229 4228 4211 4200 4189 4185 4173 4159 4165 4164 4168 4167 4174 4180
3972 3980 3983 3999 4003 3994 4000 3999 3995 3996 4000 4001 4014 4040 4037 4055 4060 4075 4086 4106 4118 4137 4141 4161 4174 4194 4200 4221 4228 4237 4240 4248 4261 4284 4295 4329 4347 4386 4388 4419 4433 4470 4474 4508 4528 4556 4569 4600 4610 4643 4638 4646 4653 4653 4659 4669 4675 4704 4707 4732 4738 4752 4760 4785 4788 4799 4802 4816 4823 4845 4851 4879 4881 4888 4894 4918 4925 4938 4948 4970 4984 5013 5023 5058 5072 5093 5088 5115 5113 5130 5134 5163 5171 5181 5180 5189 5185 5184 5181 5181 5182 5174 5178 5173 5176 5178 5175 5181 5177 5167 5167 5163 5170 5173 5170 5166 5162 5161 5165 5168 5173 5166 5159 5152 5156 5164 5166 5171 5183 5202 5200 5214 5216 5213 5199 5185 5183 5170 5161 5145 5137 5119 5130 5128 5129 5139 5148 5168 5169 5190 5206 5248 5251 5279 5300 5345 5355 5354 5360 5364 5366 5387 5389 5412 5419 5450 5450 5478 5488 5512 5521 5553 5565 5555 5556 5541 5544 5542 5533 5520 5523 5507 5513 5511 5506 5508 5505 5501 5496 5473 5467 5444 5445 5435 5420 5400 5399 5392 5395 5385 5385 5374 5350 5319 5303 5262 5264 5243 5234 5216 5201 5157 5154 5140 5147 5140 5141 5139 5133 5118 5121 5126 5130 5140 5144 5156 5154 5165 5172 5181 5175 5175 5173 5171 5157 5147 5142 5126 5135 5133 5133 5132 5121 5104 5107 5106 5108 5104 5103 5105 5095 5083 5090 5089 5090 5096 5096 5093 5105 5128 5137 5149 5146 5154 5148 5152 5154 5162 5164 5181 5176 5172 5180 5178 5184 5190 5188 5178 5180 5172 5167 5146 5144 5131 5123 5104 5102 5089 5096 5086 5076 5062 5058 5056 5064 5073 5073 5086 5087 5097 5100 5098 5085 5081 5079 5078 5073 5066 5061 5039 5045 5049 5041 5030 5021 4995 4983 4964 4970 4963 4952 4947 4943 4929 4930 4928 4937 4943 4951 4970 4969 4989 4994 5001 4995 4990 4985 4977 4983 4985 4989 5002 5001 5008 5006 5006 5008 5013 5002 4987 4995 4989 4988 4997 4986 4977 4971 4961 4963 4959 4955 4944 4933 4906 4906 4913 4907 4892 4895 4879 4860 4827 4815 4784 4790 4777 4771 4772 4771 4760 4769 4777 4768 4769 4773 4784 4772 4767 4773 4773 4774 4775 4771 4778 4769 4761 4768 4782 4792 4819 4820 4830 4848 4876 4879 4895 4884 4884 4881 4877 4881 4878 4883 4895 4897 4904 4909 4920 4923 4939 4941 4957 4952 4951 4957 4957 4953 4953 4947 4940 4949 4946 4935 4926 4921 4906 4902 4901 4906 4896 4902 4905 4909 4922 4930 4935 4937 4955 4949 4941 4935 4928 4924 4926 4927 4920 4917 4909 4903 4887 4889 4881 4871 4853 4845 4825 4822 4804 4797 4781 4782 4775 4765 4750 4746 4722 4722 4702 4696 4675 4655 4618 4606 4565 4548 4505 4495 4446 4436 4405 4388 4337 4323 4297 4291 4268 4259 4244 4240 4231 4227 4217 4211 4189 4192 4184 4185 4173 4178 4179 4173 4168 4174
3943 3953 3962 3976 3997 3985 3989 3984 3982 3980 3985 3986 3990 4011 4020 4026 4027 4052 4074 4093 4118 4126 4145 4157 4179 4184 4197 4204 4212 4228 4244 4248 4253 4278 4304 4333 4361 4384 4411 4423 4443 4473 4499 4527 4566 4583 4605 4617 4627 4646 4664 4660 4665 4670 4674 4672 4664 4699 4722 4731 4741 4750 4764 4785 4808 4808 4817 4823 4834 4845 4867 4880 4893 4902 4912 4930 4953 4953 4967 4984 5008 5028 5062 5078 5114 5103 5108 5106 5094 5118 5136 5162 5191 5180 5175 5182 5186 5183 5179 5182 5183 5181 5190 5181 5175 5169 5162 5169 5166 5170 5171 5172 5179 5176 5173 5164 5150 5162 5165 5179 5197 5180 5172 5178 5194 5193 5202 5205 5226 5221 5229 5229 5239 5224 5212 5189 5165 5164 5148 5143 5130 5127 5127 5133 5144 5141 5152 5160 5162 5192 5219 5235 5235 5277 5313 5341 5387 5369 5375 5373 5375 5383 5392 5408 5432 5448 5465 5473 5470 5506 5534 5556 5594 5570 5570 5563 5562 5552 5541 5534 5529 5526 5529 5520 5514 5513 5506 5508 5507 5480 5464 5450 5438 5422 5401 5393 5380 5383 5379 5389 5400 5363 5328 5309 5278 5260 5236 5233 5230 5202 5177 5151 5122 5139 5144 5146 5157 5148 5147 5132 5119 5129 5139 5140 5149 5149 5152 5170 5196 5181 5180 5171 5164 5153 5138 5132 5118 5121 5127 5131 5131 5123 5112 5105 5103 5099 5103 5099 5106 5091 5084 5084 5102 5086 5086 5081 5081 5083 5096 5112 5149 5136 5139 5137 5123 5138 5146 5143 5129 5156 5165 5163 5161 5172 5181 5187 5199 5182 5178 5170 5177 5149 5139 5127 5118 5101 5093 5089 5095 5076 5069 5059 5053 5053 5063 5073 5089 5089 5101 5099 5116 5096 5081 5079 5077 5069 5066 5058 5057 5043 5036 5040 5049 5031 5018 4992 4960 4965 4962 4960 4953 4945 4937 4930 4924 4927 4933 4939 4948 4955 4967 4979 5002 4987 4988 4976 4961 4970 4974 4982 4993 4992 4997 4995 4990 4989 4990 4993 4991 4985 4986 4983 4986 4979 4969 4961 4946 4942 4942 4933 4920 4916 4906 4888 4868 4881 4880 4875 4878 4851 4823 4802 4777 4770 4762 4763 4775 4769 4774 4767 4779 4771 4768 4768 4772 4771 4771 4767 4757 4768 4774 4779 4780 4777 4775 4772 4767 4787 4798 4819 4840 4854 4873 4893 4923 4911 4905 4903 4897 4898 4903 4894 4885 4902 4907 4910 4908 4925 4936 4934 4930 4945 4951 4944 4923 4938 4938 4938 4926 4929 4932 4922 4914 4906 4903 4896 4898 4901 4909 4899 4895 4901 4911 4923 4948 4941 4944 4945 4938 4932 4930 4921 4917 4921 4924 4915 4917 4906 4896 4887 4886 4870 4854 4840 4818 4814 4804 4798 4783 4782 4769 4775 4770 4758 4751 4746 4748 4722 4701 4688 4674 4637 4601 4573 4534 4516 4496 4475 4471 4425 4386 4356 4318 4307 4296 4275 4258 4242 4235 4228 4230 4215 4210 4200 4195 4192 4198 4191 4203 4188 4182 4173 4176
3920 3928 3926 3948 3946 3960 3966 3967 3968 3958 3962 3968 3976 3994 3991 4004 4012 4033 4044 4075 4080 4105 4122 4145 4148 4167 4171 4186 4196 4222 4226 4250 4255 4274 4297 4340 4341 4380 4392 4420 4441 4483 4499 4535 4552 4607 4617 4639 4641 4653 4657 4666 4675 4688 4684 4682 4697 4709 4707 4729 4730 4744 4761 4783 4785 4810 4818 4826 4825 4834 4848 4882 4890 4918 4923 4939 4939 4957 4974 4994 4999 5029 5046 5079 5077 5100 5108 5108 5112 5114 5126 5158 5150 5176 5180 5180 5182 5186 5187 5185 5182 5179 5185 5188 5176 5162 5163 5168 5168 5177 5173 5175 5176 5180 5180 5169 5177 5173 5173 5186 5184 5187 5198 5195 5203 5213 5222 5224 5225 5230 5236 5234 5235 5232 5224 5195 5196 5173 5165 5149 5143 5132 5131 5136 5127 5131 5145 5159 5172 5199 5209 5238 5250 5284 5283 5319 5326 5360 5373 5378 5374 5378 5382 5397 5413 5445 5456 5481 5487 5510 5509 5543 5542 5563 5582 5579 5576 5566 5553 5549 5547 5541 5536 5527 5532 5525 5522 5519 5500 5479 5480 5454 5441 5416 5410 5392 5392 5384 5386 5393 5375 5353 5344 5313 5302 5267 5247 5226 5217 5188 5181 5148 5161 5151 5139 5145 5145 5151 5152 5144 5144 5134 5127 5133 5133 5142 5152 5170 5160 5169 5177 5165 5163 5140 5138 5127 5127 5116 5123 5135 5126 5117 5120 5102 5098 5085 5086 5085 5080 5072 5071 5067 5066 5070 5071 5064 5064 5063 5063 5078 5087 5110 5127 5133 5131 5134 5135 5135 5145 5151 5148 5154 5162 5170 5172 5178 5171 5173 5172 5155 5151 5135 5137 5120 5113 5090 5083 5079 5070 5055 5059 5052 5053 5042 5050 5070 5069 5082 5083 5085 5089 5090 5091 5077 5070 5056 5056 5045 5049 5042 5040 5028 5030 5029 5024 4997 4995 4975 4964 4964 4956 4943 4938 4930 4931 4926 4924 4932 4933 4937 4944 4959 4955 4959 4968 4968 4976 4970 4969 4976 4973 4977 4985 4987 4983 4971 4975 4978 4979 4976 4973 4971 4969 4964 4962 4954 4942 4921 4921 4914 4910 4895 4889 4875 4876 4863 4856 4853 4842 4827 4813 4783 4783 4760 4745 4741 4745 4756 4759 4756 4760 4762 4763 4763 4762 4758 4765 4773 4771 4770 4773 4788 4781 4776 4784 4787 4795 4802 4804 4819 4833 4873 4880 4901 4900 4924 4927 4927 4922 4916 4912 4912 4918 4922 4914 4921 4925 4937 4928 4933 4935 4942 4945 4954 4949 4937 4932 4937 4928 4919 4911 4898 4897 4881 4884 4880 4892 4899 4898 4896 4894 4893 4897 4914 4919 4940 4939 4943 4934 4919 4919 4911 4920 4917 4911 4902 4905 4904 4895 4882 4876 4859 4852 4838 4830 4809 4806 4804 4802 4795 4789 4786 4775 4761 4766 4763 4751 4740 4729 4704 4694 4657 4641 4594 4582 4530 4518 4487 4479 4441 4428 4385 4370 4319 4305 4278 4264 4233 4233 4219 4219 4203 4205 4206 4202 4192 4196 4191 4191 4189 4178 4167 4167
3890 3893 3888 3909 3916 3932 3941 3950 3959 3949 3941 3951 3958 3971 3978 3989 3993 4017 4041 4057 4069 4093 4120 4133 4138 4152 4155 4173 4180 4204 4221 4238 4252 4279 4322 4331 4343 4375 4408 4430 4452 4495 4538 4551 4569 4611 4658 4658 4669 4676 4685 4682 4682 4696 4702 4707 4723 4726 4727 4732 4726 4754 4777 4780 4785 4805 4830 4827 4825 4834 4844 4872 4894 4919 4943 4946 4949 4966 4994 5001 5008 5038 5071 5074 5069 5093 5111 5115 5120 5128 5140 5140 5133 5155 5174 5177 5188 5184 5192 5188 5186 5186 5192 5178 5165 5154 5147 5158 5166 5170 5174 5176 5179 5184 5192 5188 5195 5187 5184 5196 5201 5208 5213 5220 5233 5243 5257 5252 5246 5252 5254 5248 5246 5234 5231 5208 5206 5180 5173 5151 5146 5131 5128 5121 5115 5127 5146 5164 5179 5209 5239 5251 5260 5282 5297 5312 5313 5344 5368 5367 5365 5371 5380 5398 5418 5445 5468 5482 5492 5510 5515 5533 5529 5562 5593 5590 5592 5567 5538 5546 5557 5549 5550 5542 5547 5535 5533 5516 5499 5488 5481 5454 5433 5411 5395 5392 5392 5387 5387 5384 5375 5349 5312 5305 5302 5262 5220 5221 5220 5188 5158 5159 5169 5151 5138 5143 5143 5152 5159 5152 5154 5137 5125 5125 5120 5133 5149 5152 5152 5164 5181 5170 5168 5145 5124 5126 5129 5122 5124 5128 5128 5124 5130 5107 5096 5079 5072 5069 5061 5052 5040 5047 5045 5047 5048 5043 5043 5037 5032 5053 5067 5091 5119 5116 5121 5131 5148 5141 5151 5152 5161 5158 5162 5169 5179 5163 5153 5156 5163 5144 5137 5126 5119 5109 5105 5071 5045 5052 5053 5041 5035 5043 5051 5040 5035 5056 5063 5071 5077 5077 5081 5081 5083 5071 5069 5053 5046 5040 5044 5039 5033 5030 5029 5025 5021 5000 4992 4976 4957 4958 4955 4947 4929 4931 4931 4922 4916 4926 4933 4931 4933 4937 4935 4943 4945 4960 4978 4973 4969 4969 4968 4972 4985 4978 4977 4969 4961 4970 4973 4965 4954 4958 4958 4953 4944 4934 4925 4908 4904 4894 4891 4878 4866 4861 4863 4850 4843 4828 4811 4793 4764 4766 4768 4738 4704 4716 4724 4735 4752 4747 4751 4748 4751 4756 4762 4756 4759 4765 4773 4770 4778 4786 4788 4790 4793 4802 4816 4819 4828 4836 4843 4877 4907 4904 4902 4920 4934 4939 4942 4932 4924 4929 4936 4933 4931 4936 4938 4939 4935 4934 4932 4944 4955 4955 4956 4944 4934 4931 4918 4911 4902 4889 4878 4873 4862 4876 4889 4893 4901 4888 4881 4885 4888 4902 4911 4924 4926 4930 4933 4922 4910 4911 4922 4914 4908 4903 4893 4891 4880 4873 4869 4847 4827 4825 4822 4807 4794 4801 4806 4798 4792 4789 4784 4775 4771 4763 4753 4740 4727 4715 4714 4671 4640 4612 4603 4550 4522 4502 4494 4448 4415 4397 4390 4337 4307 4272 4251 4233 4223 4223 4220 4203 4184 4195 4203 4200 4206 4194 4189 4175 4153 4159 4159
3858 3868 3873 3886 3895 3914 3917 3933 3935 3939 3942 3940 3942 3956 3963 3981 3981 4004 4015 4046 4056 4081 4098 4132 4140 4151 4153 4172 4172 4193 4202 4232 4244 4271 4283 4320 4343 4372 4391 4443 4465 4508 4515 4563 4580 4612 4624 4669 4690 4697 4690 4695 4702 4715 4713 4723 4734 4745 4744 4746 4753 4772 4765 4777 4786 4797 4805 4829 4828 4834 4844 4870 4890 4922 4923 4954 4958 4966 4977 5008 5023 5045 5046 5078 5082 5093 5098 5122 5130 5139 5126 5129 5133 5137 5146 5168 5169 5173 5183 5191 5187 5190 5180 5169 5161 5144 5154 5151 5157 5163 5170 5178 5180 5185 5187 5199 5195 5197 5206 5215 5222 5232 5232 5241 5247 5269 5269 5284 5282 5278 5263 5261 5246 5228 5225 5203 5197 5171 5167 5139 5137 5120 5122 5105 5110 5117 5139 5173 5181 5219 5227 5270 5276 5287 5295 5319 5318 5336 5337 5358 5353 5363 5377 5399 5420 5452 5457 5488 5500 5524 5525 5546 5550 5566 5565 5599 5594 5575 5568 5543 5544 5550 5549 5547 5545 5536 5529 5513 5510 5496 5479 5450 5428 5401 5405 5391 5388 5386 5386 5384 5379 5357 5337 5295 5285 5259 5254 5218 5204 5187 5187 5164 5155 5147 5157 5149 5149 5158 5150 5151 5147 5136 5134 5122 5122 5121 5126 5138 5142 5154 5157 5169 5168 5150 5144 5124 5118 5119 5123 5127 5128 5122 5110 5100 5086 5064 5064 5059 5049 5037 5038 5038 5030 5025 5020 5018 5008 5010 5023 5035 5043 5070 5072 5092 5109 5124 5125 5133 5142 5146 5154 5158 5166 5165 5153 5145 5142 5136 5132 5122 5125 5113 5109 5092 5076 5046 5051 5033 5021 5021 5030 5034 5027 5033 5045 5057 5053 5065 5064 5066 5073 5071 5062 5056 5053 5043 5041 5026 5032 5038 5034 5031 5031 5024 5013 4991 4991 4981 4975 4956 4962 4961 4951 4935 4927 4916 4924 4925 4923 4923 4927 4921 4926 4934 4939 4949 4959 4976 4970 4964 4962 4959 4962 4964 4971 4967 4969 4971 4961 4957 4955 4950 4949 4949 4934 4913 4902 4883 4886 4870 4872 4863 4860 4841 4841 4834 4828 4808 4798 4770 4766 4749 4733 4723 4719 4696 4693 4709 4715 4731 4726 4729 4737 4748 4751 4748 4753 4757 4756 4760 4773 4790 4791 4804 4804 4813 4817 4830 4836 4855 4860 4888 4884 4909 4916 4920 4931 4953 4955 4947 4950 4946 4943 4945 4948 4957 4952 4948 4943 4936 4937 4948 4945 4957 4959 4952 4947 4935 4922 4906 4898 4881 4877 4872 4871 4873 4875 4886 4881 4874 4881 4881 4886 4897 4902 4921 4916 4921 4922 4926 4918 4903 4906 4911 4914 4911 4901 4887 4880 4862 4857 4835 4836 4815 4807 4803 4809 4801 4804 4799 4801 4794 4791 4786 4775 4766 4756 4743 4733 4718 4708 4675 4659 4614 4586 4545 4541 4508 4486 4444 4441 4400 4378 4332 4318 4253 4243 4225 4236 4232 4219 4207 4206 4189 4191 4199 4197 4191 4192 4170 4171 4159 4148
3816 3840 3848 3867 3893 3894 3906 3917 3927 3928 3931 3933 3932 3951 3959 3968 3963 3995 4020 4040 4056 4081 4111 4132 4160 4149 4153 4161 4168 4187 4205 4224 4253 4262 4289 4318 4360 4376 4409 4444 4503 4510 4540 4564 4608 4616 4647 4678 4737 4704 4699 4703 4714 4723 4732 4744 4768 4758 4764 4762 4768 4775 4787 4785 4794 4799 4811 4817 4820 4834 4848 4875 4926 4917 4925 4940 4969 4967 4987 5006 5046 5038 5056 5062 5086 5088 5108 5116 5150 5129 5117 5120 5127 5134 5147 5155 5163 5170 5182 5182 5175 5179 5178 5164 5141 5150 5156 5162 5170 5170 5175 5181 5184 5186 5186 5189 5193 5205 5218 5231 5260 5251 5254 5258 5266 5277 5290 5293 5311 5284 5270 5258 5242 5236 5225 5205 5184 5172 5153 5140 5118 5123 5120 5111 5091 5130 5151 5177 5187 5217 5241 5271 5311 5303 5315 5322 5322 5334 5341 5339 5326 5355 5382 5406 5451 5452 5472 5490 5521 5528 5538 5550 5573 5562 5569 5583 5611 5576 5562 5553 5548 5550 5545 5547 5547 5530 5520 5511 5501 5492 5474 5443 5382 5402 5397 5393 5381 5387 5384 5385 5390 5357 5322 5305 5277 5263 5238 5220 5194 5191 5179 5167 5153 5156 5163 5156 5153 5153 5148 5146 5144 5132 5124 5121 5122 5123 5125 5130 5129 5145 5155 5160 5172 5152 5136 5123 5107 5111 5118 5120 5140 5107 5091 5074 5051 5047 5040 5038 5031 5024 5017 5017 5018 5002 4992 4984 4959 4987 5006 5016 5037 5044 5059 5077 5103 5112 5125 5131 5143 5149 5162 5162 5182 5158 5140 5129 5111 5116 5118 5108 5102 5100 5096 5076 5049 5033 5020 5009 4985 5008 5014 5014 5007 5026 5040 5046 5058 5060 5063 5065 5078 5060 5043 5040 5032 5034 5028 5025 5020 5026 5026 5029 5038 5021 5009 4993 4974 4975 4971 4969 4976 4964 4955 4937 4928 4921 4924 4924 4929 4926 4932 4922 4917 4927 4941 4944 4966 4962 4962 4954 4958 4954 4958 4960 4970 4961 4962 4958 4958 4949 4943 4943 4946 4933 4918 4898 4868 4870 4869 4861 4851 4849 4845 4834 4825 4819 4807 4795 4771 4756 4735 4723 4697 4703 4692 4681 4664 4684 4697 4696 4694 4705 4722 4733 4759 4745 4747 4748 4751 4759 4771 4781 4794 4801 4811 4819 4833 4834 4846 4853 4872 4884 4898 4911 4929 4935 4949 4963 4988 4968 4966 4964 4960 4959 4956 4963 4972 4961 4950 4943 4930 4942 4945 4954 4974 4951 4945 4928 4914 4901 4890 4875 4855 4865 4864 4873 4879 4880 4877 4873 4871 4878 4885 4895 4904 4911 4911 4911 4917 4912 4912 4904 4902 4911 4914 4908 4899 4889 4879 4864 4852 4841 4827 4815 4784 4806 4813 4815 4823 4813 4807 4798 4793 4781 4766 4762 4744 4733 4719 4711 4712 4674 4636 4603 4547 4538 4511 4499 4473 4453 4429 4399 4367 4340 4298 4261 4190 4229 4238 4234 4217 4218 4209 4204 4192 4202 4198 4200 4204 4181 4168 4153 4126
3823 3829 3828 3841 3845 3864 3880 3902 3901 3916 3925 3932 3940 3957 3956 3972 3974 3994 4004 4039 4040 4076 4092 4126 4116 4134 4143 4151 4160 4184 4184 4206 4209 4238 4263 4305 4310 4363 4378 4423 4434 4492 4513 4545 4558 4597 4621 4661 4651 4685 4696 4705 4713 4734 4736 4754 4746 4758 4764 4771 4767 4773 4775 4784 4787 4797 4800 4809 4815 4835 4836 4856 4862 4898 4909 4915 4923 4949 4960 4983 4984 5005 5017 5030 5044 5068 5074 5087 5094 5112 5113 5110 5117 5128 5139 5145 5151 5164 5168 5181 5177 5174 5173 5169 5173 5162 5168 5174 5169 5173 5176 5187 5184 5191 5183 5181 5195 5212 5218 5232 5239 5260 5267 5272 5275 5285 5283 5289 5279 5278 5280 5260 5259 5250 5236 5209 5208 5181 5171 5151 5151 5137 5132 5131 5146 5164 5166 5198 5196 5224 5234 5265 5264 5301 5319 5334 5330 5337 5335 5333 5343 5349 5360 5392 5400 5433 5453 5481 5491 5529 5535 5545 5537 5542 5550 5555 5555 5558 5569 5559 5563 5559 5556 5549 5536 5518 5519 5511 5513 5499 5492 5467 5463 5430 5412 5406 5403 5397 5393 5385 5380 5361 5356 5329 5318 5279 5261 5230 5233 5204 5196 5175 5176 5162 5163 5162 5159 5156 5146 5141 5138 5127 5123 5117 5121 5125 5127 5129 5132 5145 5139 5147 5144 5151 5147 5125 5120 5103 5094 5098 5089 5077 5079 5056 5055 5034 5029 5023 5022 5011 5005 4998 4991 4975 4976 4968 4978 4976 4971 4987 4995 5012 5028 5055 5065 5096 5107 5123 5127 5146 5141 5146 5140 5146 5143 5122 5119 5102 5101 5092 5095 5090 5086 5068 5057 5020 5017 5001 5016 5015 5000 5003 5009 5025 5022 5029 5036 5054 5051 5053 5048 5048 5041 5029 5034 5034 5027 5028 5024 5020 5019 5021 5016 5014 5014 5001 5001 4977 4975 4973 4969 4964 4957 4933 4933 4918 4923 4921 4918 4921 4921 4918 4918 4917 4915 4921 4928 4947 4943 4935 4941 4941 4943 4951 4944 4945 4945 4941 4940 4941 4937 4936 4928 4922 4911 4896 4890 4861 4860 4855 4851 4837 4831 4827 4821 4813 4806 4795 4782 4748 4734 4711 4713 4700 4686 4674 4676 4669 4660 4662 4670 4678 4682 4705 4711 4729 4737 4738 4743 4755 4759 4769 4779 4795 4801 4820 4817 4827 4830 4841 4856 4878 4894 4909 4919 4945 4954 4964 4965 4972 4985 4986 4980 4975 4974 4968 4970 4975 4967 4956 4950 4945 4935 4943 4938 4936 4938 4919 4920 4896 4894 4877 4885 4871 4874 4876 4871 4878 4871 4870 4875 4877 4880 4897 4895 4908 4901 4897 4899 4895 4900 4902 4909 4917 4910 4908 4904 4892 4885 4865 4867 4850 4845 4834 4833 4824 4813 4826 4819 4824 4817 4800 4799 4781 4784 4772 4756 4729 4716 4698 4697 4673 4662 4617 4602 4550 4534 4505 4496 4467 4443 4400 4400 4366 4350 4304 4307 4263 4248 4251 4247 4240 4231 4227 4221 4219 4210 4207 4197 4182 4175 4159 4145
3825 3824 3829 3829 3827 3843 3864 3872 3880 3899 3926 3929 3941 3948 3966 3966 3971 3992 4023 4029 4028 4067 4110 4106 4094 4116 4130 4143 4153 4167 4179 4183 4189 4221 4256 4276 4284 4329 4368 4394 4414 4468 4514 4531 4550 4585 4618 4619 4612 4641 4660 4688 4715 4726 4744 4746 4740 4752 4762 4764 4761 4771 4777 4776 4781 4792 4803 4805 4805 4822 4835 4842 4847 4877 4897 4902 4904 4926 4939 4953 4962 4979 4989 5008 5023 5041 5056 5065 5069 5085 5083 5102 5115 5129 5157 5150 5148 5161 5166 5173 5171 5171 5174 5178 5186 5185 5198 5184 5175 5174 5174 5185 5185 5187 5177 5189 5202 5218 5237 5240 5248 5260 5278 5284 5291 5292 5295 5275 5260 5265 5273 5262 5258 5249 5243 5223 5217 5192 5170 5164 5166 5153 5144 5155 5170 5191 5214 5215 5211 5235 5260 5258 5251 5292 5330 5333 5337 5342 5348 5346 5349 5361 5374 5391 5395 5428 5449 5469 5483 5514 5545 5538 5525 5531 5533 5538 5541 5545 5551 5558 5575 5562 5570 5550 5535 5518 5502 5512 5522 5508 5502 5490 5481 5452 5431 5424 5415 5412 5410 5397 5391 5368 5344 5339 5342 5299 5261 5261 5262 5235 5213 5196 5190 5181 5177 5166 5157 5148 5137 5137 5136 5119 5105 5114 5120 5127 5134 5127 5129 5131 5138 5131 5126 5130 5141 5124 5119 5093 5070 5071 5064 5055 5046 5035 5039 5017 5008 5010 5015 4998 4981 4980 4977 4962 4946 4961 4978 4970 4964 4973 4975 4994 5009 5036 5052 5078 5107 5108 5117 5123 5131 5117 5109 5115 5122 5110 5115 5099 5099 5086 5081 5083 5084 5062 5045 5020 5001 5014 5030 5017 4999 4998 4994 5012 5028 5020 5023 5032 5041 5036 5030 5023 5012 5024 5032 5024 5015 5014 5020 5016 5015 5010 5006 5005 5004 5008 5017 4993 4978 4972 4970 4959 4956 4934 4927 4919 4925 4913 4908 4906 4918 4905 4905 4902 4905 4903 4904 4918 4925 4925 4929 4925 4922 4922 4923 4927 4927 4923 4918 4919 4914 4916 4911 4900 4882 4881 4885 4864 4856 4850 4845 4827 4809 4808 4799 4798 4791 4785 4779 4743 4709 4708 4706 4689 4673 4668 4669 4661 4648 4646 4643 4652 4654 4674 4688 4706 4722 4728 4735 4747 4764 4770 4781 4790 4795 4809 4811 4819 4821 4842 4860 4885 4917 4915 4925 4949 4978 4969 4975 4978 4994 4991 4993 4990 4994 4983 4984 4973 4965 4953 4950 4936 4923 4934 4931 4933 4926 4925 4923 4909 4890 4899 4905 4894 4895 4878 4867 4869 4859 4868 4876 4878 4878 4888 4890 4899 4898 4898 4895 4891 4888 4894 4907 4909 4915 4906 4905 4893 4886 4881 4876 4865 4846 4848 4848 4835 4821 4825 4815 4819 4822 4811 4810 4791 4790 4769 4758 4727 4696 4694 4698 4671 4648 4620 4607 4563 4536 4517 4502 4472 4432 4415 4407 4383 4363 4354 4365 4320 4291 4279 4261 4254 4243 4237 4232 4225 4225 4212 4201 4183 4158 4160 4152
3815 3813 3812 3820 3817 3820 3828 3843 3855 3876 3891 3918 3921 3930 3940 3958 3967 3983 3997 4027 4038 4055 4061 4096 4099 4108 4116 4138 4141 4155 4153 4159 4173 4203 4217 4261 4269 4302 4322 4373 4394 4453 4463 4516 4543 4578 4573 4586 4594 4608 4629 4672 4682 4711 4726 4747 4745 4750 4753 4763 4767 4775 4765 4765 4777 4789 4793 4806 4811 4815 4820 4830 4843 4868 4867 4895 4898 4915 4912 4930 4937 4962 4966 4991 5000 5017 5026 5048 5058 5078 5081 5102 5101 5117 5128 5152 5154 5166 5166 5174 5172 5168 5174 5183 5187 5194 5190 5189 5188 5177 5187 5195 5195 5195 5195 5198 5202 5222 5226 5244 5247 5257 5271 5296 5293 5297 5279 5258 5260 5252 5253 5260 5254 5247 5237 5223 5220 5203 5192 5170 5168 5167 5175 5177 5193 5218 5220 5239 5245 5246 5245 5259 5266 5287 5295 5334 5343 5346 5352 5355 5365 5372 5384 5403 5410 5435 5439 5463 5467 5501 5511 5540 5537 5527 5522 5524 5524 5532 5536 5547 5545 5546 5551 5548 5547 5520 5522 5513 5508 5511 5515 5513 5502 5469 5467 5447 5436 5429 5418 5405 5406 5378 5373 5344 5336 5314 5314 5291 5286 5264 5246 5207 5206 5196 5183 5169 5163 5143 5145 5135 5125 5110 5119 5117 5121 5132 5120 5116 5114 5114 5113 5114 5113 5105 5108 5111 5107 5083 5076 5054 5047 5033 5021 5001 4991 4987 4997 4995 4994 4986 4981 4966 4962 4953 4956 4955 4954 4963 4966 4966 4969 4980 4995 5029 5030 5060 5064 5086 5097 5098 5094 5082 5084 5083 5083 5081 5086 5083 5083 5075 5079 5079 5068 5053 5045 5017 5028 5024 5022 5026 5014 4998 5000 5004 4998 5000 5007 5013 5014 5021 5019 5004 5013 5023 5018 5015 5008 4995 5001 5009 5003 4998 4999 4999 5004 5010 5008 5000 4993 4969 4967 4948 4941 4923 4917 4908 4899 4898 4891 4880 4882 4880 4887 4884 4883 4885 4890 4899 4903 4914 4913 4909 4902 4894 4904 4915 4909 4908 4908 4905 4905 4903 4898 4886 4879 4862 4856 4856 4853 4844 4833 4818 4815 4797 4794 4792 4784 4775 4766 4739 4733 4707 4691 4677 4674 4657 4662 4658 4645 4631 4630 4636 4643 4651 4661 4686 4693 4717 4717 4735 4746 4769 4776 4790 4796 4811 4806 4817 4827 4846 4856 4886 4887 4909 4927 4949 4949 4962 4970 4973 4982 4992 4995 5001 4993 4988 4984 4971 4962 4943 4936 4928 4937 4940 4937 4940 4933 4935 4930 4927 4927 4927 4919 4906 4897 4874 4876 4873 4870 4867 4874 4881 4882 4890 4895 4900 4899 4904 4895 4888 4886 4880 4885 4897 4898 4899 4898 4892 4896 4897 4894 4888 4880 4865 4859 4850 4848 4840 4828 4815 4816 4814 4806 4783 4778 4758 4749 4728 4718 4684 4679 4666 4646 4608 4595 4561 4558 4526 4519 4488 4468 4423 4412 4399 4398 4384 4379 4362 4348 4314 4299 4274 4264 4248 4239 4225 4226 4215 4208 4194 4188 4173 4174
