304 305 304 305 304 304 307 313 312 318 320 321 319 317 318 316 317 316 314 313 311 310 309 306 307 306 303 297 299 296 294 292 294 294 290 290 290 288 290 287 286 283 280 273 273 265 262 255 258 255 250 252 253 253 255 258 254 250 249 244 240 236 234 227 221 209 205 190 190 178 174 164 164 151 146 138 134 122 119 113 114 111 109 115 113 117 119 125 122 122 121 121 119 122 123 128 126 128 126 118 118 113 111 105 105 98 95 87 86 77 77 74 80 83 80 88 90 96 97 101 103 108 109 113 113 119 120 120 120 122 123 127 130 135 140 149 146 150 156 162 164 175 178 190 190 202 207 209 209 211 213 214 214 221 221 218 222 225 223 223 228 234 239 250 251 261 264 269 270 279 286 290 289 294 293 296 295 299 300 297 297 296 295 298 302 307 311 316 317 323 324 332 329 334 338 335 337 341 342 346 346 348 353 354 352 351 351 350 351 355 355 358 356 358 360 364 363 365 366 359 361 361 361 361 359 357 355 349 350 345 343 338 338 333 328 326 326 318 319 309 310 305 302 306 302 300 303 307 309 316 318 316 316 314 313 319 317 318 320 318 317 318 315 312 310 308 307 300 301 297 294 291 292 292 290 287 287 290 288 291 293 298 296 289 290 287 284 280 284 285 285 285 284 285 285 287 287 287 290 293 292 295 295 295 297 302 304 308 307 310 311 309 311 313 314 316 314 310 310 313 313 313 316 318 317 318 319 317 320 325 327 332 331 334 338 339 334 333 334 334 332 333 332 335 333 332 330 325 325 320 317 314 311 304 304 297 297 290 290 287 285 277 272 265 263 254 254 250 253 253 251 251 253 258 258 262 257 253 255 250 252 253 251 250 249 247 248 245 243 241 239 235 237 237 237 236 233 228 231 229 228 227 229 239 240 250 257 264 263 269 272 276 274 277 280 288 289 301 306 310 310 315 316 320 318 324 326 327 329 334 335 338 334 334 336 330 333 333 331 330 329 328 325 325 325 330 333 341 343 354 359 365 370 383 387 398 396 407 412 416 421 433 436 443 441 446 449 448 448 448 451 455 453 455 455 457 456 455 452 449 448 442 443 439 440 439 438 438 438 437 437 440 439 439 439 438 435 431 430 425 427 426 423 420 418 416 418 419 416 412 410 408 409
301 301 302 302 302 303 304 306 307 313 316 317 319 317 319 316 315 311 305 308 309 305 300 301 302 300 299 296 298 294 289 291 293 290 288 288 289 287 286 285 285 282 281 274 272 265 258 260 263 259 256 254 254 254 255 254 252 247 242 241 238 233 230 224 220 206 195 189 188 178 172 170 172 159 151 142 136 126 117 120 123 119 116 114 109 116 120 120 118 116 113 115 114 116 117 119 117 117 111 112 112 108 106 104 105 95 87 86 87 79 76 79 87 89 93 93 93 97 98 101 103 106 109 112 112 117 119 118 117 119 120 125 131 136 146 145 143 149 156 159 164 170 176 181 182 194 204 206 209 210 212 214 215 220 223 222 227 227 228 230 237 242 250 253 255 262 270 269 271 278 289 290 293 295 297 296 295 298 301 298 298 297 297 301 307 311 319 317 316 320 324 326 325 333 341 340 343 343 344 347 350 353 359 358 359 356 355 354 357 359 364 360 356 360 363 366 368 369 371 369 371 367 367 366 365 364 365 361 361 355 351 350 351 342 336 335 333 328 327 322 323 315 315 310 306 306 307 309 313 318 322 321 320 317 314 317 318 319 322 320 320 318 315 311 308 307 307 303 303 297 291 293 295 293 294 289 288 288 290 291 293 296 298 293 292 287 282 283 286 288 291 289 288 288 286 289 293 294 293 296 297 297 295 298 300 305 311 307 305 309 314 311 313 314 316 316 317 311 309 310 310 311 315 313 310 312 316 316 318 323 330 330 329 333 339 332 326 326 327 325 324 322 321 325 326 325 321 323 325 319 312 313 312 305 298 298 302 296 295 291 291 282 277 268 264 256 252 253 255 253 248 251 255 257 260 255 252 250 251 247 247 247 248 245 245 244 248 244 243 239 236 235 238 237 239 236 235 234 238 233 233 229 228 234 236 246 258 257 258 264 273 271 269 273 276 280 281 294 305 306 307 309 309 312 313 317 319 326 332 333 335 332 329 328 328 328 332 328 326 327 328 325 324 321 320 325 330 334 337 348 359 363 369 380 390 392 392 402 410 415 422 429 437 435 434 439 446 446 450 450 453 452 451 452 451 456 457 454 449 447 445 438 433 436 441 437 437 436 437 437 440 436 435 433 435 430 427 422 416 420 427 424 424 419 418 417 422 418 415 407 402 403 404
298 298 298 299 300 303 302 303 304 311 311 315 315 316 315 315 313 310 308 305 303 301 300 296 295 295 294 293 293 293 293 292 291 288 288 287 286 285 285 284 281 280 277 272 270 265 267 266 264 265 261 254 255 254 252 251 249 245 244 240 236 229 228 222 216 201 199 185 181 176 177 174 170 163 158 144 139 130 131 127 127 128 125 119 118 118 117 119 117 114 114 114 112 111 114 116 115 113 110 107 104 102 102 101 99 91 91 84 81 77 81 82 88 95 96 100 102 102 101 104 105 107 111 117 118 119 117 119 119 120 120 124 129 135 137 142 143 147 149 157 159 165 169 177 180 190 193 204 206 209 211 217 218 221 219 221 224 228 229 232 238 247 249 259 262 264 263 269 269 274 280 291 294 296 295 298 297 297 296 299 300 298 301 302 306 313 313 318 317 317 321 326 328 334 335 342 343 345 347 349 350 355 356 362 361 359 358 355 358 362 361 362 363 364 366 369 371 372 373 376 373 369 371 372 371 371 369 369 366 364 364 362 359 351 351 346 342 336 334 331 327 320 321 316 315 312 311 311 315 321 322 329 327 321 321 319 318 320 319 320 320 320 317 312 310 307 306 304 302 298 298 295 294 294 292 290 288 287 289 292 294 298 296 294 294 288 290 286 289 293 293 294 294 293 293 293 297 303 302 303 303 303 303 305 304 307 305 306 306 307 308 311 312 315 314 317 316 311 311 308 307 306 308 309 309 307 311 316 316 321 323 331 332 331 326 326 323 319 319 318 316 313 317 321 322 323 322 322 321 320 318 315 312 307 304 297 298 300 297 291 291 284 279 268 265 257 258 257 256 256 254 251 253 255 251 247 249 247 244 242 242 241 240 238 238 238 239 240 240 236 235 234 232 235 234 235 236 235 234 234 234 231 231 233 233 242 242 248 252 258 260 267 270 272 273 277 280 289 291 302 305 307 307 306 309 314 318 326 327 331 328 326 325 323 323 323 322 322 323 325 324 320 321 318 319 321 323 329 333 345 348 361 367 380 380 388 391 399 403 414 419 425 425 429 429 430 435 443 446 451 450 451 452 453 455 461 460 458 452 446 442 435 437 434 431 433 434 435 434 435 431 431 431 426 426 421 421 416 416 415 415 420 418 417 417 413 414 416 412 402 403 401 400
297 297 295 297 298 300 301 302 301 308 312 312 316 313 311 309 308 308 305 303 302 297 294 292 291 290 288 288 288 289 289 292 298 289 286 286 285 284 283 281 275 275 273 269 265 265 266 267 270 265 263 258 258 253 252 250 248 243 241 237 234 229 226 219 213 201 191 181 169 171 170 170 174 164 155 145 134 134 133 133 136 134 131 125 120 121 123 119 117 114 111 113 111 112 116 114 114 109 104 101 96 97 95 97 99 91 87 83 78 80 81 87 99 98 102 105 114 108 106 108 111 112 119 120 128 120 120 120 121 121 122 127 137 137 140 140 140 146 150 156 160 166 173 176 180 188 197 201 207 208 211 216 224 222 222 224 227 230 231 236 245 249 256 263 277 268 266 266 263 276 285 291 300 296 295 296 297 296 295 299 303 303 306 307 312 313 315 317 317 321 326 327 330 336 341 342 345 347 351 350 352 356 360 361 364 360 361 360 362 364 366 365 363 370 375 378 383 380 379 378 378 375 375 375 376 375 373 371 369 369 369 369 372 363 358 353 351 342 336 335 330 328 325 321 320 316 315 318 324 325 328 331 338 327 325 323 321 320 320 320 321 319 317 313 308 307 306 304 302 300 298 298 296 293 291 287 282 286 290 292 297 298 299 298 299 295 294 294 297 298 300 299 298 300 300 302 308 309 311 311 314 310 309 308 309 308 308 305 301 306 309 310 311 311 312 316 323 313 309 307 305 306 307 305 305 308 311 311 314 316 322 327 336 327 321 318 311 313 313 311 309 311 313 318 326 321 320 319 324 316 312 312 317 306 301 298 299 298 296 293 294 282 274 265 258 258 256 257 260 256 255 255 260 252 247 244 242 239 236 234 235 235 234 232 228 231 234 234 238 232 229 227 225 228 230 231 236 231 232 232 236 232 230 230 231 239 245 245 245 251 258 262 271 270 274 274 279 284 292 298 306 306 309 306 307 313 320 323 334 326 324 320 319 318 319 317 316 314 314 317 325 319 318 315 313 317 323 325 329 339 350 358 369 377 384 388 388 399 407 416 429 424 425 423 422 427 433 438 445 447 450 450 452 454 458 462 470 458 450 446 440 436 435 431 427 428 429 429 431 426 424 425 427 422 422 417 414 412 409 410 411 411 411 411 415 409 409 408 411 400 395 395 395
297 298 297 299 299 301 301 305 305 309 307 308 309 311 308 304 308 309 306 302 298 294 292 289 289 287 286 283 286 288 286 289 287 286 289 286 285 285 283 282 280 275 272 268 270 266 268 269 267 265 263 259 257 251 252 250 246 240 241 236 233 227 224 217 213 199 194 182 182 170 167 165 165 164 161 150 151 142 140 138 140 142 138 132 131 126 123 120 121 117 117 116 113 112 113 113 110 105 103 99 99 96 95 94 91 90 90 85 86 85 83 86 89 99 101 105 105 111 113 112 112 114 116 118 117 116 119 121 121 124 124 128 129 136 137 140 143 148 150 157 159 168 168 174 177 186 188 196 200 208 211 215 218 224 225 227 229 234 233 237 238 248 251 261 261 267 270 269 274 282 281 290 289 295 297 297 297 296 296 300 300 306 308 311 311 313 314 318 320 327 327 329 332 339 337 340 345 350 350 350 353 358 356 358 359 358 361 364 364 367 368 370 372 378 379 387 384 386 383 379 381 379 378 377 378 380 378 374 376 376 375 373 373 371 368 358 356 346 347 343 341 337 332 325 325 319 321 322 322 327 328 331 328 327 330 327 325 321 319 319 320 321 321 317 315 310 311 306 306 304 303 303 299 293 293 288 290 287 288 290 292 299 299 301 301 299 299 301 301 304 305 307 308 309 310 310 312 315 318 317 316 314 314 310 311 309 306 305 307 307 307 310 308 307 310 314 311 310 313 308 308 306 304 302 306 310 308 306 307 308 312 319 318 321 320 316 315 311 306 306 309 311 310 313 312 316 316 312 312 311 309 306 304 302 302 297 297 297 295 293 288 279 275 263 266 261 257 255 254 256 255 254 251 248 246 240 237 232 229 225 229 232 230 228 227 227 224 227 227 228 227 223 224 224 223 223 223 223 226 227 228 231 230 227 232 239 238 242 242 246 247 253 257 265 266 267 271 279 282 292 293 304 305 304 307 311 311 315 314 315 318 314 314 314 314 313 311 306 307 307 309 314 313 311 313 314 315 322 326 334 340 355 359 377 382 393 395 404 405 414 411 418 420 419 421 425 425 434 435 445 447 450 451 455 457 460 457 457 457 449 446 436 434 430 429 424 421 421 418 415 418 418 417 416 415 414 413 411 410 408 406 405 403 402 400 402 400 397 398 393 395 390 390
298 299 295 299 302 303 303 305 307 309 310 309 308 307 304 305 308 307 308 300 294 290 286 286 286 286 286 284 285 284 282 286 287 286 288 286 286 283 280 281 282 277 273 272 275 272 273 272 270 266 260 257 257 251 249 247 244 241 241 234 231 224 220 213 211 197 182 184 187 175 167 166 164 160 156 155 157 148 147 147 150 147 145 138 135 129 128 124 124 119 118 117 116 115 117 111 108 101 97 98 100 96 94 91 88 88 87 86 89 86 85 87 91 98 104 103 103 109 116 115 116 118 123 119 117 115 113 118 122 122 123 128 130 135 137 142 146 151 157 159 161 168 170 173 176 183 191 197 202 209 215 219 224 227 227 230 235 236 236 238 238 247 253 258 260 265 267 273 282 286 291 289 287 293 298 298 300 296 294 299 301 308 315 314 314 314 313 319 321 329 336 336 337 339 340 345 349 353 357 355 354 357 359 360 362 361 358 363 367 370 376 375 377 383 391 392 391 390 385 385 387 383 379 379 381 382 382 382 384 383 384 382 381 377 374 366 362 353 349 349 350 342 337 332 331 326 323 324 327 328 331 330 328 328 329 328 328 323 317 321 321 324 327 321 319 316 320 313 311 309 305 306 305 299 295 295 296 293 293 292 292 298 302 303 305 303 300 303 306 309 314 316 317 320 323 321 323 326 332 326 324 322 321 318 316 311 304 307 309 309 312 311 309 310 311 313 310 311 311 309 309 306 305 305 306 308 311 306 303 306 308 311 311 313 310 313 314 306 299 303 306 307 309 308 307 309 312 308 305 302 298 298 299 295 293 292 295 291 291 287 284 274 267 266 268 259 256 254 251 252 253 249 248 243 239 235 232 225 218 221 226 226 228 224 222 219 217 219 220 220 219 219 221 219 222 219 219 219 218 222 225 225 227 227 234 237 241 239 238 242 246 249 252 259 263 265 267 273 278 284 285 297 308 306 307 307 312 310 308 308 309 307 307 309 313 308 306 303 301 301 303 305 304 306 310 310 312 319 325 335 345 353 357 376 392 396 400 406 415 410 406 411 414 414 416 418 422 426 428 439 450 449 450 455 462 456 453 453 455 449 451 439 433 430 428 420 414 413 410 409 410 411 412 409 405 405 407 406 408 404 404 399 396 391 388 390 389 390 393 387 386 385 385
305 305 303 303 303 306 304 305 309 312 311 310 311 307 308 307 305 304 301 296 295 289 289 286 285 285 284 284 283 281 284 286 285 284 285 286 284 281 282 283 283 278 277 274 274 275 277 278 276 270 265 255 253 247 248 245 244 240 236 230 226 218 215 206 205 196 196 185 181 177 176 169 164 157 158 157 153 149 153 156 155 152 148 142 137 130 129 125 123 117 119 118 116 116 113 109 106 97 100 99 96 95 94 90 90 90 88 85 86 88 90 89 93 100 97 100 104 107 111 118 119 119 119 118 119 117 117 119 117 121 124 131 132 138 141 148 147 153 155 163 167 173 171 172 175 181 188 202 205 214 216 224 229 233 231 232 235 239 239 241 243 250 252 259 264 269 270 274 278 289 288 291 293 292 294 299 298 296 300 303 304 311 311 316 317 319 320 325 327 335 334 342 344 343 346 353 353 358 358 361 361 359 360 361 364 367 365 363 366 373 374 378 380 387 390 399 401 399 396 392 390 388 386 381 383 385 387 390 389 389 389 391 389 383 378 370 367 358 358 355 353 345 344 338 335 332 331 327 326 329 330 332 331 331 329 328 327 326 328 327 326 327 324 323 321 317 318 316 319 317 315 313 311 306 304 301 298 298 297 294 294 299 300 306 307 310 309 308 312 315 319 326 327 331 329 331 332 334 332 333 333 330 327 325 322 317 314 310 309 310 313 316 317 316 315 317 315 315 311 308 306 306 306 307 306 306 304 304 305 307 306 307 310 312 312 312 309 303 304 301 301 304 304 305 304 302 303 304 302 296 294 289 287 287 288 284 285 282 284 283 279 269 270 266 261 254 256 254 253 251 247 243 244 240 235 229 225 219 220 215 217 221 220 218 216 213 214 215 213 213 213 215 213 211 214 215 216 216 217 219 218 218 220 222 226 234 234 238 238 239 240 247 248 256 257 265 267 270 274 284 285 291 294 305 304 301 302 306 305 303 301 299 299 303 303 303 305 301 299 294 296 300 300 302 302 305 312 320 324 337 342 357 363 378 381 401 404 408 405 408 409 407 406 410 409 412 414 420 424 433 435 447 451 454 451 449 451 449 445 442 443 437 436 430 426 417 416 409 404 402 403 405 406 406 402 396 397 398 397 397 397 393 388 379 381 381 381 384 381 378 381 382 381
312 309 307 306 308 306 305 309 319 313 315 314 319 312 312 308 306 302 296 293 288 288 288 286 284 284 284 283 284 283 286 287 290 284 284 283 281 279 278 284 293 282 277 275 274 277 280 280 284 272 266 258 251 248 246 244 242 238 233 226 215 213 208 205 200 197 192 186 181 176 173 170 166 160 155 155 153 152 153 158 166 154 148 141 133 130 126 126 124 118 117 114 113 113 111 106 102 99 96 97 96 94 93 90 87 90 91 88 87 91 94 95 99 99 100 102 107 109 116 119 126 122 123 121 121 118 117 117 116 121 124 131 139 142 148 150 153 155 159 167 178 177 178 177 177 185 193 203 215 219 225 231 247 238 236 238 245 243 242 244 248 255 262 266 275 274 277 279 285 288 291 292 298 295 299 299 300 301 302 307 310 315 318 317 318 320 323 328 337 338 341 346 355 352 353 358 364 363 365 365 369 366 367 367 371 370 369 369 370 376 380 380 381 389 399 405 418 407 402 398 395 393 391 389 387 390 393 394 396 394 395 395 399 388 381 373 366 361 357 359 364 351 343 339 334 335 334 330 327 331 333 331 330 329 329 329 328 329 331 332 333 330 328 324 320 320 323 322 323 322 321 320 321 313 306 305 301 302 302 298 292 301 305 307 313 313 316 318 325 325 329 331 337 337 339 338 341 340 341 339 337 335 332 329 326 321 316 315 313 314 318 320 325 321 320 320 319 317 313 309 299 304 303 304 306 304 303 302 300 305 309 310 314 313 314 312 311 305 301 301 300 302 303 302 301 300 302 299 297 292 287 283 275 281 282 280 281 277 276 275 273 268 264 263 257 252 249 250 252 247 243 242 241 234 226 222 213 214 215 213 216 216 216 212 208 207 206 208 209 208 207 207 207 208 209 211 213 214 216 216 219 216 216 219 224 227 230 233 236 235 237 241 246 251 255 263 270 272 278 283 289 291 296 299 303 297 297 299 299 297 297 293 286 295 300 301 305 300 295 293 292 295 295 298 299 306 314 321 330 340 351 360 375 378 390 398 416 406 404 404 407 404 404 404 401 406 409 415 421 426 435 442 455 449 451 446 445 442 438 438 439 433 428 427 426 418 413 404 392 397 398 400 403 399 397 393 389 390 388 389 390 384 377 373 369 372 373 375 374 374 374 376 376
313 312 309 306 306 307 306 307 306 309 313 313 312 312 312 308 306 302 298 293 291 288 287 286 285 284 284 283 282 283 284 286 282 279 281 281 279 277 278 283 281 283 283 275 278 281 280 281 277 271 272 263 259 249 247 245 243 238 235 226 223 211 210 206 205 200 196 187 186 176 175 173 171 163 160 156 156 156 156 158 152 151 150 142 140 134 132 129 124 117 116 111 113 112 110 104 104 101 100 97 94 92 92 91 93 94 92 92 93 95 94 98 96 98 100 104 104 108 112 117 116 121 123 124 122 120 119 119 122 125 126 132 133 144 147 152 152 156 159 168 170 179 181 181 186 192 193 202 206 222 225 231 230 238 241 241 242 246 247 248 254 263 264 271 271 278 279 282 282 289 288 290 292 294 297 299 303 307 309 313 313 321 320 319 320 321 326 330 332 341 344 349 349 358 361 364 362 366 366 365 367 369 370 372 371 373 374 375 377 382 380 381 385 391 396 404 404 409 411 406 406 401 399 397 399 398 396 398 397 398 398 397 394 390 388 377 375 365 364 363 359 354 353 344 344 340 338 334 336 335 332 331 331 328 329 331 332 332 336 339 336 335 332 328 327 322 324 327 326 329 328 327 325 322 319 314 313 308 307 306 307 308 305 307 309 314 317 324 325 331 333 335 338 342 345 344 345 346 347 348 346 344 340 336 332 327 327 322 320 317 319 323 322 324 325 324 324 323 320 316 315 311 307 303 302 301 301 302 303 304 307 311 310 313 314 313 310 305 307 303 302 303 301 299 300 298 298 295 295 290 287 281 283 280 276 276 272 270 271 271 270 268 269 266 261 251 250 248 246 244 243 241 238 232 230 222 220 211 209 208 211 211 211 207 207 202 200 202 201 203 202 202 203 205 206 209 210 213 213 213 212 213 213 214 216 223 224 229 228 229 233 236 240 249 253 262 262 271 274 281 282 290 289 292 290 290 294 295 293 292 292 290 293 294 293 296 297 299 298 294 294 294 292 296 298 306 310 321 325 342 346 357 359 372 377 386 386 396 400 399 400 401 401 401 402 404 405 412 410 416 421 431 430 437 442 440 439 436 435 435 433 431 431 427 424 416 414 403 405 396 392 394 393 392 395 392 391 388 385 384 380 376 375 370 371 368 367 370 369 370 369 372 372
315 311 306 306 306 305 303 303 303 308 312 310 309 309 311 306 304 298 294 291 289 287 288 285 284 283 285 281 279 281 283 282 279 279 277 277 277 275 273 279 282 282 283 279 281 281 284 279 277 272 270 262 259 250 243 242 243 237 235 227 223 213 210 207 209 202 200 193 190 180 172 175 176 166 158 158 160 158 159 154 148 144 142 139 138 133 134 129 125 119 114 112 114 112 112 106 103 102 103 97 93 91 89 92 95 96 95 95 96 96 98 96 94 97 102 104 107 110 116 116 113 119 123 123 123 121 119 121 127 128 133 134 135 146 155 153 154 157 161 169 174 183 189 190 194 197 204 207 208 223 235 231 229 234 240 243 245 247 252 255 263 268 274 274 276 280 284 283 283 287 291 292 293 297 300 304 310 311 317 317 318 324 330 324 322 326 336 334 336 343 351 350 349 358 368 367 365 367 370 368 370 370 372 371 372 375 380 380 384 384 387 388 390 398 409 405 404 408 412 414 417 410 403 406 410 405 402 402 402 402 402 397 394 390 387 380 377 369 363 362 362 355 350 347 349 345 345 342 343 340 338 335 335 333 330 334 337 339 346 343 340 337 333 333 331 328 329 327 328 332 336 333 331 327 322 323 327 320 316 314 315 313 313 312 312 315 318 325 329 335 341 344 347 352 358 353 351 352 354 354 354 349 345 340 336 333 333 328 326 325 325 325 324 325 328 328 329 325 324 320 321 316 315 307 302 299 295 300 305 308 314 310 310 312 316 313 311 308 309 304 304 303 305 301 301 299 300 296 295 289 281 282 284 277 273 269 262 263 262 265 266 267 272 267 264 254 246 245 245 241 238 237 237 230 226 222 224 213 205 208 211 210 213 206 203 196 191 193 194 195 196 197 200 201 206 208 210 211 214 210 206 207 206 209 213 217 220 224 225 228 232 235 241 248 256 259 261 269 276 279 282 285 285 286 285 286 289 287 288 287 287 288 293 294 297 294 294 296 297 294 294 291 288 293 297 306 317 320 324 339 356 357 359 369 378 377 375 384 392 393 396 396 397 399 402 403 406 405 405 410 417 418 418 426 436 432 430 427 425 428 431 428 428 426 426 418 413 408 408 397 389 390 389 389 393 390 390 384 379 377 373 370 366 368 370 364 361 364 365 364 362 367 369
316 313 311 308 306 305 303 302 304 308 306 308 308 307 304 302 300 294 293 288 287 285 284 282 282 281 280 277 279 279 279 282 282 281 278 275 273 275 276 278 278 281 279 279 280 281 278 275 275 270 266 257 257 249 247 240 241 235 233 226 222 211 212 206 207 201 201 196 192 183 183 180 176 168 167 160 158 157 155 151 147 138 139 134 131 127 130 129 128 121 118 110 110 111 109 106 104 102 99 96 95 91 93 95 96 100 98 99 99 98 95 94 95 96 97 104 107 112 113 118 118 119 118 123 123 123 123 121 123 127 132 138 142 150 148 154 155 160 166 176 180 191 191 199 198 201 206 216 219 229 226 232 231 231 236 246 246 248 252 258 264 275 274 278 282 284 283 286 285 285 289 296 297 302 303 309 310 313 316 321 326 328 325 328 327 325 328 335 338 344 345 351 353 357 361 372 372 369 368 367 368 370 371 371 375 376 377 381 384 386 391 397 398 402 401 406 407 410 413 421 421 421 420 415 416 413 412 406 406 406 402 398 396 390 387 380 377 372 369 361 360 355 352 346 345 347 348 348 348 346 343 337 338 339 338 338 338 344 345 348 347 340 341 340 337 332 331 327 330 335 335 338 337 333 333 332 332 331 327 320 320 317 317 316 316 318 321 330 332 342 344 354 355 361 359 361 361 359 358 360 359 355 351 343 341 337 336 333 333 332 330 328 327 326 329 331 329 327 325 321 322 317 315 308 306 300 299 300 302 309 306 307 311 312 311 312 310 307 305 301 300 301 300 301 301 297 298 296 296 290 288 285 281 274 272 265 262 259 259 261 262 263 264 268 266 258 253 242 242 239 237 232 232 228 225 218 218 213 213 209 206 205 205 203 200 190 191 188 186 190 190 190 193 196 200 207 208 208 208 209 207 203 206 206 208 212 216 224 224 229 230 234 239 248 250 259 260 268 269 279 282 284 282 282 279 280 280 279 281 283 283 282 285 292 291 291 295 295 293 292 291 290 292 292 295 307 309 320 324 334 339 356 362 369 365 369 369 373 375 385 387 391 394 397 398 401 399 398 400 402 404 409 409 415 416 423 424 419 422 423 423 425 425 425 425 420 418 411 407 398 395 388 384 384 384 385 384 381 380 375 373 366 367 366 364 360 361 360 360 359 363 366 368
322 316 310 308 305 304 301 302 303 305 306 306 308 305 301 299 293 292 288 286 283 282 282 280 277 279 280 278 277 278 277 279 284 281 279 274 268 272 274 277 283 278 276 277 277 278 277 275 274 267 260 256 253 248 243 243 246 236 231 224 217 212 208 207 211 202 198 192 190 184 180 181 186 172 164 160 159 156 152 147 140 138 136 130 122 125 129 128 131 122 116 111 108 107 105 101 97 98 98 95 92 91 93 97 103 100 99 101 106 99 94 93 92 94 96 102 111 111 116 116 120 119 120 123 126 124 125 124 127 130 136 140 150 150 154 155 153 165 175 182 195 195 201 202 206 209 214 220 230 231 236 233 229 234 239 246 253 253 257 263 274 277 283 285 292 288 287 286 285 288 293 296 299 304 309 313 318 318 322 327 340 331 327 326 325 327 332 334 339 345 352 354 354 361 369 373 381 374 374 368 367 370 373 375 382 379 382 384 391 390 397 399 406 403 406 406 406 412 418 423 430 427 428 427 434 424 420 415 412 407 403 399 394 391 387 381 372 371 368 365 364 355 347 345 339 346 349 351 355 350 348 343 340 343 343 343 342 347 352 353 355 347 345 344 344 339 337 333 329 337 342 342 344 339 337 338 344 335 332 329 330 324 322 320 317 323 327 333 338 345 354 359 366 365 367 366 369 366 365 365 369 358 352 346 341 339 338 336 335 335 336 332 330 333 336 333 332 328 326 326 328 322 317 309 301 301 297 301 305 305 305 306 311 312 313 311 308 305 302 298 291 296 297 298 301 299 300 298 301 291 284 283 285 273 266 260 251 255 254 259 264 261 262 263 266 256 250 244 241 236 235 231 232 225 219 218 218 211 206 208 208 205 203 199 194 188 184 181 176 183 186 187 192 194 200 205 213 209 207 207 203 205 209 208 210 213 218 222 225 230 235 237 242 247 254 257 259 265 270 277 289 282 280 276 271 275 278 276 275 279 282 281 281 286 289 291 298 294 292 291 288 290 292 294 294 305 314 318 325 333 344 352 367 364 366 363 357 365 370 377 382 386 392 394 398 398 398 397 397 399 403 402 398 406 411 415 418 417 417 418 420 421 421 423 427 419 416 411 407 399 389 384 377 379 380 379 378 377 377 373 373 366 364 363 364 359 357 358 360 361 364 366 370
323 321 318 312 310 306 305 305 303 303 302 304 304 305 304 300 297 293 291 285 285 280 281 282 281 280 279 279 279 280 278 276 278 280 280 275 275 272 269 274 272 275 278 279 277 277 275 274 272 267 263 256 254 248 246 244 239 233 230 223 222 214 210 206 203 198 195 187 189 185 181 178 176 172 170 160 161 156 153 147 147 141 136 129 128 124 122 123 121 120 119 112 111 107 102 96 99 96 97 96 94 89 91 97 96 98 102 102 99 99 97 92 92 93 94 100 101 106 109 111 114 120 122 125 123 124 124 125 127 131 133 138 141 148 154 160 163 172 173 182 183 193 199 205 211 217 218 222 224 231 235 238 239 239 240 246 246 254 258 266 268 277 283 288 286 290 289 288 289 290 291 298 300 309 311 317 317 322 322 325 326 332 331 327 327 326 328 333 338 347 350 360 362 367 366 370 370 373 372 366 369 370 370 374 373 377 379 383 385 389 393 396 397 398 402 406 410 416 418 424 424 430 433 434 432 431 430 424 418 407 406 401 400 395 392 386 384 373 372 367 363 357 355 350 351 351 348 353 352 352 354 349 352 351 351 352 352 353 353 357 353 351 350 347 346 344 344 340 342 343 342 346 344 344 344 339 338 336 336 334 332 329 328 325 327 330 330 339 340 348 353 362 362 368 370 369 371 372 370 369 363 356 357 350 349 341 341 340 340 338 339 336 339 341 338 335 335 329 330 329 328 326 323 313 314 307 303 302 301 304 303 303 307 312 313 313 311 306 303 298 298 295 293 293 296 299 299 298 295 289 287 278 276 270 268 261 261 257 254 257 253 255 255 256 255 253 252 244 241 231 230 227 226 222 221 217 213 207 210 209 206 204 201 197 193 185 183 179 180 180 179 182 184 188 192 200 202 210 211 211 209 205 206 210 211 214 215 221 224 233 234 239 239 244 248 256 258 264 266 273 271 276 277 274 273 271 271 273 274 277 278 280 281 284 283 288 288 293 295 292 292 290 294 298 298 305 307 316 318 330 332 342 345 356 362 363 362 362 362 371 372 381 385 392 393 397 398 396 397 397 398 398 401 403 403 409 409 414 416 414 416 421 420 420 417 416 415 410 409 402 397 385 385 376 375 375 375 374 373 369 368 361 361 358 358 357 358 357 358 361 363 367 367
327 324 319 315 315 309 306 304 303 302 301 301 302 303 304 299 297 295 294 288 288 282 280 280 282 280 282 279 279 279 279 278 279 279 281 277 275 271 265 268 266 272 276 276 279 276 275 273 272 265 257 255 255 248 242 240 238 228 218 218 220 212 206 202 200 193 185 186 188 180 174 175 174 169 165 163 165 156 151 149 148 140 134 129 126 123 121 118 113 114 113 110 111 104 97 98 100 98 101 97 96 91 89 94 98 101 107 101 97 93 92 90 91 90 93 97 102 106 110 110 112 118 123 124 124 122 121 125 127 131 136 140 142 150 159 163 167 176 185 185 185 197 206 214 221 225 229 227 230 235 243 242 244 244 246 247 247 254 261 267 273 282 293 289 286 288 288 290 293 292 292 298 302 311 319 321 323 326 326 326 327 328 327 328 330 330 331 337 343 350 357 366 372 375 376 371 369 370 370 367 368 368 372 372 371 373 375 381 386 389 397 396 397 397 398 405 414 419 426 425 425 432 438 438 437 435 434 425 423 411 404 403 404 397 395 390 390 380 376 368 361 356 350 352 358 354 352 356 357 359 361 358 360 359 363 360 360 359 360 358 354 351 350 348 349 347 348 345 348 348 353 349 346 348 350 344 340 336 330 332 336 332 331 330 333 335 337 344 349 357 364 365 365 372 377 375 376 374 371 368 363 359 353 352 354 347 345 344 345 345 349 345 344 345 346 342 340 334 332 332 332 329 327 320 321 311 302 303 304 303 302 305 308 314 318 316 314 309 302 300 300 296 293 294 296 298 301 296 293 285 281 276 274 266 257 259 262 257 253 253 249 250 248 249 249 246 247 241 239 228 221 222 223 218 215 213 211 208 208 206 207 202 198 192 188 181 177 176 179 178 181 180 182 184 191 195 199 206 213 213 214 210 209 210 212 215 218 221 225 233 242 240 240 245 253 256 258 264 269 269 267 269 270 268 267 267 270 270 271 275 280 279 279 281 282 284 285 291 297 294 294 294 300 298 299 305 313 314 314 324 331 337 341 352 363 361 360 361 361 365 366 377 386 389 392 397 403 399 398 399 403 399 400 402 405 406 404 412 419 415 414 417 422 417 412 411 410 407 408 401 397 390 390 379 372 373 372 371 372 369 368 360 353 353 354 354 355 356 359 359 364 363 364
336 331 325 316 314 310 309 304 303 301 300 300 298 301 299 298 299 297 293 287 286 280 281 279 278 276 278 279 279 278 278 279 279 279 278 278 276 272 270 267 268 273 271 273 275 276 275 273 271 266 263 253 251 247 245 238 234 224 224 214 213 211 207 198 195 189 190 186 182 176 177 174 171 168 168 164 160 154 155 150 147 140 137 130 126 121 120 115 114 110 108 105 107 104 104 99 97 98 97 96 94 90 94 94 97 102 99 99 95 87 89 86 85 86 92 96 100 106 106 109 113 118 119 125 123 121 125 127 127 133 136 145 148 154 158 167 173 182 182 189 196 204 208 225 228 234 228 228 232 238 237 244 246 248 248 249 251 256 258 268 275 285 284 291 291 288 288 294 294 294 297 303 306 316 316 325 331 333 329 326 328 328 328 329 331 334 337 343 347 354 361 377 382 385 376 372 371 368 366 367 365 363 366 371 370 369 373 382 383 387 389 394 395 396 398 404 411 422 421 426 429 435 436 443 445 441 431 421 420 413 411 404 400 394 395 391 389 383 379 368 366 359 358 353 354 357 359 362 365 368 364 363 365 364 366 368 369 366 362 361 357 351 351 346 346 347 347 345 348 351 351 351 355 353 350 348 346 339 336 330 331 334 336 334 338 342 344 351 358 367 366 372 374 378 377 379 381 378 375 372 369 365 361 353 352 350 350 346 346 348 349 351 352 351 348 347 343 336 339 338 335 334 330 322 321 315 312 304 303 304 306 307 312 318 316 321 319 314 309 302 300 299 297 294 296 297 294 293 288 278 279 273 269 264 264 258 256 256 257 256 254 250 248 245 242 238 239 236 230 224 223 217 215 214 213 209 207 206 204 203 202 199 196 187 183 176 176 170 172 175 174 175 176 178 183 193 197 202 206 214 213 212 212 210 214 218 218 221 226 234 234 240 242 246 248 259 262 267 264 269 268 266 263 263 261 262 264 268 268 273 274 280 280 281 280 283 284 290 289 293 294 294 296 298 300 305 308 316 317 323 325 334 339 348 351 361 362 363 363 364 369 377 378 389 390 397 396 399 400 399 397 396 399 401 403 407 407 411 410 414 414 414 413 415 413 408 406 402 402 399 396 388 387 378 380 375 371 367 368 367 365 359 355 347 346 350 351 353 354 355 357 359 359
350 335 328 320 314 311 308 306 302 301 299 297 293 294 297 294 297 293 292 286 286 279 278 277 277 276 278 278 278 277 279 279 280 277 276 276 273 270 267 268 270 273 274 275 276 276 275 274 273 267 262 256 250 248 242 239 233 226 222 216 210 208 202 196 187 189 187 186 184 178 173 172 168 169 168 164 160 156 154 151 148 140 132 127 121 121 118 114 110 107 105 104 106 105 102 100 97 97 97 95 91 94 98 100 104 101 99 95 88 88 86 84 76 88 97 99 105 106 109 112 117 120 123 124 124 125 128 128 127 134 142 149 160 161 169 174 186 185 191 195 208 211 220 228 247 235 232 230 235 235 238 243 251 249 252 252 254 259 264 271 286 284 288 288 292 287 287 293 303 298 300 304 313 315 323 330 349 337 334 330 332 329 328 331 334 337 341 346 360 360 370 381 410 385 375 371 371 365 363 362 362 360 363 365 371 368 371 378 390 385 389 390 394 393 396 405 420 418 423 426 431 433 441 445 458 440 428 421 413 411 404 402 399 396 393 391 389 382 377 370 361 361 359 358 358 359 361 368 379 373 370 369 373 371 372 374 380 370 364 362 358 356 354 350 344 347 349 347 348 350 355 355 364 357 354 350 349 342 337 334 331 336 340 341 347 348 353 359 380 373 376 376 384 383 387 385 390 382 375 374 371 369 366 360 352 353 351 348 346 350 354 356 359 354 350 349 344 342 343 340 337 335 332 327 322 317 310 306 303 306 310 314 321 319 319 320 325 315 309 303 299 298 297 295 302 295 292 287 281 276 272 267 259 262 260 258 254 256 256 256 258 251 248 244 237 235 234 228 216 217 215 213 209 208 209 205 201 200 198 199 199 196 192 184 172 173 170 169 166 169 168 171 172 177 182 191 202 203 209 211 215 211 212 214 220 219 224 224 231 232 238 239 243 244 248 256 271 265 265 266 270 263 257 256 252 258 262 264 263 268 273 276 281 278 277 280 281 287 289 292 295 295 299 298 297 305 313 315 319 324 331 336 345 350 357 360 364 365 368 370 375 378 383 386 389 391 396 397 400 397 396 396 398 400 404 405 408 411 414 413 412 412 411 411 410 407 403 401 399 397 392 389 386 381 379 374 370 368 368 365 362 354 347 343 336 344 347 348 354 352 355 355 354
340 331 331 322 322 314 312 310 307 303 301 298 294 288 288 287 288 286 287 282 281 275 276 276 275 276 277 277 275 273 275 279 278 276 279 278 274 269 272 271 271 275 274 277 275 277 276 276 273 267 264 259 259 253 250 243 237 225 224 218 218 210 206 200 201 196 192 190 186 181 180 176 176 173 170 167 165 158 158 155 152 141 138 127 128 124 119 113 113 105 105 102 106 108 106 103 102 97 98 98 100 100 100 104 101 102 100 96 97 93 89 88 92 95 94 99 101 107 110 115 117 124 124 127 126 128 129 131 132 136 138 149 150 162 167 175 174 181 187 194 200 213 216 222 221 228 230 227 231 232 236 242 242 248 253 256 257 262 263 267 268 278 280 282 282 283 285 288 289 295 297 301 302 309 314 325 324 332 335 329 331 329 332 333 334 339 338 343 346 359 360 368 364 370 375 366 365 359 360 358 357 354 355 356 359 364 367 371 370 377 379 383 384 388 392 401 400 410 417 424 423 427 432 438 433 433 433 423 422 414 411 403 403 398 395 391 389 382 382 375 374 366 364 362 361 360 364 370 369 375 376 373 375 375 375 378 375 373 373 368 366 362 360 357 355 351 350 349 348 349 349 351 353 357 356 351 349 345 343 341 341 339 341 346 345 351 350 355 357 371 373 374 378 385 386 386 387 386 384 379 379 375 376 372 369 362 357 352 354 353 356 362 359 359 359 355 353 347 347 345 343 337 337 332 329 321 317 310 310 308 311 318 316 319 317 317 315 314 313 302 302 297 293 290 290 289 288 282 281 274 272 265 269 266 264 262 261 258 257 257 254 249 251 247 244 234 231 226 224 214 214 211 208 203 204 202 200 195 198 198 197 195 193 186 185 176 171 170 168 167 167 170 172 178 179 188 188 199 202 206 206 208 210 214 212 215 219 223 223 226 230 236 235 239 242 249 249 257 260 260 260 260 259 255 258 259 259 263 263 264 267 270 272 276 279 280 282 288 289 293 292 295 296 300 301 306 308 315 316 324 327 334 339 352 353 359 360 368 370 375 374 380 380 384 382 384 388 395 394 395 397 397 398 400 399 403 406 413 413 413 411 411 411 408 409 408 407 403 402 398 396 391 389 384 380 373 374 370 367 363 359 351 349 343 345 344 339 341 343 346 350 353 351
339 330 322 322 325 317 312 311 310 304 301 296 291 287 286 284 282 283 285 279 278 271 270 271 273 273 278 275 274 272 273 276 279 279 282 278 275 274 275 273 273 275 276 276 275 275 276 275 274 268 260 263 265 259 257 247 240 229 220 221 223 214 207 207 207 200 195 192 189 185 181 182 184 177 172 171 170 164 160 159 158 147 139 131 130 125 121 117 116 109 103 106 109 109 108 106 107 102 101 102 105 104 108 104 100 100 99 97 100 95 90 95 102 103 106 104 101 109 116 117 120 123 128 126 126 129 135 133 135 137 140 145 148 161 174 173 173 180 188 195 202 211 222 216 214 219 220 225 233 233 236 239 243 249 258 258 261 263 269 265 264 270 275 276 276 278 279 282 286 288 292 296 300 304 312 316 317 324 330 330 335 332 334 334 337 339 339 341 344 351 355 354 351 355 356 358 362 354 352 353 356 352 350 352 354 358 362 361 361 365 368 372 376 381 387 390 393 403 417 417 418 424 432 426 421 421 420 419 424 416 415 410 409 401 392 392 392 387 383 378 379 372 367 365 365 365 368 370 372 376 380 379 382 378 375 377 378 374 373 371 372 367 365 360 358 356 356 350 345 347 348 349 351 352 353 351 349 345 340 343 349 347 351 348 346 349 350 352 352 364 370 374 380 385 390 389 390 387 383 386 388 385 388 381 376 370 363 361 362 362 364 365 364 365 366 364 362 357 354 352 349 345 345 336 331 322 315 314 315 314 317 318 317 316 313 313 311 311 311 304 303 295 289 287 286 283 279 277 276 271 269 270 275 271 270 265 264 261 261 258 254 251 250 248 247 236 230 227 224 218 215 208 205 201 203 199 197 196 199 197 197 194 193 189 187 176 168 168 168 168 168 169 172 175 178 183 185 194 201 200 202 204 206 208 210 213 221 219 219 223 229 229 228 233 237 240 242 247 252 253 256 254 251 255 261 259 263 263 264 266 271 269 270 274 279 281 285 289 297 294 293 295 296 300 302 308 315 314 314 324 332 335 340 350 359 358 358 366 375 374 375 379 382 381 377 382 386 390 390 393 397 397 400 398 398 403 405 412 418 411 408 409 413 410 411 408 408 403 404 399 398 392 391 383 380 376 375 371 368 360 355 348 340 343 349 343 337 340 340 344 348 348 348
336 330 328 322 320 318 318 315 311 303 301 296 292 286 285 282 281 279 276 271 270 264 267 265 265 268 270 274 273 271 272 274 276 280 280 280 279 277 276 276 277 277 276 277 276 274 276 274 275 273 272 269 266 263 259 250 246 231 231 224 222 219 218 214 210 203 202 195 193 189 189 187 185 179 179 175 174 171 168 163 159 151 146 131 130 126 123 119 118 113 112 110 108 111 110 107 108 106 105 104 104 106 106 107 105 100 98 96 98 99 102 103 105 112 110 112 112 114 114 118 120 122 123 124 126 127 129 134 135 138 140 145 149 160 161 171 174 180 184 196 199 209 207 209 213 214 216 223 225 234 235 237 241 248 251 259 260 263 262 263 264 266 267 271 272 275 275 277 277 281 286 292 293 298 302 311 311 318 318 326 328 332 334 334 338 342 340 341 344 348 344 342 344 346 345 348 345 345 348 349 348 348 348 349 349 354 352 353 353 356 358 364 366 373 375 381 384 393 399 412 416 419 415 416 416 413 413 411 412 413 415 414 412 406 403 395 393 391 386 378 378 376 374 369 367 368 369 371 375 380 380 383 382 381 381 380 378 375 375 373 372 370 368 361 362 360 356 351 350 349 348 349 348 348 350 351 350 347 347 344 346 352 350 350 350 350 351 354 355 363 365 375 378 386 387 392 392 392 394 396 394 391 391 389 388 379 376 367 368 370 369 370 371 372 373 375 372 367 364 361 357 351 346 338 333 323 323 319 318 319 318 322 321 318 315 314 312 310 307 302 301 293 294 286 286 281 277 272 268 267 271 273 274 274 272 266 267 264 263 261 259 252 251 248 243 235 235 228 226 219 213 201 199 196 196 196 195 194 194 196 194 192 192 190 185 175 175 166 167 170 168 167 169 173 175 182 186 194 191 193 196 200 200 202 204 209 209 213 214 218 219 223 227 230 229 233 234 237 240 246 250 251 252 253 253 255 258 263 264 266 265 266 270 274 276 283 283 286 289 295 297 298 300 304 306 312 311 315 320 327 328 337 343 351 350 356 358 364 366 372 376 379 378 381 380 381 383 390 390 393 393 397 397 397 401 406 409 415 410 408 409 406 407 408 407 405 404 400 402 399 394 388 385 378 380 377 376 371 366 357 354 347 346 342 344 345 344 342 340 342 342 344 343
339 329 323 321 319 318 316 315 315 303 298 293 288 285 282 279 278 274 273 266 261 260 261 259 259 261 265 268 271 269 269 273 278 279 281 279 277 276 276 277 281 279 279 279 278 278 281 278 278 274 273 271 273 265 259 252 247 235 229 226 225 220 216 217 218 209 204 198 194 193 192 192 193 185 181 179 180 173 169 166 165 154 144 135 125 124 120 120 121 115 112 111 109 110 113 111 113 109 106 105 106 107 107 106 105 101 98 99 100 102 106 109 117 115 115 115 118 119 124 123 125 126 129 127 127 128 132 134 136 140 142 147 152 160 168 172 172 182 189 197 206 206 208 208 207 212 216 219 224 230 236 238 246 249 257 258 261 260 263 260 258 263 268 268 267 270 272 274 274 280 286 290 293 295 301 304 306 310 314 321 327 329 335 335 344 340 342 342 351 345 343 337 334 336 335 335 332 335 337 340 346 342 342 343 344 345 348 346 343 350 354 357 360 364 370 371 375 386 399 405 417 410 409 405 404 406 408 406 405 408 411 412 416 406 402 396 397 390 384 380 378 375 373 370 365 370 374 377 382 383 386 386 386 384 384 383 384 378 377 374 373 371 370 365 365 361 356 351 347 349 349 349 348 350 353 351 351 350 351 349 349 351 352 351 352 353 354 355 355 363 370 376 382 386 392 394 397 397 399 401 406 399 396 395 396 387 384 377 372 373 375 376 380 379 381 381 383 373 369 365 365 354 347 337 329 324 320 319 319 318 318 322 328 319 314 313 311 309 308 304 301 296 294 289 289 277 270 265 257 264 269 272 280 275 274 269 269 265 265 263 264 257 253 247 242 236 233 230 228 217 210 200 187 189 189 188 189 189 192 191 190 190 190 187 183 178 174 170 166 169 170 168 170 172 175 181 190 191 193 191 191 193 196 196 199 203 206 207 206 212 219 221 228 226 227 226 229 232 237 241 251 247 248 249 253 253 255 259 265 264 265 266 270 272 277 280 284 287 293 295 300 300 306 308 314 314 318 320 325 330 337 342 352 351 354 355 356 364 370 372 380 379 380 378 377 380 386 388 391 391 394 396 399 399 403 408 419 413 412 409 407 406 408 405 403 402 400 399 401 394 386 384 379 377 375 376 379 371 364 356 344 344 342 344 352 345 343 341 340 340 342 340 338
333 327 328 320 321 319 315 314 309 299 298 291 291 284 281 277 275 268 266 260 261 256 254 253 253 253 257 264 264 267 269 272 272 277 278 278 277 275 275 277 278 282 281 283 282 281 282 280 279 274 274 272 270 265 262 252 247 236 233 227 227 222 224 220 216 211 208 201 202 198 197 196 191 187 186 182 178 175 174 168 165 156 152 140 138 125 124 122 120 115 117 114 113 110 111 111 113 114 112 107 108 109 107 106 105 102 103 103 102 105 107 113 112 118 117 116 119 121 124 128 129 129 131 131 129 127 129 134 137 144 146 152 153 160 165 177 180 190 191 200 198 204 207 209 210 214 213 215 219 229 230 235 239 246 250 256 255 255 257 257 261 263 263 267 266 267 269 273 275 281 282 289 287 290 294 299 299 305 308 317 316 322 326 330 332 334 337 337 337 338 336 329 332 330 327 326 326 326 327 331 332 335 337 337 337 337 340 343 344 347 346 352 352 355 357 361 367 378 381 392 390 396 398 394 398 400 400 401 402 405 404 407 403 403 401 393 393 388 386 381 380 374 375 373 375 375 376 381 379 385 386 389 388 388 388 387 384 379 380 376 375 372 370 365 366 363 359 352 355 352 351 352 352 354 354 352 353 353 354 354 352 354 353 352 355 358 357 359 362 367 371 377 379 387 389 396 398 402 404 406 404 404 404 401 398 392 393 387 386 378 379 382 383 384 387 387 381 376 375 368 364 355 350 337 337 324 322 318 317 318 319 322 318 318 319 316 313 309 306 305 303 299 295 288 282 270 270 263 266 264 263 269 269 274 275 269 269 265 267 265 264 261 256 245 244 237 235 232 226 214 212 202 199 185 183 181 183 183 185 186 187 189 188 186 185 180 179 174 173 170 168 168 169 172 174 180 180 187 188 187 188 186 186 188 193 200 200 205 205 206 208 214 213 219 219 217 220 225 225 232 233 240 243 245 246 252 253 255 255 261 262 266 266 269 273 276 279 286 289 295 295 299 303 309 309 312 317 324 325 332 335 343 342 347 351 355 359 366 365 368 370 377 378 376 378 379 382 387 385 388 390 394 395 398 399 404 403 408 410 409 408 405 404 404 404 402 400 398 395 390 388 383 382 378 377 376 374 373 369 359 357 344 343 343 340 341 341 339 339 338 337 337 337
333 329 327 322 323 316 311 309 307 298 289 290 292 284 277 275 273 266 260 257 258 252 247 246 247 249 253 256 260 264 269 270 272 275 280 278 277 275 273 277 280 280 281 284 288 287 292 286 284 278 273 271 271 263 259 250 244 234 224 226 233 227 229 222 219 211 204 202 205 201 202 196 192 186 182 179 177 174 174 168 167 157 148 144 144 132 126 124 123 120 118 117 118 115 115 115 115 115 116 112 113 110 110 106 105 102 102 103 105 107 110 112 112 117 120 121 126 126 131 133 135 136 139 135 131 131 131 136 140 147 153 157 161 167 174 182 187 196 204 203 202 207 212 210 212 214 216 216 218 226 233 236 239 247 255 253 252 254 258 258 262 262 266 263 262 264 270 272 277 282 287 285 283 289 296 296 294 301 306 311 313 319 327 326 329 330 334 332 333 330 326 325 327 322 319 319 318 320 319 323 325 327 330 332 334 334 337 338 338 343 345 348 350 352 352 357 361 371 380 380 375 383 385 387 391 393 398 395 396 398 402 396 392 394 395 392 392 386 379 381 383 378 375 375 379 379 384 382 378 385 389 389 389 390 394 390 389 384 381 377 376 371 370 367 368 363 357 358 360 356 355 356 356 358 362 356 354 354 359 354 351 354 358 356 359 360 359 366 371 377 386 383 383 389 392 398 403 408 412 410 408 409 408 406 404 400 398 395 395 388 384 389 392 393 398 389 381 377 374 369 366 355 343 342 343 329 319 316 315 316 320 319 316 316 316 315 315 308 302 302 301 296 292 283 278 266 258 264 270 266 263 265 267 271 277 270 271 268 269 266 265 258 256 247 243 236 232 230 228 215 205 202 200 186 179 177 180 180 183 182 182 185 189 185 184 180 181 176 176 171 168 167 166 171 177 177 178 184 190 187 187 184 182 185 189 193 198 201 204 205 208 206 202 208 214 210 211 213 216 221 225 231 237 239 242 245 252 250 251 254 257 262 264 269 278 278 279 284 291 293 296 301 307 308 309 313 320 323 326 333 340 342 344 348 350 355 361 365 370 367 366 375 382 378 380 380 385 383 379 385 389 391 394 396 398 397 398 402 406 406 406 402 401 403 405 402 400 396 393 388 380 380 382 378 377 375 375 371 367 361 361 349 344 340 337 336 335 335 338 336 334 335 336
332 329 326 320 316 311 310 307 304 297 296 290 286 283 280 273 268 263 259 251 249 247 245 240 240 244 247 250 253 260 261 267 269 271 274 279 278 276 278 280 280 280 282 287 286 289 288 289 289 281 276 268 266 259 256 246 242 233 231 223 224 225 226 223 221 212 209 200 200 200 199 195 196 186 183 175 175 172 170 166 164 157 154 146 141 136 134 127 125 124 123 120 119 118 118 119 117 115 113 113 110 108 106 103 102 101 103 104 105 108 109 113 114 118 119 122 125 128 133 141 142 143 141 140 139 136 137 141 144 153 153 162 166 174 179 192 197 204 201 208 210 211 209 210 213 216 214 216 219 225 228 239 241 248 246 251 252 253 253 256 257 260 258 259 260 259 263 270 277 284 280 281 286 288 290 295 296 299 300 310 312 317 316 320 323 326 326 327 326 325 322 319 317 313 315 314 316 318 317 319 319 321 324 329 328 331 333 336 338 343 343 348 349 351 351 354 356 366 367 374 376 378 375 378 381 386 386 388 389 390 388 386 388 387 388 390 390 386 386 382 381 382 379 373 375 380 382 386 386 388 386 389 390 392 392 393 393 390 385 378 374 368 369 366 368 365 365 364 361 360 360 361 360 362 359 359 358 353 354 355 354 354 355 357 360 365 368 375 376 384 383 387 392 395 397 403 408 416 413 414 417 417 413 411 410 408 405 401 399 398 399 398 398 398 396 393 389 379 375 369 366 357 356 346 341 330 328 313 312 313 315 318 319 317 315 316 313 308 306 301 297 293 287 276 271 260 266 266 264 267 265 263 266 267 266 265 267 267 266 265 261 252 250 245 242 235 234 231 226 216 213 202 195 183 182 171 172 175 176 177 181 183 181 182 180 175 177 175 174 171 171 169 168 170 170 173 177 183 182 186 186 183 182 183 184 188 192 199 201 203 201 200 200 200 198 198 200 203 207 214 218 225 225 232 233 236 239 245 247 250 253 262 264 268 271 279 279 280 284 293 297 302 302 309 310 314 315 323 327 334 336 344 347 352 352 357 361 365 365 366 370 375 372 377 377 379 380 383 383 385 384 388 392 395 393 391 394 399 399 404 402 399 402 405 404 403 400 395 396 390 386 377 376 376 376 372 374 372 366 359 355 348 347 337 334 331 331 331 331 334 334 334 335
335 327 322 315 309 306 302 302 303 296 290 286 282 277 274 268 262 257 249 245 240 240 237 235 230 242 249 250 252 256 260 263 269 270 276 275 277 277 280 282 289 283 284 287 290 288 288 289 294 283 274 269 267 258 251 244 232 231 225 225 225 225 225 222 220 212 206 201 198 197 197 198 204 188 181 177 174 170 166 163 160 155 147 144 137 135 131 127 123 125 125 122 121 119 119 119 120 114 110 109 106 104 103 101 97 101 103 104 106 108 113 115 118 121 125 126 130 132 139 143 154 148 147 144 143 140 142 145 151 155 160 166 175 180 189 199 218 207 208 211 220 214 213 213 215 214 213 215 219 225 232 237 244 243 247 248 252 249 251 252 255 253 252 254 257 258 262 270 285 280 280 282 289 291 296 295 296 298 300 307 316 315 315 317 322 320 322 320 320 316 313 312 312 308 306 308 313 313 315 316 319 320 323 324 324 327 332 335 338 341 345 348 352 351 352 353 354 362 369 371 375 373 372 372 376 378 380 380 380 382 383 381 379 382 383 386 390 386 385 384 384 382 378 375 373 380 385 386 389 388 390 390 391 392 394 395 398 391 385 379 372 371 369 370 372 368 366 366 365 363 362 362 363 362 362 359 359 354 354 352 349 355 360 361 363 367 374 380 389 388 392 394 400 402 408 411 421 420 422 422 427 422 419 417 416 412 409 406 402 403 405 406 414 404 401 393 387 380 374 371 364 360 355 350 346 336 327 318 304 312 315 318 324 318 313 314 315 307 301 297 294 288 279 270 256 261 263 265 265 264 263 266 273 268 266 264 259 262 262 260 258 249 241 237 232 230 228 227 228 216 206 199 190 184 177 171 163 172 175 178 182 180 180 178 176 174 174 173 172 171 168 168 167 169 173 173 176 180 183 183 186 181 178 180 185 187 192 196 205 198 197 195 193 191 192 189 187 195 200 208 218 218 221 223 228 228 234 237 243 246 251 259 271 269 274 276 280 280 285 291 303 300 303 306 312 313 317 322 332 334 341 344 353 352 356 361 374 367 370 369 371 371 373 372 373 377 381 380 379 382 385 389 399 393 392 390 390 392 395 398 401 400 400 402 407 402 400 397 402 391 385 377 373 374 374 373 377 368 361 356 348 346 342 335 326 329 327 326 325 329 331 332 336
329 323 322 312 312 302 302 299 297 295 292 284 280 272 272 266 263 255 252 243 244 239 236 233 240 246 245 252 249 252 253 257 260 266 269 271 274 276 277 280 279 279 283 287 286 286 288 288 285 283 280 270 266 257 254 247 246 235 232 228 227 225 223 221 219 212 209 202 201 195 194 196 191 184 186 179 175 168 165 162 163 159 155 147 145 138 135 129 132 131 127 122 122 119 121 121 117 114 113 110 106 100 101 102 104 104 103 106 106 108 113 119 118 124 124 128 129 132 136 141 142 148 150 148 146 142 144 146 151 158 163 170 171 183 187 199 194 201 208 211 211 213 217 217 214 214 214 214 218 224 225 233 230 235 240 243 241 241 245 247 247 248 249 251 250 254 256 264 265 274 277 280 283 292 292 295 296 298 298 303 304 312 312 313 310 312 312 312 311 309 306 304 304 303 302 300 303 309 309 311 313 317 319 321 322 323 328 335 335 340 343 349 348 350 351 352 354 359 360 367 365 369 368 365 367 373 372 373 373 375 375 376 378 380 380 383 383 385 387 386 384 384 382 379 381 384 382 385 384 385 389 391 391 392 393 396 393 391 390 381 383 378 375 373 372 371 370 370 369 367 365 364 363 362 360 358 356 351 353 353 356 358 359 365 364 367 372 382 383 390 393 399 401 406 407 414 416 423 425 427 426 427 426 424 421 415 416 414 412 407 407 407 406 405 402 394 392 382 383 377 373 366 361 353 351 343 339 329 329 319 316 317 317 318 315 312 308 304 302 295 293 287 281 270 274 266 265 266 263 263 264 268 266 268 269 267 265 262 259 255 253 247 241 231 232 225 225 222 219 214 210 200 197 188 185 176 179 177 175 179 176 177 177 177 175 172 172 172 174 175 173 168 169 168 169 170 174 179 179 178 178 178 178 177 178 184 184 189 187 188 191 190 187 182 183 182 187 191 192 200 200 208 210 214 214 217 221 229 233 241 245 253 253 264 268 272 272 277 280 286 285 294 298 303 305 312 314 318 321 330 335 340 342 349 352 357 356 362 368 369 368 367 368 368 372 378 377 379 380 382 382 384 383 388 389 387 387 385 388 393 395 401 401 399 399 399 398 393 393 390 386 375 378 374 372 371 367 363 363 357 355 347 344 338 339 332 329 324 325 326 325 328 329
329 324 318 314 313 305 299 296 294 291 288 280 276 270 270 264 260 254 249 246 248 239 233 236 244 247 253 250 246 250 253 257 260 266 273 271 273 274 275 277 277 278 279 284 289 288 289 285 281 279 276 269 266 255 246 249 251 241 234 231 230 224 221 220 218 210 204 200 201 193 187 188 188 181 178 176 175 165 158 160 165 160 157 150 148 141 138 135 138 135 132 127 125 123 123 119 116 112 111 108 105 102 99 105 110 108 107 108 108 114 120 120 119 124 126 129 132 136 142 142 142 147 152 148 150 146 145 151 159 165 175 173 171 181 191 192 190 198 203 208 213 214 218 216 214 214 216 217 221 223 226 225 222 231 240 236 235 237 241 241 243 241 243 245 246 248 251 257 261 268 271 277 283 289 295 294 295 296 296 298 302 306 310 305 300 302 305 303 302 299 294 297 299 296 295 296 299 301 303 305 309 313 319 320 321 325 330 332 334 340 346 348 348 350 350 353 354 357 360 360 358 362 364 362 361 364 367 367 366 369 371 372 373 377 380 380 381 383 387 384 383 382 383 380 384 384 387 384 381 387 392 392 391 394 394 395 393 391 391 386 388 380 377 375 376 373 370 372 374 369 367 366 366 362 359 356 353 352 350 356 361 362 365 366 367 372 379 383 386 392 396 403 408 411 411 416 419 423 430 428 429 428 427 427 428 422 421 418 419 415 415 411 408 403 397 394 393 387 386 379 377 368 361 356 353 347 341 340 344 332 325 322 319 316 309 307 306 300 295 293 292 285 276 277 283 275 274 267 262 263 263 264 266 268 269 268 268 264 262 255 250 241 231 230 232 223 221 217 214 207 201 197 197 190 189 185 188 184 184 179 176 175 173 174 171 170 168 172 175 176 178 173 173 171 172 172 174 178 183 177 175 173 173 172 173 177 181 181 179 181 183 182 179 178 176 180 185 188 192 192 192 198 203 205 206 210 213 221 228 235 245 246 246 257 268 266 267 271 278 279 278 287 292 300 305 310 316 318 319 329 340 340 340 345 349 350 351 357 367 367 369 368 368 369 371 376 379 380 380 382 386 382 378 382 384 383 385 382 384 387 392 396 403 399 398 396 394 391 390 383 378 374 378 371 371 366 362 359 355 354 357 348 343 342 344 337 334 327 325 322 323 323 324
328 326 322 316 313 306 303 293 293 288 283 274 270 265 265 262 260 254 251 246 243 239 240 236 240 248 249 252 253 250 253 260 260 266 266 269 273 275 276 279 278 278 278 281 285 291 288 285 283 276 275 267 264 254 256 252 250 245 242 232 227 220 222 220 215 206 205 195 193 189 189 184 182 176 177 172 166 161 162 158 160 161 156 149 147 142 140 136 139 139 136 131 130 125 121 116 114 108 110 108 106 105 106 109 110 111 112 111 115 120 118 122 123 127 127 132 135 140 140 143 144 148 145 145 146 147 151 157 159 169 168 176 178 180 182 190 193 199 199 205 209 215 214 217 216 215 216 217 220 222 219 219 221 227 225 228 232 233 232 234 234 233 236 240 240 244 247 254 257 266 267 277 279 287 287 292 293 295 293 294 298 303 299 299 296 293 293 295 295 293 293 291 290 288 291 292 293 296 297 300 304 310 312 322 325 329 326 330 333 341 342 349 351 353 353 356 354 356 355 357 358 359 356 358 357 358 359 362 361 364 365 371 372 375 375 379 379 379 380 381 380 379 378 376 379 382 384 386 386 390 391 396 397 399 397 398 395 390 390 387 383 377 380 376 379 377 376 375 373 370 371 370 368 362 362 357 356 355 357 361 362 366 366 369 372 377 379 387 390 397 400 410 413 419 417 421 420 423 424 428 432 432 430 429 427 426 425 418 419 420 419 416 413 403 400 392 392 390 386 377 377 370 368 360 358 351 351 348 346 340 337 328 326 320 313 303 301 296 297 292 289 285 284 281 280 277 276 269 268 264 263 262 265 269 268 269 268 264 260 253 249 239 235 227 221 215 217 212 209 202 199 192 191 189 190 189 189 189 184 177 179 176 175 175 173 172 173 175 175 177 176 175 174 172 172 173 174 178 175 175 174 169 170 167 169 171 171 176 175 176 176 177 175 175 176 180 179 184 183 184 188 191 191 197 199 205 207 215 219 229 233 243 245 251 252 260 261 263 267 274 277 284 288 300 303 308 311 319 321 329 331 340 344 344 344 346 345 349 354 364 364 368 368 369 374 379 378 383 382 383 381 380 379 378 377 376 377 377 380 381 384 389 392 398 397 394 390 387 383 376 374 368 366 364 365 362 363 358 356 350 349 348 348 344 343 341 336 328 324 317 319 319 319
330 324 320 316 313 305 300 293 293 285 277 268 256 259 258 257 254 250 247 244 240 239 238 238 243 247 252 254 260 254 256 259 263 265 269 271 276 276 278 278 280 278 279 283 291 290 289 286 284 280 276 269 262 257 255 254 257 248 241 232 225 220 219 216 214 207 202 195 187 187 183 182 181 176 172 166 155 158 156 158 166 157 151 146 140 138 135 137 145 138 136 133 134 125 119 114 109 108 108 106 102 105 107 112 123 118 118 119 123 124 124 126 126 129 130 135 143 143 145 144 144 146 148 145 142 148 152 157 166 167 169 174 181 183 189 189 192 197 204 207 215 214 214 216 215 217 218 220 227 220 216 215 215 220 223 224 229 227 227 227 228 229 231 234 235 241 247 252 259 262 265 273 284 284 287 287 292 289 290 291 300 295 294 290 284 285 285 286 289 287 287 286 287 285 285 286 289 292 296 298 304 306 310 319 330 327 327 329 331 338 345 349 358 354 356 356 356 355 355 355 356 354 351 351 351 354 356 356 353 358 361 367 373 374 376 377 380 379 381 378 374 376 377 376 375 379 384 384 384 390 398 399 404 400 401 400 398 395 393 387 378 379 379 381 386 379 377 376 379 373 373 372 374 367 364 360 355 359 362 365 371 370 370 373 377 380 385 391 399 401 407 415 429 423 422 424 427 427 429 431 439 434 433 432 429 430 428 423 418 420 422 420 419 407 400 395 390 387 384 377 376 370 367 363 361 354 352 351 356 344 338 332 331 321 313 306 299 297 296 291 285 282 279 282 289 279 275 270 267 265 265 265 267 268 268 268 271 264 258 251 243 236 227 221 212 210 209 205 204 196 190 188 183 186 187 189 192 187 184 180 179 176 176 176 175 175 177 178 181 178 177 175 173 173 173 173 175 174 173 171 170 170 170 167 165 167 167 169 170 170 172 169 166 169 172 173 179 178 180 181 186 185 186 190 193 197 202 210 220 227 235 239 241 245 252 253 254 260 267 271 275 283 293 299 312 310 314 316 321 329 339 341 354 345 346 343 338 346 355 358 359 364 368 372 381 380 380 383 385 381 381 377 375 375 376 375 374 375 378 378 383 384 390 392 395 388 384 379 375 370 363 360 354 357 356 358 362 358 355 349 346 345 346 345 346 340 334 327 319 316 316 315 314
325 322 320 315 311 304 300 289 288 283 279 268 267 258 256 256 252 246 248 246 244 240 239 237 241 247 248 252 251 253 255 259 260 265 266 270 270 276 276 278 277 278 280 283 283 289 288 288 288 284 281 274 269 258 257 252 252 249 244 230 229 217 216 213 212 207 206 198 197 189 184 183 181 175 175 168 167 160 157 155 154 153 154 144 144 137 134 133 131 133 134 131 130 125 121 115 114 109 107 106 108 109 110 112 113 121 125 126 126 130 131 132 132 133 133 138 138 145 146 147 146 144 145 148 149 151 150 154 156 164 167 172 175 184 184 188 189 193 198 207 206 212 216 218 218 220 217 218 216 218 217 213 214 215 214 218 217 219 220 220 222 225 225 230 232 239 241 248 249 258 260 268 269 278 279 280 280 279 281 282 284 285 287 283 281 278 276 278 279 282 283 281 280 280 279 281 284 289 290 295 295 301 305 315 315 325 329 330 330 335 338 344 344 349 354 357 356 356 356 353 353 351 350 347 350 353 353 354 354 354 357 363 363 372 373 375 375 379 378 378 378 376 375 376 377 377 380 385 387 391 395 400 397 397 401 403 404 402 399 393 392 383 383 383 380 379 378 374 376 373 374 371 372 368 369 366 368 367 366 367 369 375 375 377 378 382 387 394 394 402 409 417 415 423 425 427 426 429 430 431 431 433 437 437 439 439 435 431 429 423 423 423 418 408 407 398 395 384 380 373 373 368 368 365 361 353 353 349 348 342 341 334 331 320 319 311 307 297 296 293 289 280 281 280 276 275 274 270 269 266 266 267 266 268 266 267 265 263 261 252 248 235 230 221 218 206 202 196 195 189 191 187 188 186 185 188 184 184 182 181 180 175 177 179 179 177 179 180 178 178 178 176 176 174 172 172 171 170 169 169 171 171 170 169 168 166 165 166 165 164 164 162 165 165 164 164 166 170 172 175 175 177 181 187 187 191 196 204 210 225 229 238 236 239 242 246 250 257 261 271 273 283 286 294 296 306 309 311 316 328 329 334 333 337 342 342 345 345 347 355 355 362 365 373 375 382 384 385 380 377 378 374 376 374 373 375 374 373 372 372 374 377 381 385 382 379 380 373 373 366 364 358 358 354 352 352 355 357 356 348 348 343 344 344 343 342 339 330 327 315 314 314 313
324 319 314 309 308 299 295 286 282 275 272 267 267 258 254 251 250 246 247 245 245 241 239 239 243 246 252 249 247 248 249 255 261 263 267 268 268 272 275 274 274 277 281 283 284 286 287 292 294 288 282 274 269 262 258 253 252 246 241 232 228 217 209 210 210 208 205 201 199 189 179 181 183 178 177 173 171 164 159 156 154 153 154 148 145 137 129 128 126 128 127 128 128 121 112 114 115 109 104 107 111 113 118 115 115 122 131 130 133 135 142 139 139 138 138 139 141 146 151 148 149 147 147 149 150 151 155 155 155 162 166 171 175 181 184 186 187 194 201 202 201 211 221 221 223 220 216 215 213 213 211 212 212 212 210 212 210 213 212 215 216 219 219 226 230 237 245 243 243 250 258 263 266 272 277 277 276 273 273 274 279 278 282 276 272 269 265 270 273 276 280 274 272 270 269 274 281 285 290 290 291 297 300 308 313 322 332 329 331 336 345 343 341 347 355 355 356 356 360 356 354 350 346 349 352 352 354 353 354 355 360 359 358 365 374 371 370 374 378 377 379 377 376 377 379 381 384 386 390 395 405 400 396 399 402 407 413 409 405 400 399 391 388 385 381 378 375 376 380 377 374 376 378 374 371 372 376 375 375 373 374 378 379 381 384 389 397 397 398 408 419 417 413 420 423 427 429 430 434 434 434 438 439 444 450 445 444 436 434 430 431 425 420 411 406 400 398 386 376 372 369 365 363 362 362 355 351 350 351 342 335 333 334 323 315 311 310 301 297 291 289 282 280 277 273 269 264 267 268 265 264 266 267 266 265 264 264 261 259 252 248 235 224 221 221 207 194 190 189 185 186 187 190 186 186 182 180 178 173 178 180 178 178 182 187 184 184 181 179 178 177 176 178 174 172 170 169 167 164 168 171 172 173 170 168 167 164 164 164 163 162 162 163 162 161 158 158 162 165 168 171 173 177 183 187 191 196 203 211 223 236 234 232 239 245 245 248 254 262 268 273 282 293 291 292 301 309 310 313 322 333 328 325 331 338 342 348 346 351 352 350 359 366 373 378 384 390 383 378 376 379 374 376 372 371 371 372 371 371 370 369 372 379 378 377 375 375 371 370 363 359 357 357 353 350 353 355 356 357 351 348 344 344 342 342 340 338 331 329 318 309 311 312
321 316 311 302 300 292 291 281 276 266 268 264 260 256 253 244 244 244 245 243 243 243 242 239 239 245 245 247 247 245 248 252 255 260 263 267 268 270 269 271 272 278 279 284 285 286 291 300 299 292 286 273 271 263 260 250 249 243 240 232 226 217 217 211 211 211 208 205 200 191 189 180 180 180 179 176 172 166 164 156 154 154 152 150 146 138 136 127 126 127 127 129 126 121 120 114 112 110 110 107 108 114 113 116 119 124 125 132 133 135 138 144 146 143 140 139 143 148 144 147 148 149 150 151 150 150 152 157 158 163 163 171 174 181 182 188 190 195 195 202 203 210 210 223 224 221 218 215 213 211 211 213 212 213 212 212 213 214 211 213 211 216 219 226 227 237 235 237 240 243 248 261 262 268 269 275 272 267 267 265 267 269 270 268 266 263 264 265 267 272 268 266 263 259 264 267 272 282 281 286 290 296 298 307 309 319 319 325 330 336 337 342 343 343 345 352 353 352 354 357 355 349 351 351 350 350 352 353 353 355 355 357 358 359 361 368 369 369 372 375 379 380 380 380 381 384 384 386 390 397 397 402 404 404 406 412 415 416 412 406 403 397 395 389 385 380 379 377 379 381 381 381 381 379 380 377 379 382 381 379 382 384 385 387 390 396 396 400 406 414 414 420 421 422 423 430 428 430 434 439 442 446 446 450 452 450 446 436 436 433 430 427 423 411 409 400 396 386 383 370 367 363 363 361 360 357 354 349 348 343 340 332 328 323 319 310 305 300 296 286 286 279 280 275 271 267 269 267 266 265 268 269 268 267 265 263 262 261 257 250 245 234 232 219 217 209 202 183 179 176 182 186 185 185 182 177 179 177 179 179 177 179 181 186 188 189 186 182 182 181 178 174 175 175 173 170 169 167 168 171 171 174 172 172 173 171 168 165 165 165 163 162 161 160 157 151 152 156 158 162 163 170 173 183 185 190 194 204 209 222 223 231 237 242 239 241 244 249 254 266 271 281 281 287 292 298 298 307 310 314 315 322 325 327 330 340 340 342 345 352 355 360 363 377 382 388 383 382 379 372 372 369 370 369 370 368 370 368 369 370 368 366 368 373 373 371 369 367 363 360 360 356 356 354 355 356 355 355 352 351 348 343 341 338 341 339 334 329 327 319 319 312 312
323 314 305 300 293 290 285 276 263 263 261 257 250 251 247 244 237 242 243 242 240 241 241 237 233 241 246 246 246 247 251 254 261 260 265 266 270 268 268 268 267 276 282 284 289 290 296 301 317 296 287 275 267 263 258 252 247 242 235 228 217 218 215 213 213 212 209 205 200 194 188 185 183 182 179 176 170 169 164 158 148 153 152 149 144 139 134 128 121 126 127 127 128 120 117 113 112 110 109 106 107 110 113 115 121 124 129 130 137 136 141 145 156 145 141 143 150 146 143 145 147 151 153 154 155 153 153 156 159 163 166 172 179 182 186 189 196 194 196 197 202 204 208 216 232 219 214 212 211 211 209 211 212 211 213 213 217 213 210 210 206 214 218 222 229 233 236 236 237 242 248 256 264 265 268 269 271 263 260 261 263 264 264 260 254 256 256 260 266 265 263 258 250 256 259 265 273 275 278 281 288 292 298 303 310 314 322 323 329 332 339 340 345 342 345 349 353 352 353 355 356 353 352 354 354 353 353 353 352 355 356 356 357 358 361 364 368 369 374 375 383 381 382 382 384 386 389 390 396 397 400 402 408 408 413 418 433 419 414 409 406 400 397 390 383 383 381 382 386 385 384 387 391 387 388 387 387 388 390 388 390 392 396 397 401 401 405 407 414 418 425 424 426 427 428 430 432 435 439 444 451 451 455 458 470 455 448 440 433 431 426 425 426 414 407 399 392 386 378 370 359 363 362 361 359 354 348 348 349 343 337 331 325 320 312 307 297 296 290 285 282 280 277 273 264 268 269 269 270 269 270 270 275 268 264 260 259 258 255 248 238 234 227 223 216 208 198 184 164 175 177 182 186 182 179 178 178 179 180 179 178 179 181 189 200 191 186 184 182 180 180 176 174 173 170 170 169 167 166 170 175 173 172 173 177 172 168 166 166 164 163 162 161 159 157 150 140 150 156 156 157 163 170 178 192 190 198 204 214 219 229 232 242 240 242 241 244 247 256 263 275 278 285 286 293 294 298 301 310 309 313 315 320 322 328 333 341 338 341 346 358 359 367 377 400 387 385 379 375 372 371 366 363 366 369 369 374 369 368 367 367 364 364 366 372 366 363 359 352 354 354 353 356 353 354 354 360 352 350 347 343 341 338 338 343 333 327 325 324 319 316 313 313
315 312 310 302 299 290 286 277 275 262 260 256 256 252 250 249 249 247 244 243 242 241 240 238 242 243 242 246 246 248 249 252 252 257 259 264 262 264 265 266 270 277 277 281 284 292 291 292 289 291 290 275 278 267 262 255 252 243 239 231 229 223 219 214 216 216 214 209 206 199 195 190 190 187 185 181 181 177 174 167 167 161 155 152 149 142 140 133 133 129 127 126 121 117 115 109 111 109 107 104 107 108 109 113 114 122 122 124 127 132 134 141 138 140 143 144 142 143 144 146 149 155 156 157 155 155 156 157 158 165 168 174 174 182 184 188 186 190 190 190 193 199 198 203 203 210 213 210 213 213 213 212 210 208 209 212 212 212 215 214 215 218 215 218 221 230 232 235 237 243 244 252 253 262 263 265 260 257 257 256 258 262 260 255 257 254 254 256 255 259 260 256 257 257 257 264 263 270 269 272 277 288 290 298 298 307 311 318 319 324 329 334 336 338 342 348 348 353 354 356 356 358 359 360 357 355 354 354 355 357 355 356 356 358 358 359 362 366 365 368 372 379 382 384 385 388 388 389 391 395 399 401 402 408 410 415 411 415 417 411 410 402 401 393 395 389 387 384 385 389 391 392 391 392 396 397 396 393 394 395 395 398 399 404 401 402 406 410 412 421 423 426 428 432 431 433 435 440 443 450 448 454 456 459 454 454 453 443 442 433 429 422 421 415 411 398 398 389 384 376 377 369 365 364 360 355 351 347 347 345 341 331 331 323 317 309 309 299 294 285 286 282 281 276 277 275 273 273 272 271 270 267 267 267 263 256 258 257 256 252 249 239 237 231 225 211 207 194 195 183 177 179 179 181 181 180 180 181 181 181 181 180 182 189 186 190 191 186 184 179 180 179 179 176 175 174 171 169 169 170 171 174 174 171 172 173 170 165 167 164 164 162 161 160 159 154 154 149 148 152 152 156 159 170 172 183 191 201 202 214 218 227 226 234 236 240 240 242 247 257 259 273 275 281 282 287 288 292 292 299 301 305 307 314 316 323 322 329 333 336 340 351 358 366 365 376 380 377 378 373 370 364 367 365 366 366 366 369 367 364 363 362 359 357 358 358 358 355 355 352 348 346 347 348 349 349 347 345 347 344 344 340 338 334 332 326 327 323 321 317 315 312 312
310 307 303 301 301 291 284 279 278 267 260 256 256 252 250 252 254 251 249 246 242 244 244 244 246 247 247 247 247 247 250 250 249 252 256 257 257 259 261 265 271 276 283 283 284 289 292 286 278 279 277 278 284 270 260 256 255 243 237 231 230 224 222 219 219 217 218 212 210 201 192 195 197 193 189 188 187 184 182 179 177 169 162 156 150 146 143 137 137 133 133 125 117 114 109 109 110 108 106 105 107 106 108 109 111 117 122 122 123 127 129 131 131 132 134 139 143 141 139 148 155 158 165 161 157 156 157 157 160 166 175 174 177 181 187 184 183 184 187 185 187 190 191 193 194 200 200 207 215 214 217 213 212 210 207 210 213 216 220 219 221 219 219 218 220 228 235 233 234 240 246 249 253 257 263 257 253 250 247 252 256 257 260 257 257 253 252 251 251 255 259 255 255 254 257 258 259 263 264 266 271 280 288 290 290 299 309 309 312 319 331 332 335 337 339 346 349 353 357 358 359 361 365 361 361 358 355 355 357 357 356 357 357 358 358 359 362 362 361 364 368 375 385 383 386 388 394 391 392 397 406 403 402 407 410 408 404 409 412 412 414 406 403 401 402 395 392 389 389 393 400 397 396 400 406 404 407 403 402 401 400 403 406 406 405 406 411 410 412 422 433 431 432 434 434 436 440 444 452 452 450 456 462 455 451 450 448 445 446 435 428 425 423 415 405 402 401 390 379 383 388 377 370 365 359 354 346 347 348 344 341 335 334 323 314 313 316 305 296 289 287 285 285 282 281 280 280 276 275 271 272 267 265 262 257 256 257 257 258 254 250 244 242 235 232 218 210 207 206 194 185 184 180 181 180 180 183 183 184 183 183 182 181 186 186 188 191 187 186 183 180 182 184 180 178 175 173 169 168 170 174 174 176 172 173 171 168 169 173 168 166 163 161 161 161 158 159 155 154 148 144 150 154 162 167 178 190 193 196 206 217 215 214 222 230 231 236 238 246 249 252 264 273 276 276 280 281 282 282 289 292 295 296 302 307 309 308 317 326 329 334 344 357 354 353 362 369 372 379 373 368 367 369 369 371 367 363 364 363 360 359 356 353 353 353 351 347 348 350 346 344 342 342 341 343 341 342 341 342 341 343 339 337 334 333 323 316 317 318 313 310 311 312
309 305 304 298 296 290 287 279 277 270 265 252 251 251 254 255 255 256 254 251 250 250 249 249 249 252 250 249 248 246 248 250 248 247 250 251 253 257 259 263 268 276 278 287 289 291 285 282 278 271 274 277 275 271 267 256 251 240 238 228 226 223 225 222 220 216 216 214 211 205 206 203 200 199 198 196 196 193 191 190 186 177 172 163 158 149 144 137 139 136 131 124 122 113 112 110 109 108 105 103 101 103 104 104 108 113 114 121 122 125 123 124 123 125 130 137 136 141 145 152 152 160 161 165 165 158 157 157 158 166 166 172 177 181 179 180 180 179 178 178 181 183 183 184 189 196 198 206 206 213 211 212 214 215 213 210 213 220 219 223 221 220 219 216 220 227 225 228 232 240 241 247 251 253 251 249 249 246 249 251 249 253 253 257 256 252 250 247 251 253 251 250 252 249 251 255 257 260 259 260 264 273 276 285 288 292 293 298 302 312 318 331 333 338 341 349 350 356 356 360 360 362 361 359 361 361 359 356 359 360 359 359 359 361 359 359 361 362 361 362 363 371 372 379 383 384 386 390 390 395 397 404 407 409 405 405 405 406 407 411 410 408 409 407 403 397 398 393 393 395 396 400 402 406 405 409 412 412 411 409 409 408 409 411 410 409 410 410 414 423 426 436 439 438 437 438 439 446 449 457 458 459 454 450 451 448 445 443 441 434 436 430 425 417 414 405 399 392 394 391 388 382 379 369 364 358 356 350 346 343 343 336 334 324 324 316 315 311 304 289 289 287 287 286 286 286 282 276 275 269 269 266 264 259 258 255 255 257 256 256 254 248 244 235 233 222 225 218 215 205 201 192 188 184 182 179 182 186 185 186 186 187 186 188 186 187 186 187 188 187 186 185 184 184 180 177 173 167 169 169 172 175 173 171 173 172 171 172 171 172 168 164 164 163 160 161 160 158 153 144 146 147 149 157 160 173 175 186 193 200 197 204 205 210 212 220 225 230 235 243 248 258 262 274 275 278 274 276 278 283 282 287 287 293 293 298 300 305 309 321 324 336 335 340 345 352 354 364 370 374 373 370 371 371 370 370 367 362 359 356 354 351 352 350 349 348 345 343 342 340 339 338 336 333 334 332 335 336 336 335 337 338 335 333 329 319 320 314 310 310 310 311 312
313 308 306 299 296 288 280 278 276 269 260 253 244 252 256 258 261 257 255 253 251 253 255 253 254 254 253 251 250 248 249 249 245 249 253 252 250 256 261 265 272 275 279 285 296 289 284 277 268 270 273 274 276 266 258 254 251 239 229 224 216 223 225 224 222 219 218 215 210 210 209 209 209 205 203 203 207 199 196 194 197 184 174 166 160 150 143 139 140 135 129 123 118 114 111 109 110 105 99 99 95 99 102 104 110 108 111 115 120 120 121 119 117 124 130 134 135 142 147 153 159 160 164 166 174 163 159 158 155 162 167 171 182 178 178 175 174 173 175 175 177 179 180 182 185 192 197 202 205 207 207 211 215 216 218 215 216 220 223 223 222 221 219 219 220 225 228 228 228 237 244 249 258 253 252 246 241 244 246 246 248 247 249 251 256 248 246 246 252 251 250 250 250 247 248 252 258 257 259 258 259 268 276 281 287 288 294 291 291 304 317 324 334 337 345 350 357 358 362 361 362 363 364 362 361 360 361 361 366 363 362 361 362 362 362 362 366 362 361 361 361 367 373 376 384 382 384 384 384 391 398 403 411 407 407 403 400 404 408 408 410 408 408 407 408 402 401 396 393 397 401 403 405 408 411 415 424 418 418 417 419 418 419 417 416 414 417 415 415 424 433 437 449 441 440 440 441 447 453 458 466 459 458 450 444 444 441 441 440 437 436 432 428 421 414 407 395 395 394 396 403 387 379 372 362 361 358 353 348 348 347 341 335 329 325 321 321 312 303 295 285 289 291 290 290 288 286 280 276 271 267 264 261 257 253 253 253 254 255 254 254 250 246 239 233 229 228 226 228 215 204 199 194 190 185 184 183 185 187 187 190 189 189 188 188 187 185 186 187 186 187 187 189 183 178 175 172 169 169 171 178 174 175 172 175 170 167 169 175 169 166 164 165 161 157 158 160 156 151 146 142 146 151 155 159 167 176 183 197 191 190 190 189 199 207 213 220 223 231 237 246 253 264 269 278 270 269 270 275 275 276 277 277 283 287 290 293 298 305 309 313 324 332 332 331 340 347 357 373 369 369 370 375 372 372 368 367 362 358 353 346 348 349 346 347 343 339 338 339 334 329 330 330 328 329 327 329 329 332 332 336 332 328 327 328 319 314 309 303 305 303 307 313
310 308 306 299 298 288 285 277 275 270 266 258 260 259 258 260 260 257 258 257 258 258 257 256 258 258 255 254 253 249 251 252 252 252 252 255 257 259 261 265 266 275 276 279 279 286 285 277 276 270 268 270 265 261 258 252 248 238 234 224 229 229 226 228 225 220 221 219 220 218 218 217 213 209 208 206 204 202 200 194 194 188 183 170 166 151 148 138 139 135 131 123 122 116 111 105 106 104 102 99 99 98 98 101 99 101 105 108 111 116 115 114 120 125 128 137 139 147 148 155 154 159 163 164 163 164 165 162 161 162 160 166 165 171 173 169 170 167 169 172 175 178 179 182 185 193 194 200 200 206 207 212 213 219 219 217 219 223 222 226 225 226 224 221 224 228 226 230 233 239 240 249 246 251 249 242 245 244 243 242 241 239 241 245 242 241 244 242 246 251 251 250 246 244 245 249 249 254 255 255 260 264 268 277 276 280 283 284 290 299 303 317 319 331 339 349 351 359 360 360 363 367 365 364 361 358 361 364 363 364 364 363 363 364 362 362 361 361 361 360 361 364 364 369 372 379 379 380 383 388 391 399 399 402 405 402 405 405 404 406 406 409 409 408 406 404 403 397 400 401 402 406 408 413 414 417 418 421 424 425 426 427 426 424 421 416 417 418 420 425 425 432 433 440 442 442 446 451 450 457 452 453 455 451 450 444 443 440 439 438 438 435 433 427 424 414 411 399 398 399 394 387 387 378 377 368 363 356 358 356 352 348 343 334 330 323 323 316 313 304 304 296 295 295 293 291 289 284 281 273 268 263 262 255 256 254 253 252 250 251 252 252 250 244 242 236 235 232 228 223 219 206 206 197 194 190 187 186 184 185 188 191 191 188 190 190 188 188 187 186 188 188 186 184 180 174 173 168 167 170 168 168 169 167 169 169 167 164 165 164 166 164 162 161 159 157 156 156 153 147 148 147 148 153 154 161 163 173 172 179 181 180 183 192 194 206 206 213 219 230 233 244 250 261 256 258 262 260 263 267 268 270 271 275 276 282 284 291 292 298 304 317 319 327 327 331 334 346 348 360 365 369 368 370 369 366 365 362 360 353 353 349 344 341 342 340 339 333 332 328 326 325 323 320 320 319 320 319 321 325 325 326 324 321 320 316 315 308 308 304 303 304 306
310 308 306 301 300 288 279 275 274 268 262 263 266 266 270 267 267 263 259 260 263 262 265 263 264 259 255 257 258 255 253 256 256 255 256 260 264 266 273 269 266 272 278 276 275 279 282 275 274 269 265 263 259 253 246 246 246 236 226 231 237 234 233 230 227 226 225 225 226 225 227 222 218 213 208 207 206 203 200 198 198 189 177 174 172 156 143 140 140 132 126 122 120 113 107 105 104 101 97 98 100 97 98 97 94 99 104 107 112 114 111 115 122 127 134 138 143 149 156 158 158 163 170 166 163 164 163 162 163 160 158 159 157 164 170 167 168 165 164 170 175 178 181 181 185 191 199 199 200 204 205 212 216 222 228 222 220 222 226 226 225 228 230 228 230 230 229 233 238 241 246 245 242 246 246 243 244 244 248 242 240 237 234 235 236 237 239 241 245 247 251 246 242 241 239 243 246 250 255 256 262 265 273 272 272 277 282 281 284 295 306 311 313 330 345 350 352 360 365 364 364 367 370 365 361 361 364 365 366 364 365 364 364 362 362 361 360 360 359 359 362 363 363 366 369 373 374 377 380 385 393 396 397 402 407 405 407 405 405 403 401 406 411 407 405 403 403 399 403 403 408 410 413 416 423 423 425 426 429 431 434 435 437 430 426 421 418 419 422 426 430 429 429 435 437 443 451 452 453 451 448 451 453 450 450 445 444 441 438 439 441 438 437 431 429 422 420 408 402 400 397 389 382 382 384 374 368 363 364 360 357 350 345 338 331 328 328 320 312 311 316 307 304 299 296 293 292 286 282 272 262 263 264 259 256 255 255 252 247 250 251 250 250 245 242 239 241 235 232 227 221 215 217 204 195 191 190 187 185 187 190 192 197 193 193 190 188 190 192 191 192 189 187 182 175 173 172 166 161 165 165 165 166 166 167 165 162 163 166 162 161 159 159 157 155 154 156 152 150 146 147 147 150 151 152 157 159 162 160 167 169 170 173 182 191 196 198 207 215 223 228 238 251 248 243 249 254 254 256 258 261 263 266 267 271 275 279 285 289 293 297 309 320 319 318 323 328 335 339 351 360 363 367 366 368 363 360 358 358 354 353 346 342 340 340 337 337 330 329 322 315 317 319 315 314 313 316 313 314 316 318 317 314 314 316 312 309 307 309 304 301 302 302
312 308 306 299 297 288 284 273 269 266 268 266 267 270 270 271 274 270 267 264 264 263 265 270 269 262 263 264 263 262 262 263 260 259 262 265 266 271 271 274 273 271 268 272 273 273 271 269 271 267 264 258 255 246 247 242 237 234 238 237 235 237 237 234 237 234 232 232 229 229 228 226 225 220 216 210 208 207 205 201 201 195 190 179 172 160 156 142 137 130 128 120 115 110 110 106 105 102 101 98 96 94 96 95 96 100 100 105 110 117 116 116 120 130 133 141 147 153 156 165 165 166 167 170 170 168 164 160 157 158 158 157 158 158 159 161 163 164 168 172 173 178 177 178 182 187 191 199 201 205 208 217 218 225 222 226 225 222 224 227 231 233 232 234 234 233 234 238 239 242 243 246 247 247 243 242 241 243 241 241 240 235 233 228 230 233 235 238 238 242 242 243 243 241 240 241 241 245 249 253 256 264 265 268 273 277 276 277 282 293 298 309 318 334 337 355 361 366 363 368 369 369 366 365 365 364 365 369 366 363 364 366 364 361 363 361 364 363 361 358 360 363 364 366 370 373 372 374 375 382 386 395 399 404 403 406 405 404 403 403 402 403 402 404 404 403 400 396 399 403 406 414 414 417 420 427 429 432 433 437 442 444 438 435 432 426 425 420 422 428 426 427 431 434 435 442 447 453 449 448 449 450 447 446 445 443 444 442 440 439 437 440 438 433 430 425 423 414 412 405 402 393 393 387 382 376 376 367 367 365 360 352 349 342 340 333 331 327 324 315 315 315 311 301 300 295 292 286 282 273 272 265 263 263 261 258 257 255 253 253 251 250 247 245 242 237 239 237 239 233 228 218 215 207 203 190 190 190 190 190 190 191 192 195 194 190 192 192 192 194 192 192 191 184 180 174 170 166 165 164 162 163 162 165 164 163 161 160 160 159 158 155 154 153 151 151 151 149 146 141 144 146 148 152 154 157 154 158 158 160 158 158 162 172 177 190 193 202 206 219 223 231 232 240 242 243 244 249 249 251 252 256 257 259 263 268 274 283 284 291 295 304 303 312 314 315 319 330 334 346 347 358 359 360 360 359 358 354 353 352 348 343 341 337 335 331 328 324 322 316 315 310 308 308 308 304 305 304 308 310 310 310 309 307 308 308 306 302 304 305 304 302 302
320 313 310 303 295 288 278 272 261 267 268 270 270 273 274 278 287 274 267 267 270 267 267 271 279 268 265 267 272 268 267 267 268 266 268 269 274 272 275 273 276 269 266 266 269 267 267 266 267 260 257 254 252 246 242 237 228 233 236 238 241 239 240 240 248 239 236 234 233 232 231 229 229 222 217 213 209 209 208 205 210 197 189 181 173 162 152 144 134 129 122 116 107 107 106 106 108 103 101 98 96 95 96 94 93 99 102 107 116 118 121 122 125 133 140 147 160 161 166 168 173 172 175 173 175 170 166 159 149 154 155 156 159 158 161 160 158 163 168 172 181 177 177 179 183 187 194 198 204 206 211 218 228 222 222 223 226 224 228 231 241 236 237 237 239 236 236 241 249 245 248 249 251 246 244 241 236 240 239 240 239 234 230 228 225 230 233 235 235 238 240 239 239 239 239 239 241 245 252 252 255 260 266 268 274 276 280 278 276 291 306 313 324 333 346 356 378 368 369 370 377 371 367 366 363 366 369 369 369 365 364 366 365 365 367 365 370 365 363 361 360 364 368 370 379 375 373 373 371 380 387 395 406 405 406 406 405 402 400 400 400 401 401 399 399 398 397 395 394 401 407 411 420 419 426 429 437 435 439 444 458 444 439 435 430 431 430 427 425 427 430 429 434 434 437 443 458 448 444 444 447 445 445 440 438 439 441 439 437 435 433 436 441 432 427 426 424 417 412 410 409 402 397 392 386 381 378 373 371 366 361 354 346 344 340 338 336 331 327 322 319 317 314 307 303 297 292 287 279 275 269 268 265 263 262 259 259 255 251 253 257 249 243 241 237 239 242 242 248 237 232 223 217 208 201 195 186 191 192 193 195 194 195 197 197 194 196 195 195 193 192 193 197 185 178 171 165 163 160 161 163 159 158 159 162 157 154 155 159 156 153 150 147 147 144 146 149 144 141 139 141 143 147 150 160 153 150 153 155 156 156 154 149 166 176 183 189 198 208 215 227 226 231 233 235 239 243 244 243 245 246 249 252 256 261 265 274 277 283 289 298 299 301 305 311 312 315 323 332 338 348 352 360 356 357 354 352 351 349 346 340 337 331 331 330 324 319 317 312 311 308 305 300 302 301 300 298 301 303 305 307 306 304 304 306 304 301 301 301 302 303 301 302
318 317 314 308 304 292 288 277 281 276 273 276 275 278 277 280 275 274 273 267 268 268 268 269 267 269 271 270 270 272 272 271 271 272 272 272 270 269 270 270 268 264 263 260 260 260 260 261 257 251 253 251 249 245 244 236 238 234 235 239 238 239 240 240 238 239 241 238 236 235 234 233 229 224 223 218 216 212 209 204 202 196 194 184 180 166 161 149 146 132 126 117 114 107 105 104 103 101 100 98 98 94 95 94 98 102 103 108 111 118 123 126 130 138 141 149 152 165 166 170 170 175 176 174 175 174 172 164 162 154 151 154 153 157 159 160 161 164 165 169 170 175 177 179 181 187 189 195 196 205 208 216 213 216 220 221 220 220 223 229 228 234 238 241 239 237 240 244 241 244 248 251 248 244 246 245 245 244 242 243 238 233 235 232 232 232 231 234 234 236 235 235 238 240 238 236 240 245 246 251 252 257 259 267 268 276 277 281 285 292 297 313 315 330 335 347 348 362 366 368 369 371 373 372 371 370 368 370 369 366 369 370 368 367 365 365 366 364 366 364 366 367 367 369 370 375 374 374 377 380 384 392 394 404 406 407 404 402 402 397 398 400 397 395 396 393 395 396 398 402 400 405 408 414 419 426 428 434 440 444 439 438 441 437 440 439 436 434 431 428 426 428 428 431 433 437 434 439 442 439 439 440 438 434 436 434 437 439 436 434 432 432 430 428 431 429 426 420 421 416 413 409 407 398 395 385 385 379 376 368 365 358 356 348 347 345 341 335 333 327 326 321 318 313 310 301 297 291 288 280 279 275 271 264 264 259 259 256 255 253 251 248 247 241 241 240 240 242 240 238 236 227 223 209 209 204 205 199 195 196 195 198 200 202 198 196 198 197 195 194 191 191 187 183 181 169 170 164 160 159 156 155 152 151 150 151 152 149 151 153 151 148 148 144 143 142 139 137 136 136 136 139 140 144 143 148 149 150 151 153 154 156 159 167 168 180 182 194 197 206 207 217 221 226 229 236 238 241 239 242 242 244 245 252 252 258 260 271 275 284 284 293 294 298 299 307 309 317 318 328 333 342 342 349 352 351 351 350 348 344 342 335 332 327 324 317 318 315 314 311 307 303 302 299 297 297 298 300 298 300 300 304 303 302 301 301 301 300 300 301 300 298 299
319 317 313 308 307 296 290 290 294 285 281 281 280 280 281 277 272 270 264 267 270 268 266 267 266 268 269 272 274 274 276 275 276 275 276 273 273 269 269 266 263 259 254 254 254 254 251 253 251 247 244 245 245 243 243 240 243 240 242 240 238 238 240 237 234 236 241 236 235 234 235 232 230 225 222 218 219 213 213 204 200 195 188 184 181 168 158 154 152 136 122 115 112 105 104 102 101 98 96 96 99 96 97 98 103 105 110 112 116 124 134 132 137 144 153 154 157 165 170 170 172 175 182 178 179 177 177 170 167 157 147 150 149 154 160 160 162 164 170 170 170 173 175 178 183 186 191 191 192 201 208 209 209 213 218 218 219 218 219 221 222 230 238 241 244 242 242 242 243 245 248 249 250 246 244 246 249 245 246 243 240 236 236 235 237 234 234 235 235 236 236 236 238 238 239 238 240 245 249 249 250 254 257 263 264 273 280 284 289 297 310 313 313 327 339 339 339 349 357 365 371 371 372 375 378 376 372 373 371 370 372 372 372 368 365 369 371 368 366 367 370 370 372 371 369 372 371 376 381 385 393 395 395 403 409 405 401 401 404 398 398 397 396 395 397 395 394 395 400 401 401 403 406 412 417 423 427 435 445 439 436 435 433 439 446 442 442 437 434 429 426 426 425 427 431 428 425 429 432 433 434 434 434 432 433 434 438 435 433 429 426 428 430 427 428 427 431 425 426 420 418 414 412 404 400 391 390 383 380 370 363 358 357 351 350 347 346 339 334 330 331 323 322 317 314 303 295 292 291 284 282 277 276 269 268 261 260 256 255 253 252 247 242 241 242 240 242 240 238 236 234 229 227 215 206 211 216 207 202 200 197 201 206 203 202 201 204 200 196 192 185 185 184 179 175 169 171 161 154 152 152 148 142 143 143 146 148 147 150 147 145 145 147 142 140 137 135 130 125 128 131 133 137 136 135 139 139 146 151 151 152 155 160 166 176 178 179 191 202 200 199 208 214 221 226 232 240 236 233 236 240 239 239 243 248 248 250 261 271 275 279 284 289 289 293 296 301 308 314 322 332 332 331 339 349 347 347 347 347 344 343 335 326 325 324 316 310 311 313 309 305 302 301 297 295 294 295 296 296 296 296 298 302 298 297 296 300 298 300 300 303 299 297
321 319 314 306 305 298 301 299 295 290 291 288 285 283 279 275 273 270 269 267 266 269 268 267 268 270 271 275 276 275 276 277 277 276 275 274 272 266 265 262 260 255 254 249 251 252 253 252 250 245 245 242 241 242 242 241 244 244 243 242 241 238 235 235 233 233 232 233 233 232 232 231 230 226 223 216 215 210 209 202 203 196 191 184 180 168 168 158 152 138 130 109 105 100 101 99 97 94 94 93 93 95 97 99 101 107 110 117 121 129 128 133 138 148 150 159 165 169 167 170 170 174 175 180 182 181 176 172 170 162 158 150 147 151 153 161 161 163 167 172 173 172 174 178 179 185 186 189 195 200 199 205 205 209 210 214 214 215 216 217 220 227 230 242 243 246 243 240 243 247 246 248 251 249 250 249 246 244 245 245 242 236 238 237 237 236 236 237 236 238 236 238 239 238 239 239 243 247 247 248 251 253 258 266 268 273 276 286 290 300 304 317 320 326 324 333 335 341 350 367 369 373 376 378 381 384 382 379 375 374 373 374 373 369 372 375 373 373 372 371 371 373 373 374 373 373 375 380 379 387 391 400 401 404 401 404 401 397 398 394 395 395 396 394 396 396 395 393 397 402 403 402 405 412 414 422 425 434 430 432 435 434 436 441 440 442 441 439 438 431 428 425 422 422 421 422 423 423 424 430 430 431 429 429 430 431 430 430 428 423 425 425 424 423 424 423 424 423 425 420 421 417 414 407 403 392 391 383 381 369 366 354 353 350 351 350 349 343 338 329 327 321 322 319 314 302 301 291 288 283 281 277 276 270 266 260 258 254 254 254 252 247 246 242 241 239 241 241 240 237 234 229 226 219 221 219 218 214 213 206 205 205 203 202 204 204 203 203 200 194 190 181 181 177 173 163 161 158 156 146 146 145 142 136 138 142 140 142 142 142 142 141 140 139 138 134 131 123 123 121 121 125 126 131 132 136 138 144 145 151 150 153 156 163 168 179 184 190 188 195 198 203 207 218 221 229 227 231 232 229 230 233 234 236 236 239 245 254 257 267 271 275 275 279 282 285 290 301 305 315 316 324 325 330 333 344 346 347 345 345 343 336 333 325 321 314 315 308 309 309 305 299 297 294 293 289 292 295 293 293 292 292 291 293 291 288 291 295 296 296 295 298 297
326 320 312 309 305 304 303 302 302 298 295 292 291 285 281 275 268 269 268 267 266 265 266 267 272 271 273 277 285 278 279 278 280 277 274 274 274 266 261 258 255 254 251 251 249 252 254 252 253 247 244 241 238 242 242 243 249 245 244 243 245 238 232 231 227 229 230 229 228 229 231 229 231 225 222 217 213 210 208 204 202 194 186 184 181 172 166 160 156 139 124 109 91 95 94 93 91 90 90 90 90 94 97 99 102 107 115 121 129 132 137 138 139 149 158 165 180 173 172 170 169 172 175 180 185 179 175 172 172 163 154 149 142 150 154 158 162 164 171 174 179 175 176 176 179 183 188 191 200 200 202 201 201 205 209 210 212 212 213 214 217 224 232 238 248 244 243 241 244 246 247 252 262 255 254 251 249 246 244 244 242 239 239 239 239 236 235 237 238 236 236 238 244 242 243 244 247 250 253 253 255 260 265 271 278 278 284 288 294 301 310 317 329 325 326 328 328 341 354 366 379 379 382 386 392 390 389 384 377 376 376 376 377 375 375 378 382 377 375 375 375 375 375 376 375 376 379 381 381 388 396 402 409 405 404 403 397 399 400 395 389 394 398 397 399 396 394 395 399 403 408 406 406 412 419 422 427 429 430 431 432 432 435 439 444 441 439 439 441 432 424 422 418 419 417 417 416 418 421 423 427 424 424 425 427 426 427 425 423 421 422 422 424 422 423 422 423 424 426 422 423 417 415 408 402 394 390 385 384 371 364 355 345 348 350 350 355 344 337 331 326 322 317 317 315 305 297 292 284 281 275 275 275 267 261 258 253 253 250 252 252 247 244 244 242 242 243 242 242 237 234 228 222 222 222 225 233 222 219 214 208 209 209 207 204 206 206 204 201 194 189 183 181 176 169 161 150 152 149 144 141 138 137 135 134 135 136 136 137 136 137 136 137 133 132 129 130 121 116 115 114 118 120 124 126 132 138 142 148 146 146 150 157 162 171 177 192 188 189 191 192 201 209 215 225 224 225 226 229 226 227 227 228 229 231 235 241 248 257 263 274 270 270 272 276 279 284 293 305 306 312 314 314 322 328 336 344 342 343 344 347 338 329 326 322 316 314 309 310 304 300 296 293 291 289 288 290 289 291 289 289 286 284 284 281 283 287 289 293 290 289 291 296
326 323 319 313 314 311 309 305 306 305 301 294 293 288 285 279 279 273 271 268 266 262 264 266 267 272 275 278 275 276 279 279 279 280 278 276 272 266 264 257 260 258 257 256 254 254 252 252 250 249 246 241 245 246 245 243 242 244 244 242 241 238 236 232 231 228 227 227 227 227 225 223 224 222 221 218 216 210 208 205 201 193 191 186 183 175 171 161 155 140 134 115 113 96 92 90 86 85 88 90 92 95 96 100 101 107 114 126 126 133 138 144 146 152 157 165 164 171 172 169 173 172 175 180 176 178 178 171 170 165 161 153 155 154 152 157 157 163 169 176 173 174 174 172 176 183 183 188 191 198 199 198 201 204 205 208 207 208 209 212 215 222 224 232 232 239 241 239 243 247 247 251 251 255 256 254 254 250 249 246 243 239 241 242 239 236 238 238 236 234 237 237 240 243 245 249 250 254 255 259 262 269 270 276 273 277 282 289 290 302 305 315 313 322 324 327 332 342 347 365 366 383 389 394 394 395 396 391 387 378 378 380 379 380 382 382 380 381 380 380 380 379 381 382 381 380 383 387 388 391 395 405 402 405 409 409 407 403 400 399 399 395 395 398 396 396 397 396 400 405 408 409 411 412 414 420 420 426 428 431 431 430 432 436 437 442 442 440 437 432 430 422 421 420 417 415 415 415 414 416 415 417 418 420 419 420 420 420 420 418 417 418 419 420 421 422 422 424 423 420 420 415 415 409 406 395 391 383 379 369 370 360 357 348 345 346 344 343 341 334 332 325 321 317 314 306 306 296 292 283 278 273 271 264 265 261 260 256 253 252 249 246 249 248 248 246 245 245 240 235 236 229 231 226 225 226 223 222 226 223 222 217 217 214 215 213 210 206 202 195 192 183 183 177 171 163 161 151 146 143 138 130 132 133 131 128 129 130 128 129 129 129 127 125 125 122 120 117 116 112 114 116 116 120 121 130 131 138 136 141 144 146 147 157 160 168 171 184 187 191 193 200 200 209 210 220 221 221 219 220 220 221 222 224 225 230 233 242 245 255 254 262 263 265 267 272 274 283 284 295 301 307 311 319 320 328 328 336 340 343 343 340 337 328 323 316 313 307 304 300 299 294 293 288 286 285 284 283 285 286 284 279 280 279 278 276 278 282 281 283 284 284 288
330 325 317 317 321 316 317 312 312 308 306 298 296 289 284 282 283 276 275 269 266 264 262 265 266 271 278 277 276 276 278 279 281 279 279 277 272 267 260 261 266 261 261 258 257 255 256 251 248 245 244 246 252 250 253 245 242 242 242 241 240 235 230 230 232 227 226 225 226 224 224 222 220 218 215 214 215 208 204 202 200 192 185 184 186 176 170 160 153 138 127 119 120 102 91 84 76 79 86 89 94 96 99 101 103 111 121 128 132 140 148 151 153 161 173 167 164 169 170 174 179 177 179 177 173 177 181 172 171 163 156 156 160 156 155 156 157 165 175 174 172 172 172 173 175 181 185 188 192 196 200 200 202 204 207 205 204 205 204 210 216 220 225 227 226 235 241 241 243 245 247 250 251 253 255 257 258 253 252 248 246 241 241 241 241 239 241 238 238 238 239 240 244 244 244 250 254 258 262 265 269 275 282 277 274 280 284 287 288 300 309 310 307 316 321 328 333 344 355 361 364 382 400 402 405 404 407 398 393 385 379 381 380 383 390 385 382 380 378 382 387 387 391 388 390 389 391 394 397 399 404 404 404 408 415 413 412 407 404 404 405 401 401 398 395 397 397 402 408 412 419 416 417 416 418 418 418 424 430 431 434 432 431 434 436 439 443 440 439 433 425 423 421 418 416 415 414 411 409 409 409 410 411 412 413 414 413 416 417 413 410 414 416 418 420 420 422 423 425 421 420 417 415 409 405 394 384 379 375 368 367 360 358 349 342 342 339 338 333 333 332 326 319 318 319 311 308 299 295 283 272 271 272 264 262 261 263 256 252 250 248 249 252 252 254 249 247 245 240 238 238 235 235 229 228 225 223 224 227 227 232 228 231 228 227 222 217 209 202 196 189 186 185 176 165 163 163 151 143 137 131 127 126 127 129 127 127 123 120 122 124 122 118 117 116 112 110 108 107 108 114 114 117 117 117 124 131 131 130 134 141 140 141 150 159 162 164 176 184 190 194 198 199 203 204 212 220 216 213 214 212 216 219 219 220 224 229 236 244 245 245 251 253 258 261 264 267 273 277 288 298 302 307 313 320 322 322 330 337 342 346 340 333 326 322 313 307 301 297 295 295 292 291 285 281 280 281 279 282 281 282 276 276 275 276 274 275 275 274 277 279 280 284
