1424 1436 1443 1442 1434 1451 1461 1461 1458 1480 1498 1518 1537 1544 1550 1548 1561 1554 1553 1548 1543 1573 1603 1626 1654 1670 1689 1706 1750 1716 1697 1677 1653 1680 1693 1702 1708 1724 1748 1757 1778 1759 1746 1741 1730 1737 1751 1752 1757 1739 1735 1731 1739 1712 1695 1673 1655 1620 1584 1554 1517 1535 1549 1569 1611 1594 1600 1604 1624 1612 1604 1594 1576 1596 1609 1623 1640 1634 1625 1622 1616 1657 1677 1695 1714 1719 1719 1722 1730 1776 1815 1844 1891 1874 1866 1861 1839 1865 1878 1897 1914 1918 1923 1932 1956 1937 1926 1913 1899 1913 1914 1915 1908 1900 1895 1884 1866 1875 1878 1880 1887 1888 1898 1906 1907 1945 1972 1995 2015 2040 2056 2061 2060 2082 2099 2106 2099 2127 2159 2199 2247 2247 2249 2240 2225 2257 2267 2282 2289 2298 2296 2303 2301 2318 2336 2330 2329 2318 2315 2337 2373 2372 2386 2406 2441 2428 2432 2423 2415 2435 2450 2446 2435 2459 2476 2487 2501 2545 2587 2616 2660 2665 2688 2703 2721 2749 2786 2814 2862 2867 2881 2893 2903 2946 2986 3016 3050 3068 3093 3122 3167 3187 3214 3248 3295 3278 3275 3260 3253 3273 3292 3292 3300 3299 3295 3292 3294 3299 3298 3301 3303 3292 3283 3270 3244 3247 3234 3219 3193 3183 3169 3171 3179 3170 3160 3146 3122 3149 3152 3152 3134 3138 3133 3135 3119 3142 3148 3163 3172 3163 3167 3167 3174 3161 3160 3166 3194 3163 3151 3156 3171 3167 3171 3165 3142 3191 3216 3236 3240 3261 3288 3307 3333 3354 3381 3402 3424 3438 3453 3475 3476 3524 3569 3617 3684 3666 3672 3664 3640 3696 3736 3766 3805 3801 3805 3809 3822 3817 3815 3795 3775 3786 3802 3810 3839 3835 3852 3858 3882 3872 3867 3864 3858 3854 3836 3811 3772 3796 3808 3822 3852 3847 3841 3843 3858 3838 3823 3820 3805 3835 3855 3874 3899 3864 3851 3838 3805 3813 3802 3809 3806 3822 3833 3855 3871 3863 3855 3840 3816 3822 3815 3822 3827 3840 3847 3861 3878 3883 3880 3887 3892 3882 3875 3873 3871 3895 3913 3932 3947 3945 3945 3948 3945 3959 3967 3976 3992 3962 3947 3935 3915 3930 3935 3943 3961 3954 3943 3950 3943 3935 3928 3932 3937 3962 3987 3991 4009 3990 3973 3957 3939 3960 3976 3962 3951 3949 3944 3934 3914 3916 3897 3893 3885 3878 3873 3869 3875 3843 3814 3789 3754 3772 3780 3791 3806 3807 3802 3789 3763 3760 3757 3754 3741 3747 3743 3721 3696 3705 3700 3703 3700 3714 3726 3731 3742 3748 3759 3743 3714 3752 3769 3761 3747 3761 3762 3764 3769 3735 3711 3693 3660 3659 3650 3634 3632 3579 3531 3490 3434 3444 3429 3425 3425 3397 3374 3350 3326 3351 3358 3368 3380 3341 3318 3295 3280 3242 3208 3186 3164 3134 3095 3064 3031 3021 3009 2994 2989 2933 2883 2838 2786 2768 2744 2719 2707 2656 2614 2580 2526 2556 2566 2570 2564
1437 1452 1447 1447 1446 1450 1449 1453 1466 1477 1482 1515 1515 1545 1543 1540 1546 1557 1551 1552 1568 1586 1591 1618 1634 1679 1681 1698 1684 1691 1690 1662 1679 1675 1670 1682 1679 1689 1700 1719 1727 1740 1735 1730 1730 1732 1735 1743 1727 1726 1718 1703 1707 1695 1684 1651 1650 1613 1599 1559 1559 1529 1532 1558 1557 1575 1590 1591 1603 1624 1621 1609 1613 1609 1606 1621 1620 1633 1624 1613 1636 1667 1666 1684 1691 1718 1716 1721 1732 1764 1772 1810 1801 1834 1834 1822 1829 1835 1842 1863 1865 1892 1891 1898 1907 1919 1920 1904 1919 1918 1921 1934 1923 1905 1904 1884 1888 1878 1872 1872 1870 1878 1886 1905 1926 1962 1975 2003 2019 2065 2069 2086 2087 2091 2101 2124 2119 2126 2144 2190 2197 2247 2249 2244 2264 2281 2279 2303 2295 2303 2307 2315 2321 2334 2332 2336 2331 2329 2327 2338 2343 2366 2385 2408 2411 2438 2447 2444 2447 2450 2447 2453 2451 2445 2451 2471 2495 2539 2555 2605 2611 2657 2676 2704 2715 2745 2766 2809 2810 2850 2864 2884 2897 2933 2959 3009 3016 3062 3081 3116 3132 3175 3199 3239 3236 3261 3261 3248 3260 3253 3252 3258 3265 3274 3265 3265 3272 3281 3274 3280 3269 3262 3261 3253 3246 3229 3210 3189 3181 3150 3137 3123 3131 3133 3130 3113 3126 3118 3122 3126 3117 3098 3101 3101 3110 3125 3124 3139 3126 3135 3141 3141 3136 3134 3136 3136 3144 3150 3156 3158 3156 3165 3165 3158 3181 3204 3203 3239 3233 3246 3262 3298 3299 3342 3353 3394 3398 3428 3443 3471 3476 3513 3526 3580 3570 3604 3622 3627 3633 3649 3655 3696 3705 3741 3756 3773 3770 3784 3775 3755 3762 3748 3754 3772 3787 3808 3829 3856 3851 3862 3869 3867 3872 3874 3863 3840 3840 3815 3806 3824 3827 3852 3850 3847 3841 3841 3847 3845 3848 3859 3853 3880 3861 3854 3864 3852 3851 3839 3829 3824 3824 3832 3835 3855 3855 3866 3862 3844 3840 3826 3813 3814 3817 3822 3833 3847 3846 3868 3865 3867 3862 3853 3862 3867 3880 3894 3900 3927 3918 3931 3938 3942 3948 3958 3962 3972 3963 3960 3958 3935 3949 3942 3937 3949 3953 3973 3974 3972 3958 3944 3942 3949 3955 3984 3983 4001 3997 4005 3999 3982 3986 3975 3975 3977 3970 3959 3958 3951 3954 3946 3931 3906 3900 3873 3868 3864 3861 3851 3836 3800 3802 3783 3779 3793 3797 3815 3808 3799 3785 3762 3758 3759 3751 3740 3730 3713 3723 3714 3703 3704 3699 3712 3705 3706 3713 3727 3724 3713 3725 3723 3715 3719 3730 3738 3732 3735 3728 3712 3722 3702 3692 3663 3650 3629 3622 3584 3569 3515 3518 3480 3455 3439 3431 3421 3406 3370 3385 3387 3381 3395 3374 3359 3352 3318 3305 3265 3252 3212 3202 3166 3139 3087 3087 3046 3041 3020 2999 2950 2926 2853 2834 2772 2734 2694 2679 2640 2620 2570 2578 2551 2543 2559 2550
1436 1452 1465 1456 1446 1456 1462 1464 1474 1475 1481 1497 1505 1530 1551 1545 1540 1543 1534 1556 1581 1597 1618 1631 1639 1672 1694 1681 1659 1669 1659 1662 1682 1671 1673 1667 1655 1673 1686 1700 1704 1708 1692 1708 1714 1721 1736 1716 1689 1692 1686 1691 1695 1674 1653 1646 1644 1600 1572 1562 1564 1536 1527 1543 1546 1567 1583 1592 1600 1616 1628 1624 1631 1623 1621 1622 1617 1616 1612 1623 1640 1667 1697 1694 1688 1705 1713 1719 1724 1756 1787 1770 1748 1781 1791 1784 1795 1802 1831 1827 1829 1850 1863 1882 1890 1902 1904 1908 1928 1923 1934 1939 1940 1928 1919 1903 1898 1882 1872 1861 1854 1870 1874 1910 1941 1984 2029 2029 2036 2076 2113 2110 2115 2119 2130 2132 2128 2144 2161 2184 2194 2232 2260 2265 2282 2290 2310 2310 2307 2311 2321 2327 2342 2343 2358 2338 2323 2320 2312 2336 2354 2370 2394 2402 2414 2441 2467 2461 2463 2463 2472 2462 2457 2450 2454 2472 2494 2540 2576 2596 2598 2651 2683 2710 2724 2756 2791 2801 2798 2841 2860 2878 2892 2940 2992 3002 3008 3059 3099 3132 3146 3188 3216 3228 3232 3248 3242 3250 3264 3249 3244 3243 3237 3239 3224 3241 3250 3249 3243 3249 3236 3236 3226 3223 3220 3199 3179 3166 3153 3122 3085 3091 3099 3093 3096 3103 3115 3109 3124 3107 3094 3078 3072 3075 3083 3094 3113 3099 3084 3102 3119 3112 3104 3102 3101 3118 3132 3131 3123 3137 3150 3155 3168 3176 3192 3214 3229 3236 3232 3247 3264 3271 3270 3312 3345 3370 3389 3422 3449 3460 3469 3508 3538 3539 3529 3563 3574 3575 3584 3608 3636 3645 3649 3684 3708 3718 3720 3736 3739 3731 3733 3727 3723 3745 3766 3785 3815 3832 3837 3854 3865 3867 3880 3883 3882 3866 3870 3839 3813 3825 3824 3846 3852 3847 3837 3841 3847 3854 3865 3860 3871 3869 3856 3856 3852 3851 3862 3852 3849 3837 3840 3843 3850 3861 3868 3872 3870 3848 3836 3820 3797 3809 3818 3823 3838 3837 3825 3842 3849 3848 3850 3842 3838 3869 3887 3896 3908 3911 3903 3924 3932 3945 3947 3960 3976 3967 3956 3956 3948 3961 3973 3958 3945 3953 3957 3976 3992 3982 3973 3952 3932 3949 3962 3988 4013 4004 3995 4004 4003 4007 4015 4005 4012 3988 3971 3969 3972 3969 3975 3965 3958 3933 3924 3888 3852 3854 3858 3839 3820 3809 3814 3793 3787 3796 3801 3805 3812 3793 3779 3764 3751 3749 3748 3734 3729 3716 3724 3708 3698 3691 3681 3690 3703 3695 3694 3704 3714 3701 3705 3700 3705 3700 3697 3704 3708 3709 3703 3699 3705 3692 3695 3668 3650 3635 3627 3590 3547 3544 3549 3507 3469 3449 3436 3420 3411 3401 3409 3408 3416 3402 3387 3375 3354 3333 3322 3283 3253 3234 3225 3179 3142 3122 3120 3083 3067 3036 3018 2961 2913 2860 2831 2755 2687 2664 2638 2605 2563 2567 2577 2554 2538 2535 2528
1447 1457 1459 1466 1468 1469 1468 1467 1469 1468 1476 1488 1494 1519 1526 1550 1545 1541 1548 1560 1577 1603 1618 1650 1662 1679 1669 1676 1676 1667 1653 1647 1642 1657 1656 1660 1660 1662 1667 1694 1691 1696 1699 1699 1697 1705 1699 1698 1687 1669 1673 1680 1666 1656 1655 1636 1608 1572 1578 1555 1539 1525 1545 1544 1558 1566 1572 1596 1593 1614 1612 1629 1635 1631 1627 1629 1618 1605 1615 1629 1640 1666 1672 1707 1708 1702 1708 1720 1726 1751 1736 1738 1751 1752 1733 1729 1733 1747 1765 1785 1805 1819 1841 1878 1879 1898 1890 1897 1899 1915 1927 1950 1961 1951 1934 1911 1901 1881 1872 1848 1860 1877 1887 1922 1945 2007 2010 2051 2067 2092 2094 2128 2136 2143 2142 2146 2159 2162 2170 2193 2200 2229 2236 2275 2274 2289 2296 2321 2320 2314 2321 2330 2337 2339 2338 2335 2334 2319 2325 2341 2341 2369 2375 2394 2414 2447 2445 2472 2469 2467 2465 2469 2459 2447 2461 2472 2497 2552 2560 2608 2630 2666 2676 2730 2735 2766 2772 2809 2829 2856 2849 2878 2894 2944 2949 3000 3025 3070 3095 3169 3185 3215 3207 3228 3242 3259 3249 3249 3240 3235 3243 3236 3233 3224 3224 3228 3217 3223 3229 3237 3231 3220 3210 3193 3190 3169 3169 3145 3132 3102 3095 3058 3043 3046 3070 3089 3081 3079 3084 3084 3079 3050 3051 3046 3048 3058 3056 3061 3067 3070 3072 3084 3075 3072 3085 3106 3105 3120 3116 3120 3124 3138 3158 3189 3208 3233 3224 3245 3243 3248 3244 3253 3260 3293 3309 3352 3377 3423 3422 3452 3480 3512 3497 3512 3530 3545 3525 3518 3525 3563 3573 3601 3623 3641 3649 3673 3688 3702 3700 3700 3708 3707 3712 3721 3726 3752 3774 3820 3829 3853 3847 3859 3878 3896 3884 3872 3875 3858 3856 3839 3842 3857 3847 3855 3847 3841 3844 3859 3849 3848 3859 3869 3864 3862 3850 3841 3850 3858 3847 3835 3839 3853 3857 3872 3878 3886 3864 3843 3835 3821 3818 3810 3810 3815 3824 3839 3833 3829 3824 3828 3826 3829 3859 3887 3883 3896 3901 3907 3922 3931 3935 3960 3956 3959 3963 3967 3975 3963 3976 3991 3980 3974 3970 3962 3966 3982 3983 3993 3987 3959 3963 3955 3960 3993 3989 4008 4015 4013 4016 4030 4022 4021 4013 3992 3995 3975 3980 3981 3989 3981 3968 3946 3936 3906 3887 3845 3840 3828 3822 3803 3797 3791 3799 3806 3799 3793 3791 3782 3787 3765 3755 3738 3730 3721 3716 3699 3703 3697 3694 3681 3678 3667 3670 3678 3681 3682 3677 3674 3669 3670 3676 3679 3679 3673 3682 3693 3683 3678 3674 3666 3673 3665 3664 3637 3635 3602 3594 3567 3548 3530 3511 3452 3441 3415 3423 3417 3418 3421 3418 3412 3421 3403 3376 3339 3332 3292 3288 3248 3228 3186 3175 3140 3122 3099 3080 3042 3023 2963 2931 2845 2817 2733 2720 2640 2616 2580 2585 2560 2554 2553 2541 2517 2509
1450 1462 1480 1476 1475 1480 1493 1484 1481 1480 1476 1483 1490 1512 1532 1536 1539 1546 1553 1576 1614 1618 1641 1659 1702 1683 1682 1670 1670 1659 1642 1629 1606 1624 1627 1638 1648 1646 1659 1670 1690 1690 1699 1694 1692 1688 1681 1670 1646 1652 1656 1653 1645 1641 1634 1614 1573 1558 1541 1529 1504 1526 1547 1559 1597 1580 1580 1585 1581 1596 1607 1621 1652 1630 1620 1620 1619 1612 1612 1632 1653 1666 1677 1698 1727 1717 1722 1723 1722 1729 1731 1725 1727 1717 1705 1693 1667 1714 1736 1762 1785 1806 1840 1855 1880 1875 1878 1880 1881 1899 1917 1950 2011 1958 1934 1915 1893 1880 1861 1857 1845 1880 1898 1934 1977 2011 2042 2066 2098 2100 2122 2140 2162 2163 2166 2178 2201 2193 2200 2209 2217 2231 2246 2258 2272 2283 2294 2316 2335 2329 2336 2338 2361 2342 2337 2326 2324 2321 2319 2332 2342 2365 2386 2399 2422 2434 2448 2460 2472 2462 2461 2460 2449 2463 2470 2487 2513 2551 2586 2622 2672 2680 2711 2732 2762 2770 2790 2817 2860 2859 2866 2880 2895 2933 2960 2994 3041 3078 3134 3184 3259 3232 3241 3244 3266 3257 3256 3243 3237 3231 3237 3229 3229 3219 3208 3209 3193 3203 3207 3212 3224 3201 3194 3177 3174 3155 3143 3126 3105 3087 3067 3037 2983 3024 3046 3056 3061 3057 3059 3055 3059 3031 3016 3013 3016 3020 3023 3024 3027 3038 3050 3040 3025 3047 3059 3073 3093 3089 3093 3105 3117 3130 3157 3189 3242 3223 3229 3241 3253 3250 3246 3246 3233 3288 3324 3349 3391 3406 3426 3456 3507 3491 3495 3507 3528 3521 3511 3483 3445 3510 3547 3576 3614 3611 3633 3646 3671 3666 3680 3677 3688 3684 3687 3703 3711 3732 3759 3790 3829 3830 3842 3859 3892 3888 3890 3883 3889 3871 3860 3854 3861 3858 3852 3849 3840 3841 3842 3846 3845 3845 3854 3859 3857 3849 3843 3843 3849 3840 3833 3830 3819 3841 3865 3875 3907 3877 3859 3834 3807 3808 3805 3811 3821 3817 3825 3826 3829 3821 3815 3813 3798 3838 3872 3892 3912 3911 3917 3929 3943 3942 3948 3963 3973 3972 3980 3980 3996 3992 3995 4001 4009 3987 3972 3975 3977 3994 4003 4006 4007 3977 3967 3964 3961 3988 3996 4008 4028 4021 4029 4032 4036 4028 4024 4008 4002 3996 3995 4001 4022 3987 3970 3950 3934 3905 3875 3855 3835 3824 3802 3790 3777 3786 3787 3800 3812 3793 3789 3783 3789 3761 3741 3731 3712 3713 3697 3693 3689 3686 3677 3669 3669 3660 3656 3657 3661 3659 3659 3646 3619 3637 3652 3651 3662 3661 3667 3664 3655 3653 3649 3653 3657 3659 3659 3654 3654 3615 3583 3570 3549 3537 3513 3479 3430 3436 3424 3427 3426 3426 3433 3431 3455 3411 3377 3355 3343 3310 3290 3260 3227 3190 3150 3136 3108 3091 3062 3040 3021 2960 2900 2847 2778 2737 2678 2635 2559 2573 2563 2554 2540 2533 2518 2507 2484
1462 1463 1472 1486 1487 1485 1492 1495 1494 1496 1488 1480 1491 1508 1507 1523 1530 1553 1559 1579 1582 1616 1625 1643 1638 1671 1672 1654 1659 1658 1646 1623 1620 1606 1603 1620 1612 1617 1629 1640 1653 1677 1684 1688 1686 1676 1669 1657 1657 1640 1632 1634 1637 1632 1629 1616 1597 1546 1538 1516 1522 1529 1526 1549 1551 1577 1580 1584 1580 1582 1582 1599 1598 1617 1617 1612 1617 1614 1618 1636 1638 1670 1669 1683 1694 1718 1725 1729 1717 1712 1707 1706 1700 1687 1691 1674 1693 1708 1705 1743 1742 1781 1795 1823 1823 1847 1860 1866 1871 1884 1893 1925 1916 1937 1947 1924 1914 1885 1882 1876 1890 1901 1906 1942 1953 2019 2034 2076 2066 2089 2113 2150 2153 2184 2189 2199 2198 2210 2225 2229 2226 2234 2231 2241 2255 2280 2292 2315 2317 2332 2330 2326 2328 2331 2327 2311 2322 2325 2329 2328 2341 2366 2373 2396 2398 2422 2431 2451 2451 2450 2459 2463 2476 2489 2484 2494 2511 2553 2569 2624 2624 2671 2699 2727 2727 2762 2781 2812 2817 2856 2862 2884 2892 2933 2940 2978 3000 3067 3105 3176 3164 3214 3234 3242 3243 3250 3247 3233 3236 3218 3217 3216 3218 3217 3220 3208 3202 3192 3184 3183 3172 3166 3163 3150 3150 3137 3124 3111 3103 3077 3069 3040 3046 3022 3020 3029 3027 3030 3026 3020 3012 3000 2998 2976 2982 2983 2981 2987 2994 3006 3006 3003 3019 3033 3028 3037 3041 3051 3068 3090 3090 3111 3125 3169 3162 3189 3215 3239 3241 3254 3259 3252 3274 3304 3299 3332 3342 3385 3403 3440 3426 3450 3475 3496 3491 3502 3486 3458 3478 3486 3493 3545 3533 3558 3580 3608 3600 3611 3627 3642 3649 3655 3676 3695 3691 3707 3722 3752 3762 3798 3813 3845 3846 3876 3887 3883 3887 3880 3876 3859 3865 3862 3857 3849 3847 3842 3840 3839 3836 3833 3844 3857 3845 3837 3838 3842 3832 3820 3829 3833 3830 3828 3837 3858 3849 3859 3862 3830 3832 3801 3803 3810 3811 3810 3814 3812 3817 3813 3820 3813 3834 3856 3863 3899 3900 3921 3932 3950 3942 3947 3961 3971 3968 3976 3975 3977 3992 4014 4012 4009 4000 3995 3997 3990 3998 4017 4013 4022 4001 3976 3981 3974 3986 4005 3998 4003 4005 4017 4021 4033 4027 4031 4032 4017 4023 4015 4013 4008 3992 3977 3980 3952 3941 3906 3897 3867 3863 3833 3806 3778 3791 3792 3784 3796 3783 3779 3787 3772 3769 3751 3757 3736 3734 3722 3706 3690 3687 3684 3669 3650 3653 3649 3646 3634 3639 3637 3633 3635 3630 3609 3606 3614 3626 3642 3647 3641 3644 3631 3637 3642 3648 3658 3664 3667 3647 3624 3620 3581 3583 3559 3549 3524 3515 3477 3454 3441 3434 3426 3429 3426 3422 3412 3406 3362 3356 3315 3308 3277 3255 3199 3184 3146 3128 3096 3074 3038 3018 2957 2933 2866 2846 2761 2733 2665 2657 2592 2574 2554 2540 2523 2521 2510 2493
1473 1481 1492 1497 1498 1501 1514 1501 1492 1495 1495 1496 1502 1503 1509 1513 1513 1536 1568 1570 1582 1605 1630 1613 1599 1631 1662 1645 1645 1642 1635 1617 1611 1598 1581 1593 1587 1603 1614 1623 1638 1662 1683 1677 1681 1668 1652 1653 1650 1633 1610 1625 1626 1625 1626 1608 1593 1551 1517 1508 1505 1514 1523 1528 1532 1553 1562 1570 1574 1572 1568 1571 1571 1589 1588 1606 1624 1614 1604 1624 1637 1655 1673 1681 1698 1712 1727 1718 1706 1698 1690 1682 1679 1675 1677 1676 1688 1694 1704 1712 1710 1754 1792 1789 1783 1814 1850 1846 1857 1869 1884 1892 1888 1909 1916 1914 1913 1894 1875 1899 1924 1924 1938 1949 1956 2012 2064 2063 2060 2094 2118 2151 2159 2192 2212 2213 2218 2233 2261 2249 2241 2242 2235 2249 2254 2287 2302 2324 2330 2336 2328 2326 2322 2316 2307 2311 2318 2324 2340 2343 2351 2367 2388 2390 2389 2410 2431 2448 2455 2456 2453 2473 2492 2500 2506 2517 2527 2561 2586 2613 2615 2673 2729 2718 2709 2749 2788 2806 2811 2838 2850 2868 2886 2921 2954 2977 2997 3064 3139 3143 3135 3185 3224 3233 3239 3245 3239 3238 3240 3218 3198 3202 3203 3212 3229 3213 3203 3182 3168 3158 3135 3133 3113 3116 3119 3101 3074 3076 3083 3063 3055 3049 3056 3042 3046 3024 3006 3005 2995 2978 2969 2961 2959 2952 2954 2943 2939 2956 2960 2977 2989 2983 2991 3004 3020 3020 3019 3029 3041 3060 3069 3089 3103 3131 3136 3167 3192 3225 3242 3257 3277 3277 3295 3309 3327 3331 3329 3368 3397 3401 3391 3418 3450 3464 3473 3470 3459 3451 3457 3466 3496 3491 3484 3511 3541 3553 3550 3568 3584 3603 3619 3636 3667 3669 3677 3695 3721 3734 3741 3769 3783 3809 3823 3859 3899 3891 3895 3884 3879 3872 3879 3868 3857 3849 3848 3841 3839 3833 3830 3836 3843 3848 3834 3828 3816 3826 3823 3814 3816 3820 3826 3828 3845 3831 3815 3836 3855 3835 3840 3814 3795 3807 3821 3818 3815 3813 3821 3820 3827 3835 3855 3876 3902 3905 3910 3931 3947 3951 3955 3966 3985 3981 3978 3983 3976 3989 3997 4016 4030 4017 4002 4000 3997 4002 4014 4025 4037 4019 4003 3989 3970 3986 4001 4010 4024 4010 4005 4012 4009 4020 4018 4030 4047 4036 4038 4025 4027 4006 3990 3981 3969 3950 3937 3910 3881 3877 3878 3833 3779 3785 3794 3779 3773 3778 3772 3778 3786 3769 3765 3751 3752 3737 3739 3716 3700 3684 3677 3667 3655 3648 3639 3636 3632 3629 3629 3617 3602 3612 3620 3603 3585 3592 3598 3616 3643 3631 3639 3624 3621 3635 3643 3656 3675 3659 3640 3631 3622 3610 3610 3583 3566 3552 3547 3503 3469 3458 3447 3444 3438 3431 3419 3404 3397 3374 3371 3322 3299 3271 3255 3203 3166 3142 3121 3086 3055 3035 3017 2951 2891 2867 2857 2777 2731 2701 2695 2633 2592 2550 2523 2516 2511 2499 2487
1493 1499 1501 1512 1512 1509 1500 1505 1501 1498 1495 1510 1505 1493 1495 1507 1503 1510 1522 1554 1566 1592 1580 1581 1584 1595 1600 1619 1634 1633 1616 1599 1607 1594 1594 1586 1577 1594 1591 1601 1618 1652 1646 1656 1666 1664 1665 1653 1646 1633 1635 1631 1620 1617 1609 1599 1589 1550 1536 1495 1490 1500 1499 1510 1519 1543 1543 1561 1564 1564 1557 1548 1562 1583 1585 1602 1614 1616 1620 1619 1619 1642 1649 1670 1687 1705 1702 1712 1701 1685 1677 1655 1658 1659 1663 1665 1666 1678 1683 1692 1702 1735 1731 1760 1759 1779 1788 1814 1832 1851 1857 1873 1881 1895 1898 1906 1904 1906 1911 1923 1921 1936 1948 1961 1972 2011 2016 2052 2077 2112 2125 2179 2190 2213 2207 2224 2229 2243 2246 2267 2264 2258 2263 2269 2279 2313 2318 2351 2357 2357 2343 2331 2320 2304 2310 2309 2308 2313 2328 2353 2352 2366 2370 2387 2392 2400 2418 2456 2457 2469 2475 2484 2487 2516 2519 2542 2549 2581 2585 2630 2642 2680 2676 2707 2716 2740 2759 2814 2820 2835 2834 2853 2864 2913 2928 2981 3008 3056 3066 3124 3132 3170 3180 3230 3246 3255 3251 3241 3239 3218 3216 3191 3195 3202 3201 3212 3198 3165 3165 3149 3136 3120 3106 3085 3085 3075 3068 3037 3035 3037 3047 3048 3052 3045 3035 3018 3014 2992 2963 2928 2925 2916 2921 2922 2909 2899 2919 2940 2942 2954 2949 2950 2960 2972 2979 3005 3006 3008 3022 3043 3050 3076 3088 3116 3125 3151 3175 3229 3234 3257 3268 3286 3299 3311 3321 3339 3347 3362 3357 3379 3371 3381 3402 3439 3443 3447 3442 3431 3426 3428 3434 3442 3454 3464 3479 3513 3511 3528 3540 3568 3568 3605 3610 3639 3654 3678 3690 3723 3737 3756 3758 3785 3797 3840 3852 3890 3896 3883 3884 3874 3880 3875 3866 3842 3843 3838 3835 3824 3835 3839 3843 3859 3850 3826 3826 3826 3811 3799 3805 3807 3807 3813 3808 3807 3812 3815 3814 3818 3825 3821 3817 3802 3813 3827 3815 3806 3805 3819 3823 3847 3857 3892 3892 3910 3928 3946 3945 3953 3964 3977 3977 3990 3996 4002 3998 4007 4003 4023 4017 4029 4024 4009 4007 4009 4013 4035 4025 4016 4023 4010 4003 4002 3996 4011 4009 4008 4019 4020 4022 4023 4021 4027 4036 4045 4039 4023 4022 4002 4006 3990 3970 3945 3937 3919 3911 3885 3871 3843 3827 3790 3769 3758 3771 3774 3769 3777 3765 3754 3757 3738 3738 3724 3724 3705 3694 3670 3666 3652 3653 3648 3637 3626 3625 3622 3618 3602 3606 3594 3596 3599 3587 3572 3571 3582 3590 3603 3611 3607 3625 3636 3641 3649 3651 3655 3654 3638 3637 3628 3622 3598 3589 3573 3556 3519 3519 3476 3476 3468 3453 3442 3421 3389 3384 3366 3340 3304 3296 3256 3241 3194 3182 3136 3112 3072 3065 3031 3011 2941 2923 2854 2813 2762 2762 2715 2705 2656 2615 2531 2525 2508 2501 2488 2481
1509 1512 1522 1522 1536 1511 1490 1487 1487 1484 1480 1497 1523 1489 1481 1482 1487 1498 1514 1529 1553 1558 1565 1552 1533 1566 1587 1598 1624 1603 1589 1592 1601 1590 1586 1576 1550 1575 1585 1598 1608 1627 1639 1649 1662 1665 1662 1657 1648 1639 1626 1622 1623 1609 1595 1589 1584 1544 1509 1488 1450 1478 1484 1493 1502 1520 1539 1545 1571 1555 1543 1546 1550 1570 1585 1605 1653 1623 1623 1614 1613 1627 1648 1664 1701 1695 1696 1692 1681 1674 1663 1648 1630 1643 1651 1645 1645 1663 1676 1682 1679 1709 1721 1724 1705 1754 1778 1802 1814 1836 1849 1863 1872 1893 1905 1903 1891 1903 1905 1932 1951 1959 1972 1975 1980 2015 2045 2059 2082 2118 2150 2189 2251 2230 2232 2233 2237 2250 2258 2263 2270 2279 2286 2294 2302 2326 2356 2372 2419 2375 2354 2340 2320 2316 2308 2311 2304 2318 2330 2340 2352 2368 2376 2390 2396 2411 2427 2452 2474 2480 2494 2499 2498 2523 2529 2549 2567 2588 2605 2640 2675 2683 2702 2704 2688 2736 2775 2809 2844 2836 2838 2838 2841 2893 2934 2978 3041 3058 3088 3100 3096 3151 3185 3225 3275 3266 3270 3258 3258 3238 3217 3201 3189 3189 3190 3189 3187 3161 3145 3133 3109 3100 3084 3070 3067 3053 3042 3020 2992 3015 3021 3041 3060 3038 3021 3013 3001 2964 2927 2903 2862 2875 2877 2875 2859 2874 2884 2907 2937 2930 2933 2929 2929 2940 2948 2970 2993 2995 3020 3027 3042 3066 3092 3109 3133 3156 3185 3220 3260 3263 3289 3294 3323 3328 3341 3348 3362 3356 3361 3350 3328 3372 3397 3422 3437 3425 3420 3407 3388 3400 3412 3414 3417 3440 3457 3472 3464 3499 3515 3529 3516 3557 3580 3611 3635 3655 3682 3712 3751 3746 3751 3768 3783 3823 3855 3880 3912 3885 3886 3881 3894 3876 3870 3849 3836 3833 3830 3830 3838 3836 3847 3852 3875 3835 3820 3815 3805 3797 3794 3795 3794 3789 3789 3787 3781 3797 3811 3806 3806 3807 3805 3810 3829 3814 3806 3794 3782 3799 3806 3835 3862 3888 3912 3927 3956 3958 3974 3975 3979 3986 3989 3996 4008 4005 4006 4008 4009 4015 4019 4024 4028 4017 4011 4014 4014 4026 4036 4030 4030 4014 3997 4003 4003 4014 4019 4019 4026 4034 4040 4033 4028 4042 4055 4048 4042 4031 4026 4012 4005 3981 3957 3940 3917 3911 3903 3888 3878 3839 3800 3782 3749 3756 3759 3757 3754 3756 3758 3751 3750 3736 3728 3716 3718 3682 3664 3655 3642 3643 3636 3630 3622 3614 3613 3610 3616 3603 3602 3592 3592 3580 3560 3555 3547 3562 3580 3588 3591 3605 3619 3630 3661 3652 3659 3651 3648 3642 3643 3637 3640 3603 3576 3574 3566 3545 3534 3507 3494 3477 3456 3445 3418 3393 3365 3343 3293 3285 3256 3238 3215 3183 3143 3117 3076 3058 3037 3022 3017 2944 2880 2830 2748 2741 2715 2714 2719 2644 2579 2529 2472 2490 2486 2480 2468
1523 1520 1515 1519 1514 1509 1493 1466 1473 1472 1472 1475 1464 1462 1470 1453 1464 1483 1478 1496 1501 1524 1528 1529 1539 1551 1545 1565 1559 1567 1577 1580 1576 1579 1584 1583 1580 1571 1581 1598 1597 1611 1616 1639 1650 1675 1672 1666 1661 1651 1633 1608 1608 1601 1598 1581 1567 1534 1535 1500 1500 1478 1467 1478 1480 1496 1498 1512 1523 1544 1546 1546 1544 1563 1561 1583 1578 1600 1609 1602 1605 1605 1616 1639 1651 1678 1684 1681 1679 1667 1660 1644 1643 1632 1624 1622 1636 1654 1664 1682 1688 1701 1700 1713 1727 1756 1762 1803 1802 1832 1843 1860 1875 1902 1906 1910 1917 1911 1924 1951 1949 1977 1974 1988 2002 2025 2029 2058 2080 2128 2134 2177 2178 2227 2236 2239 2248 2265 2257 2260 2277 2305 2308 2319 2322 2333 2340 2365 2364 2372 2384 2357 2353 2334 2330 2324 2324 2325 2320 2328 2346 2380 2385 2401 2406 2424 2430 2453 2457 2485 2498 2522 2527 2549 2548 2561 2574 2602 2613 2652 2647 2677 2697 2720 2724 2744 2754 2803 2794 2828 2828 2820 2840 2884 2896 2958 2974 3050 3065 3092 3110 3153 3161 3213 3217 3265 3268 3264 3273 3260 3248 3209 3202 3175 3171 3167 3160 3147 3145 3130 3118 3088 3072 3045 3045 3031 3026 3011 3019 3011 3014 3038 3025 3028 3029 3012 2984 2937 2931 2896 2883 2848 2845 2842 2854 2857 2856 2868 2875 2899 2905 2906 2908 2912 2916 2935 2939 2962 2982 3006 3019 3055 3061 3096 3112 3155 3173 3208 3208 3249 3262 3281 3300 3338 3342 3353 3337 3339 3338 3333 3360 3385 3385 3416 3396 3397 3395 3389 3384 3375 3374 3387 3398 3423 3425 3454 3463 3492 3493 3520 3518 3527 3544 3592 3592 3628 3654 3692 3693 3726 3740 3754 3769 3815 3822 3863 3849 3859 3875 3872 3879 3867 3866 3851 3849 3830 3826 3830 3821 3820 3829 3828 3824 3820 3822 3812 3805 3790 3786 3788 3776 3760 3766 3772 3781 3784 3789 3792 3797 3798 3800 3805 3800 3797 3792 3782 3789 3790 3799 3828 3842 3888 3902 3930 3930 3957 3970 3994 3994 4000 4001 3998 4000 4004 4004 4013 4009 4011 4013 4023 4024 4020 4019 4022 4017 4022 4025 4040 4031 4021 4022 4010 4012 4026 4020 4026 4032 4050 4044 4043 4047 4058 4050 4051 4046 4036 4031 4015 4004 3975 3965 3941 3939 3907 3902 3887 3873 3836 3825 3789 3790 3760 3753 3742 3743 3738 3734 3742 3736 3731 3717 3694 3676 3644 3651 3645 3647 3645 3632 3614 3614 3597 3598 3591 3597 3592 3586 3580 3579 3569 3565 3542 3546 3542 3551 3579 3582 3604 3601 3607 3613 3639 3638 3643 3649 3641 3647 3639 3623 3599 3598 3584 3576 3563 3555 3525 3524 3492 3491 3465 3449 3402 3390 3349 3337 3288 3265 3225 3219 3182 3156 3115 3098 3050 3032 3003 2985 2940 2915 2841 2824 2740 2725 2710 2678 2624 2613 2537 2543 2494 2475 2479 2471
1540 1528 1512 1512 1509 1492 1464 1460 1464 1458 1457 1450 1442 1448 1445 1439 1442 1452 1449 1463 1471 1497 1507 1512 1512 1524 1532 1533 1519 1532 1537 1546 1556 1563 1575 1580 1581 1591 1608 1599 1594 1602 1606 1632 1650 1669 1687 1672 1668 1647 1625 1611 1598 1591 1589 1569 1558 1533 1525 1511 1516 1479 1464 1462 1462 1472 1482 1493 1497 1522 1526 1525 1527 1541 1550 1551 1544 1565 1582 1585 1592 1597 1607 1629 1640 1665 1677 1676 1673 1662 1651 1639 1634 1621 1614 1614 1618 1644 1677 1683 1696 1705 1710 1714 1718 1756 1784 1796 1798 1836 1867 1874 1892 1914 1942 1937 1945 1942 1946 1962 1965 1981 1980 2003 2023 2040 2055 2073 2090 2131 2151 2165 2159 2204 2229 2245 2259 2265 2266 2274 2287 2312 2339 2344 2352 2360 2362 2371 2366 2379 2389 2367 2368 2347 2342 2337 2342 2336 2326 2336 2347 2380 2408 2420 2426 2444 2447 2463 2464 2492 2511 2534 2545 2567 2585 2592 2605 2621 2633 2652 2655 2688 2717 2729 2733 2760 2782 2789 2771 2809 2820 2816 2821 2862 2901 2935 2956 3026 3078 3092 3109 3147 3185 3201 3207 3247 3270 3288 3300 3283 3266 3231 3207 3175 3155 3145 3139 3133 3119 3116 3110 3079 3049 3032 3022 3009 2995 3008 3015 3012 3017 3022 3015 3017 3019 2993 2968 2926 2893 2872 2863 2836 2831 2833 2843 2845 2843 2846 2850 2868 2879 2883 2883 2889 2891 2906 2911 2937 2967 2982 2997 3030 3052 3085 3107 3152 3197 3200 3192 3232 3258 3280 3295 3325 3354 3338 3315 3323 3319 3340 3364 3387 3414 3401 3377 3378 3357 3362 3353 3355 3347 3369 3372 3399 3407 3434 3450 3479 3499 3507 3511 3526 3543 3560 3571 3615 3664 3666 3673 3702 3729 3743 3756 3797 3827 3828 3821 3845 3860 3873 3891 3867 3853 3844 3845 3825 3810 3808 3805 3812 3832 3816 3801 3797 3784 3792 3801 3780 3762 3769 3762 3751 3738 3764 3782 3787 3802 3791 3790 3792 3791 3793 3795 3785 3761 3771 3779 3789 3796 3830 3849 3892 3929 3929 3924 3949 3975 3999 4008 4020 4027 4014 4011 4002 3991 4004 4007 4012 4011 4026 4034 4027 4008 4015 4015 4017 4025 4029 4030 4027 4027 4015 4016 4018 4026 4027 4036 4045 4059 4048 4048 4058 4063 4051 4044 4041 4032 4015 4000 3973 3940 3942 3953 3917 3898 3881 3869 3836 3797 3806 3813 3779 3761 3749 3735 3727 3705 3713 3716 3706 3693 3665 3638 3621 3599 3622 3637 3632 3627 3613 3612 3593 3582 3584 3593 3576 3559 3565 3567 3561 3559 3548 3542 3537 3539 3560 3566 3589 3603 3594 3587 3608 3612 3633 3653 3649 3662 3636 3611 3596 3572 3576 3584 3570 3568 3547 3546 3520 3515 3491 3474 3430 3392 3364 3347 3296 3257 3228 3215 3162 3115 3100 3086 3036 3001 2978 2960 2913 2864 2843 2835 2755 2704 2685 2665 2615 2574 2554 2565 2503 2455 2467 2467
1550 1540 1532 1508 1505 1486 1475 1447 1438 1439 1441 1428 1436 1443 1432 1417 1422 1436 1433 1436 1453 1486 1485 1500 1491 1501 1508 1517 1518 1508 1510 1511 1520 1543 1559 1583 1586 1606 1599 1597 1604 1599 1613 1635 1641 1665 1661 1668 1664 1644 1638 1615 1597 1577 1568 1548 1538 1517 1516 1504 1485 1460 1468 1447 1443 1448 1467 1483 1501 1521 1505 1504 1514 1525 1526 1528 1537 1537 1544 1567 1565 1584 1604 1631 1643 1668 1658 1676 1668 1658 1652 1630 1619 1606 1607 1602 1598 1627 1646 1677 1695 1713 1713 1715 1733 1768 1770 1802 1818 1849 1845 1880 1893 1920 1926 1952 1960 1966 1972 1987 1995 2003 2004 2023 2031 2058 2065 2092 2119 2157 2149 2175 2186 2201 2214 2255 2262 2273 2273 2284 2293 2317 2327 2367 2385 2396 2384 2393 2389 2389 2375 2357 2354 2346 2351 2343 2344 2352 2350 2346 2352 2388 2407 2445 2457 2479 2475 2489 2497 2511 2525 2558 2567 2591 2594 2619 2628 2646 2650 2668 2678 2705 2713 2749 2762 2782 2781 2800 2809 2819 2801 2803 2806 2843 2871 2928 2953 3020 3027 3090 3110 3141 3157 3201 3218 3249 3265 3321 3332 3309 3283 3245 3215 3163 3158 3122 3124 3127 3122 3107 3095 3072 3060 3013 3007 2991 3009 3011 3009 3008 3015 3021 3010 3008 2990 2973 2959 2906 2893 2836 2815 2804 2819 2816 2830 2837 2833 2825 2834 2846 2848 2865 2871 2873 2873 2887 2886 2909 2921 2961 2981 3018 3036 3085 3106 3152 3158 3204 3213 3232 3242 3289 3292 3315 3311 3330 3327 3320 3330 3346 3363 3385 3387 3400 3401 3382 3373 3352 3342 3347 3361 3371 3375 3395 3401 3427 3437 3477 3476 3498 3505 3526 3521 3537 3550 3597 3598 3638 3652 3680 3695 3734 3753 3792 3785 3803 3822 3843 3843 3872 3872 3860 3854 3830 3831 3818 3811 3787 3793 3794 3800 3805 3803 3785 3780 3773 3767 3767 3774 3767 3754 3746 3753 3764 3760 3783 3785 3783 3790 3791 3790 3782 3786 3788 3780 3762 3771 3791 3808 3847 3858 3903 3898 3933 3934 3943 3967 4020 4029 4048 4030 4022 4015 4005 4008 4007 4009 4019 4026 4038 4041 4047 4034 4016 4008 4007 4018 4024 4024 4030 4019 4008 4005 4006 4010 4020 4024 4035 4036 4045 4053 4065 4056 4047 4054 4052 4037 4014 4013 3980 3967 3935 3929 3910 3908 3872 3869 3843 3845 3827 3806 3783 3784 3760 3744 3730 3718 3692 3689 3685 3673 3635 3621 3606 3613 3610 3608 3619 3616 3601 3602 3583 3587 3572 3571 3560 3566 3555 3550 3550 3551 3550 3539 3528 3545 3559 3565 3585 3581 3581 3590 3594 3600 3624 3629 3643 3637 3634 3625 3603 3592 3566 3566 3568 3566 3552 3546 3530 3527 3511 3503 3453 3427 3368 3343 3292 3274 3217 3191 3136 3133 3087 3056 3009 3005 2949 2934 2889 2879 2832 2798 2744 2731 2662 2640 2599 2592 2543 2531 2498 2498 2468 2461
1571 1546 1540 1520 1514 1483 1459 1439 1402 1428 1435 1432 1419 1429 1429 1416 1393 1420 1421 1437 1444 1470 1485 1480 1458 1488 1504 1513 1516 1508 1503 1505 1490 1527 1554 1568 1582 1597 1613 1606 1614 1613 1625 1641 1661 1656 1662 1660 1658 1640 1626 1600 1571 1563 1550 1528 1498 1494 1487 1470 1451 1447 1449 1440 1414 1449 1475 1489 1521 1505 1501 1500 1502 1515 1524 1526 1536 1527 1529 1538 1528 1574 1611 1631 1666 1655 1651 1657 1663 1656 1647 1624 1590 1593 1587 1587 1551 1622 1663 1687 1715 1717 1731 1731 1741 1761 1792 1804 1837 1846 1855 1878 1906 1923 1943 1957 1980 1983 1993 2007 2044 2024 2025 2038 2066 2073 2090 2115 2174 2164 2175 2187 2217 2218 2241 2254 2291 2277 2278 2287 2306 2316 2339 2370 2438 2404 2395 2400 2412 2396 2389 2357 2325 2343 2350 2348 2341 2356 2361 2363 2350 2403 2450 2470 2497 2500 2506 2519 2542 2540 2567 2577 2610 2613 2624 2642 2665 2669 2681 2690 2706 2721 2745 2765 2801 2802 2812 2818 2835 2823 2812 2800 2760 2834 2892 2926 2964 2999 3042 3079 3133 3147 3178 3199 3237 3245 3285 3324 3431 3322 3280 3236 3189 3168 3141 3126 3095 3117 3117 3103 3085 3066 3045 3012 2977 3001 3013 3018 3024 3013 3019 3012 2995 2986 2966 2957 2941 2906 2862 2817 2728 2784 2795 2815 2837 2832 2827 2820 2822 2830 2833 2846 2868 2858 2852 2858 2857 2881 2904 2937 2979 3005 3045 3076 3137 3141 3169 3192 3221 3231 3257 3275 3308 3302 3305 3313 3306 3319 3340 3361 3403 3395 3400 3407 3410 3398 3384 3361 3314 3357 3376 3383 3389 3403 3413 3427 3439 3471 3482 3499 3500 3510 3513 3520 3524 3565 3589 3608 3626 3656 3694 3714 3758 3764 3789 3790 3815 3822 3839 3858 3899 3859 3838 3828 3824 3810 3794 3786 3782 3790 3797 3794 3793 3775 3763 3762 3746 3754 3761 3753 3744 3741 3743 3751 3756 3777 3793 3786 3787 3790 3799 3790 3783 3777 3776 3768 3772 3790 3817 3846 3889 3890 3908 3920 3931 3954 3984 4022 4075 4049 4044 4024 4009 4011 4011 4016 4020 4030 4041 4056 4069 4059 4040 4029 4002 4017 4027 4022 4017 4014 4008 4001 3981 3994 4001 4008 4017 4021 4029 4035 4046 4055 4065 4054 4056 4044 4039 4024 4026 3984 3955 3940 3932 3915 3898 3881 3865 3855 3842 3831 3819 3802 3781 3762 3725 3727 3715 3698 3674 3671 3659 3623 3551 3590 3599 3603 3605 3608 3609 3603 3599 3581 3581 3572 3572 3562 3558 3544 3537 3542 3538 3532 3521 3531 3553 3563 3578 3581 3593 3586 3582 3588 3597 3617 3637 3626 3621 3615 3603 3600 3589 3576 3559 3566 3561 3552 3536 3528 3523 3519 3535 3461 3413 3368 3323 3287 3241 3203 3157 3133 3097 3066 3013 3001 2979 2942 2899 2873 2835 2801 2755 2729 2685 2652 2596 2588 2561 2543 2512 2490 2463 2457 2449
1550 1535 1538 1521 1509 1473 1473 1451 1458 1437 1438 1449 1438 1427 1423 1427 1428 1430 1427 1449 1448 1468 1471 1480 1484 1489 1493 1518 1507 1507 1512 1516 1516 1524 1525 1555 1563 1590 1596 1601 1609 1616 1623 1643 1633 1638 1648 1652 1648 1634 1623 1591 1592 1555 1546 1517 1514 1474 1462 1441 1447 1430 1440 1451 1459 1462 1459 1477 1474 1477 1487 1493 1495 1512 1509 1516 1511 1508 1522 1531 1547 1574 1580 1618 1615 1637 1645 1638 1647 1659 1649 1629 1625 1591 1596 1609 1627 1647 1650 1693 1688 1712 1730 1738 1734 1745 1760 1787 1803 1843 1850 1871 1881 1926 1933 1955 1961 1993 1995 2005 2010 2025 2040 2040 2050 2080 2080 2106 2110 2150 2166 2182 2187 2216 2223 2232 2236 2266 2272 2283 2281 2304 2315 2339 2343 2387 2398 2400 2393 2394 2389 2360 2369 2351 2347 2359 2368 2371 2384 2395 2405 2427 2443 2490 2491 2521 2524 2540 2530 2542 2556 2575 2592 2628 2644 2661 2662 2686 2694 2706 2708 2731 2740 2768 2774 2814 2818 2827 2824 2828 2831 2826 2834 2843 2857 2921 2927 2971 2995 3051 3067 3137 3153 3183 3183 3211 3228 3262 3245 3268 3281 3233 3230 3181 3171 3147 3141 3132 3115 3106 3095 3063 3048 3015 3033 3024 3021 3027 3014 3004 3011 3014 3002 2977 2967 2948 2941 2916 2896 2842 2851 2810 2794 2815 2810 2828 2819 2808 2817 2819 2816 2819 2825 2840 2844 2836 2846 2854 2867 2904 2917 2980 2993 3040 3049 3108 3135 3175 3177 3217 3221 3247 3252 3282 3299 3312 3307 3310 3326 3357 3360 3392 3407 3420 3414 3417 3409 3394 3398 3392 3380 3398 3401 3418 3423 3431 3447 3487 3493 3516 3504 3503 3499 3506 3518 3550 3549 3580 3589 3626 3637 3673 3685 3720 3738 3755 3769 3794 3804 3824 3820 3842 3844 3820 3817 3806 3793 3781 3787 3787 3783 3784 3777 3762 3773 3769 3759 3745 3747 3742 3746 3733 3738 3741 3757 3776 3775 3781 3788 3784 3791 3798 3783 3761 3764 3765 3771 3781 3799 3832 3831 3863 3886 3911 3925 3958 3973 4009 4001 4032 4039 4021 4033 4022 4020 4026 4032 4043 4061 4078 4074 4082 4083 4060 4053 4033 4020 4023 4019 4004 4010 4009 4001 3990 3986 3995 3996 4006 4009 4020 4026 4045 4050 4051 4043 4031 4027 4017 4008 3976 3977 3941 3942 3920 3910 3891 3890 3873 3856 3839 3839 3827 3812 3782 3776 3740 3723 3711 3697 3667 3667 3650 3647 3606 3599 3598 3596 3601 3604 3606 3587 3561 3565 3566 3561 3559 3546 3529 3541 3546 3534 3520 3527 3524 3535 3562 3556 3570 3576 3590 3585 3579 3593 3613 3599 3605 3607 3605 3612 3607 3606 3593 3590 3576 3569 3562 3544 3524 3519 3510 3488 3446 3438 3369 3363 3292 3260 3200 3199 3142 3117 3069 3059 3005 2981 2942 2929 2871 2844 2785 2779 2733 2710 2668 2654 2597 2578 2557 2540 2490 2481 2449 2449
1546 1532 1526 1516 1505 1478 1456 1463 1488 1463 1464 1457 1441 1432 1420 1430 1427 1437 1439 1449 1454 1473 1492 1486 1485 1499 1510 1514 1502 1511 1509 1519 1524 1526 1531 1552 1556 1586 1611 1603 1606 1608 1619 1630 1627 1636 1644 1645 1645 1626 1610 1601 1599 1568 1543 1526 1517 1477 1437 1437 1431 1432 1429 1456 1474 1479 1486 1480 1469 1467 1458 1469 1474 1489 1508 1503 1496 1505 1513 1530 1554 1575 1603 1604 1595 1629 1639 1644 1642 1651 1646 1637 1635 1615 1595 1632 1665 1683 1710 1702 1687 1726 1758 1733 1722 1744 1768 1781 1792 1827 1851 1864 1872 1910 1945 1952 1954 1983 2005 2013 2018 2034 2053 2055 2058 2066 2068 2085 2094 2124 2158 2165 2178 2198 2229 2216 2208 2236 2250 2257 2260 2286 2314 2316 2308 2347 2370 2378 2386 2385 2390 2378 2378 2360 2353 2371 2393 2403 2430 2430 2440 2464 2508 2509 2505 2528 2539 2542 2534 2551 2566 2587 2600 2642 2679 2673 2678 2701 2720 2717 2717 2736 2757 2765 2772 2805 2831 2827 2830 2832 2836 2843 2857 2878 2905 2923 2925 2964 2994 3022 3038 3100 3159 3157 3161 3183 3204 3194 3168 3189 3195 3207 3229 3184 3167 3153 3147 3135 3130 3110 3094 3063 3031 3036 3049 3049 3059 3033 3013 3011 3003 3007 2999 2977 2949 2946 2937 2913 2887 2878 2893 2852 2826 2815 2805 2811 2806 2805 2817 2811 2804 2807 2811 2820 2832 2833 2843 2844 2854 2872 2881 2930 2975 2996 3005 3068 3121 3140 3150 3179 3201 3216 3222 3256 3295 3297 3302 3314 3334 3344 3352 3382 3414 3418 3419 3421 3416 3417 3424 3415 3416 3418 3413 3441 3457 3455 3458 3492 3530 3524 3515 3506 3487 3500 3503 3524 3545 3557 3561 3599 3626 3641 3655 3691 3719 3731 3738 3765 3784 3781 3776 3796 3817 3807 3804 3789 3762 3775 3787 3782 3782 3774 3766 3766 3769 3766 3761 3755 3755 3750 3750 3743 3737 3753 3768 3779 3788 3787 3796 3791 3796 3786 3776 3761 3750 3760 3765 3781 3811 3811 3814 3851 3883 3900 3923 3954 3996 3991 3982 4011 4028 4033 4045 4038 4026 4038 4050 4077 4104 4106 4098 4109 4121 4098 4080 4053 4025 4030 4023 4016 4010 4008 3998 3990 3980 3986 3983 3990 3995 4008 4012 4032 4058 4044 4025 4019 4004 4005 4001 3977 3965 3954 3952 3922 3900 3895 3901 3876 3847 3847 3848 3828 3822 3804 3801 3756 3719 3708 3698 3681 3679 3671 3673 3644 3641 3611 3587 3595 3606 3590 3573 3558 3534 3542 3539 3542 3527 3531 3534 3538 3536 3530 3528 3531 3536 3547 3542 3555 3569 3576 3579 3580 3598 3591 3581 3585 3584 3601 3615 3615 3624 3607 3602 3583 3582 3555 3531 3518 3509 3492 3474 3437 3404 3382 3379 3297 3228 3215 3214 3150 3103 3078 3066 3005 2964 2942 2927 2871 2824 2786 2766 2718 2687 2669 2667 2608 2565 2556 2552 2507 2476 2460 2449
1527 1524 1524 1513 1496 1480 1474 1459 1465 1466 1475 1474 1464 1442 1450 1447 1447 1452 1451 1454 1456 1481 1477 1489 1498 1515 1515 1529 1535 1529 1523 1527 1525 1527 1543 1569 1571 1589 1584 1596 1593 1593 1612 1633 1629 1636 1636 1639 1631 1617 1613 1605 1593 1575 1559 1528 1517 1482 1474 1441 1430 1440 1450 1473 1472 1495 1487 1491 1480 1466 1461 1451 1446 1464 1473 1492 1491 1504 1507 1524 1533 1569 1579 1601 1626 1647 1641 1660 1653 1658 1647 1641 1641 1642 1650 1662 1674 1713 1713 1720 1736 1748 1722 1717 1726 1743 1750 1780 1794 1822 1829 1864 1867 1898 1911 1954 1960 1982 1993 2027 2027 2041 2046 2069 2062 2061 2061 2075 2071 2095 2104 2143 2146 2172 2178 2195 2205 2220 2218 2236 2245 2267 2274 2303 2306 2323 2330 2358 2361 2372 2377 2384 2373 2359 2376 2380 2395 2421 2426 2457 2463 2482 2498 2533 2543 2550 2546 2556 2558 2562 2578 2608 2623 2664 2655 2676 2695 2721 2716 2726 2738 2741 2747 2763 2769 2803 2802 2822 2826 2837 2847 2854 2873 2908 2911 2943 2955 2969 2974 3006 3016 3067 3076 3126 3148 3159 3146 3143 3138 3126 3142 3173 3162 3159 3165 3154 3148 3131 3123 3112 3097 3067 3069 3052 3053 3065 3049 3033 3042 3025 3021 3014 3005 2984 2975 2953 2944 2914 2914 2893 2895 2882 2860 2815 2817 2806 2798 2789 2796 2806 2800 2796 2795 2797 2808 2823 2825 2827 2839 2852 2858 2887 2906 2964 2981 3041 3054 3117 3132 3151 3162 3196 3199 3227 3237 3282 3290 3310 3319 3333 3348 3371 3386 3420 3418 3432 3433 3435 3433 3428 3439 3448 3462 3478 3466 3477 3481 3496 3507 3537 3538 3521 3515 3507 3493 3500 3514 3542 3555 3584 3589 3612 3630 3673 3677 3714 3717 3744 3736 3742 3740 3749 3767 3789 3793 3786 3780 3772 3772 3775 3770 3767 3772 3770 3769 3768 3766 3760 3758 3756 3756 3753 3759 3769 3774 3787 3781 3784 3791 3790 3781 3777 3775 3757 3766 3760 3758 3769 3776 3789 3808 3845 3849 3885 3908 3941 3951 3979 3988 4003 4012 4038 4044 4059 4057 4052 4072 4111 4114 4145 4143 4137 4137 4132 4119 4076 4074 4049 4040 4030 4025 4017 4002 3994 3988 3988 3981 3979 3992 4007 3999 4016 4022 4043 4037 4017 4011 3998 3988 3969 3975 3961 3941 3919 3916 3888 3889 3884 3875 3854 3834 3818 3825 3813 3801 3765 3751 3705 3694 3681 3684 3682 3680 3659 3654 3621 3610 3589 3581 3575 3573 3564 3557 3532 3537 3546 3540 3536 3536 3539 3539 3538 3538 3537 3540 3551 3543 3542 3552 3569 3559 3567 3569 3574 3575 3570 3587 3603 3605 3617 3614 3610 3602 3575 3570 3547 3538 3509 3499 3478 3466 3427 3414 3378 3345 3289 3282 3221 3198 3142 3130 3074 3040 2986 2986 2938 2928 2865 2842 2772 2735 2688 2687 2654 2641 2604 2597 2553 2540 2511 2504 2466 2456
1511 1518 1516 1496 1468 1464 1454 1462 1480 1469 1474 1473 1478 1467 1472 1469 1470 1476 1473 1467 1452 1476 1486 1489 1496 1513 1531 1539 1573 1543 1535 1535 1540 1546 1555 1572 1595 1595 1595 1591 1573 1602 1617 1625 1631 1638 1644 1636 1626 1608 1587 1591 1585 1565 1534 1525 1518 1483 1457 1435 1402 1441 1459 1474 1491 1486 1490 1479 1479 1463 1460 1439 1412 1444 1463 1471 1463 1492 1505 1520 1526 1561 1594 1614 1653 1654 1664 1665 1657 1658 1647 1643 1636 1648 1662 1687 1726 1733 1754 1750 1769 1750 1739 1718 1689 1730 1755 1778 1808 1822 1838 1849 1856 1894 1920 1944 1960 1984 2010 2024 2037 2048 2059 2065 2068 2060 2053 2056 2047 2073 2084 2105 2114 2142 2167 2173 2176 2194 2209 2222 2228 2246 2266 2278 2284 2307 2333 2339 2346 2356 2369 2367 2360 2369 2388 2395 2426 2430 2436 2462 2483 2507 2539 2552 2583 2574 2576 2574 2577 2592 2611 2633 2656 2670 2683 2695 2705 2725 2742 2746 2766 2764 2767 2767 2756 2798 2813 2819 2815 2843 2869 2877 2894 2916 2939 2962 3003 2994 2996 3003 2998 3044 3076 3104 3149 3132 3124 3104 3079 3095 3104 3118 3124 3121 3119 3128 3143 3117 3105 3092 3080 3068 3064 3059 3064 3059 3049 3045 3053 3033 3033 3019 3021 2993 2967 2963 2960 2929 2915 2911 2920 2881 2850 2829 2822 2804 2793 2784 2783 2787 2783 2783 2786 2789 2801 2810 2819 2822 2835 2837 2841 2869 2894 2923 2945 3007 3055 3096 3142 3142 3151 3164 3173 3199 3220 3250 3273 3304 3332 3342 3357 3381 3404 3412 3406 3428 3447 3447 3455 3456 3459 3476 3506 3496 3499 3497 3497 3513 3539 3548 3564 3538 3518 3503 3481 3499 3511 3534 3552 3576 3599 3610 3611 3646 3667 3687 3694 3713 3720 3712 3688 3724 3755 3766 3780 3762 3758 3761 3782 3757 3752 3757 3771 3767 3774 3767 3768 3762 3758 3755 3762 3757 3765 3778 3806 3794 3787 3790 3805 3783 3764 3765 3772 3767 3771 3762 3756 3769 3784 3787 3790 3827 3853 3884 3924 3937 3963 3971 3975 4000 4027 4041 4054 4062 4074 4084 4101 4128 4150 4164 4189 4178 4181 4162 4147 4113 4094 4075 4056 4042 4033 4014 3987 3986 3972 3980 3977 3989 4002 3999 3980 4003 4017 4026 4033 4017 4007 3997 3982 3975 3969 3952 3920 3914 3905 3892 3886 3877 3863 3847 3820 3824 3823 3815 3807 3769 3733 3707 3671 3680 3676 3687 3700 3680 3665 3637 3591 3590 3575 3568 3549 3562 3561 3550 3537 3546 3541 3545 3543 3542 3546 3545 3543 3543 3544 3550 3544 3548 3556 3550 3533 3550 3558 3564 3561 3583 3597 3608 3616 3616 3614 3608 3600 3579 3559 3542 3516 3502 3480 3464 3450 3411 3380 3345 3309 3270 3240 3212 3203 3133 3090 3045 3000 2977 2956 2943 2947 2869 2804 2748 2657 2663 2642 2634 2621 2591 2564 2547 2531 2507 2488 2464 2454
1514 1524 1511 1487 1485 1454 1457 1456 1451 1457 1460 1466 1472 1476 1490 1488 1500 1512 1501 1490 1488 1486 1482 1488 1498 1510 1509 1523 1527 1537 1542 1540 1551 1564 1567 1571 1578 1604 1601 1602 1615 1628 1617 1620 1626 1644 1636 1635 1620 1605 1597 1590 1581 1567 1551 1522 1509 1477 1467 1443 1461 1464 1454 1476 1462 1471 1471 1459 1461 1449 1453 1434 1447 1440 1447 1467 1475 1499 1501 1526 1536 1557 1571 1608 1622 1654 1674 1681 1678 1672 1667 1651 1656 1655 1670 1698 1703 1741 1749 1759 1750 1747 1746 1728 1736 1735 1737 1771 1778 1823 1828 1841 1863 1902 1906 1945 1948 1987 1992 2022 2032 2055 2059 2064 2058 2060 2052 2052 2053 2067 2063 2082 2088 2115 2133 2155 2156 2174 2187 2216 2213 2224 2238 2262 2269 2291 2296 2319 2324 2340 2345 2355 2361 2369 2373 2389 2405 2439 2447 2475 2482 2524 2526 2554 2559 2589 2591 2589 2605 2618 2624 2657 2655 2677 2695 2716 2709 2732 2731 2752 2760 2782 2781 2785 2800 2822 2814 2829 2833 2853 2862 2892 2900 2925 2944 2966 2970 3009 3013 3013 3018 3035 3035 3068 3072 3097 3096 3071 3081 3074 3071 3073 3076 3082 3096 3096 3096 3089 3092 3071 3077 3064 3060 3057 3060 3058 3057 3047 3036 3022 3024 3008 3012 3003 2993 2972 2952 2928 2925 2917 2901 2875 2864 2829 2822 2797 2788 2771 2771 2777 2771 2768 2767 2774 2781 2797 2792 2810 2819 2822 2835 2855 2860 2889 2918 2989 3005 3072 3072 3125 3133 3138 3151 3178 3190 3227 3245 3301 3321 3348 3363 3395 3392 3419 3419 3427 3439 3453 3466 3484 3483 3493 3490 3502 3515 3516 3517 3523 3534 3552 3545 3551 3541 3507 3514 3506 3507 3532 3542 3569 3587 3620 3619 3636 3641 3673 3669 3694 3691 3700 3700 3704 3707 3741 3728 3725 3736 3732 3723 3722 3729 3738 3740 3753 3758 3759 3760 3764 3755 3744 3750 3748 3760 3775 3778 3799 3795 3787 3779 3776 3764 3749 3755 3771 3767 3761 3762 3768 3773 3787 3797 3823 3837 3877 3881 3920 3932 3967 3974 3996 4016 4045 4046 4063 4086 4111 4123 4153 4158 4173 4179 4206 4203 4189 4177 4138 4134 4103 4090 4050 4041 4022 4019 3993 3987 3983 3987 3998 4001 4010 4003 3999 3998 4013 4011 4013 4014 4001 3998 3981 3973 3961 3947 3912 3910 3891 3893 3877 3868 3852 3855 3838 3830 3820 3805 3771 3758 3720 3721 3695 3688 3692 3700 3697 3699 3673 3653 3607 3592 3573 3574 3577 3571 3573 3566 3561 3554 3560 3550 3543 3551 3555 3554 3551 3552 3562 3556 3552 3555 3544 3548 3545 3546 3564 3580 3605 3603 3617 3614 3618 3615 3608 3602 3585 3577 3546 3534 3503 3478 3448 3433 3390 3367 3314 3307 3245 3230 3186 3160 3097 3083 3016 3017 2967 2953 2932 2915 2862 2840 2762 2747 2665 2646 2621 2604 2576 2570 2541 2533 2500 2483 2451 2438
1509 1513 1522 1496 1484 1462 1452 1448 1440 1442 1437 1464 1475 1495 1521 1519 1531 1530 1534 1518 1503 1501 1505 1507 1508 1509 1508 1518 1520 1528 1521 1544 1566 1570 1595 1583 1582 1597 1604 1617 1636 1640 1648 1629 1626 1630 1635 1615 1597 1584 1570 1578 1580 1556 1532 1513 1504 1471 1432 1452 1481 1474 1475 1463 1442 1455 1464 1453 1446 1448 1451 1444 1454 1454 1472 1473 1471 1501 1519 1540 1556 1575 1594 1613 1634 1666 1708 1701 1695 1688 1689 1673 1672 1675 1692 1703 1714 1745 1773 1760 1740 1746 1741 1739 1743 1745 1756 1766 1766 1807 1840 1851 1871 1897 1921 1934 1941 1976 2000 2026 2043 2058 2081 2062 2049 2043 2031 2033 2040 2047 2059 2068 2072 2108 2149 2141 2129 2160 2183 2199 2204 2224 2240 2253 2258 2280 2292 2302 2306 2330 2341 2349 2353 2368 2376 2391 2407 2435 2448 2478 2494 2530 2543 2555 2554 2590 2606 2622 2639 2644 2646 2665 2677 2700 2733 2718 2706 2730 2738 2754 2765 2782 2792 2807 2827 2834 2852 2842 2839 2861 2891 2904 2915 2949 2994 2979 2969 3006 3030 3029 3028 3041 3040 3053 3049 3062 3067 3054 3056 3049 3059 3048 3045 3059 3082 3080 3083 3070 3068 3063 3071 3052 3041 3050 3062 3054 3060 3043 3028 3020 3016 3009 3005 2994 2979 2959 2944 2918 2896 2903 2898 2868 2834 2824 2812 2782 2763 2751 2745 2750 2759 2748 2745 2752 2767 2768 2762 2787 2826 2820 2829 2845 2856 2887 2903 2965 3014 3036 3038 3091 3130 3130 3138 3165 3182 3215 3235 3298 3364 3368 3380 3399 3400 3419 3426 3446 3471 3472 3481 3489 3501 3502 3507 3519 3536 3530 3533 3544 3566 3553 3541 3544 3543 3522 3526 3517 3509 3539 3559 3582 3609 3624 3621 3645 3647 3657 3645 3670 3677 3682 3677 3688 3698 3705 3694 3703 3710 3693 3680 3681 3674 3701 3718 3729 3750 3744 3746 3747 3747 3747 3752 3751 3755 3771 3774 3786 3789 3779 3769 3751 3726 3733 3737 3748 3766 3754 3751 3766 3782 3788 3794 3823 3858 3873 3876 3909 3918 3954 3972 4005 4051 4051 4051 4084 4116 4133 4156 4181 4207 4193 4187 4212 4228 4213 4203 4168 4151 4123 4113 4072 4039 4031 4029 4005 3987 3990 3996 4001 4019 4014 4001 4003 4000 4008 4002 4008 4011 4003 4006 3986 3969 3957 3947 3928 3917 3906 3899 3878 3860 3856 3867 3845 3844 3822 3808 3771 3737 3732 3739 3713 3696 3721 3737 3729 3728 3691 3668 3625 3597 3584 3573 3580 3587 3577 3570 3565 3559 3561 3558 3561 3565 3569 3566 3559 3553 3560 3569 3568 3580 3561 3547 3547 3543 3572 3595 3613 3629 3630 3627 3624 3618 3610 3602 3587 3580 3551 3529 3489 3448 3434 3414 3374 3317 3304 3291 3232 3183 3145 3119 3062 3017 3002 2998 2948 2915 2914 2910 2849 2789 2762 2759 2681 2643 2607 2580 2557 2542 2529 2529 2481 2452 2426 2410
1501 1499 1502 1492 1491 1458 1457 1445 1434 1435 1452 1478 1482 1510 1515 1536 1538 1544 1545 1546 1534 1513 1521 1530 1518 1512 1522 1523 1530 1535 1538 1552 1542 1558 1571 1586 1592 1599 1607 1629 1645 1648 1639 1623 1624 1615 1605 1593 1587 1567 1571 1573 1561 1546 1535 1496 1492 1472 1468 1454 1455 1477 1467 1459 1461 1444 1443 1443 1443 1447 1440 1438 1439 1452 1464 1483 1498 1518 1527 1561 1570 1593 1595 1618 1638 1670 1683 1721 1714 1696 1695 1680 1685 1682 1694 1709 1728 1753 1751 1770 1765 1757 1747 1745 1746 1749 1753 1773 1777 1802 1811 1853 1866 1895 1901 1930 1944 1977 1994 2039 2047 2056 2050 2056 2054 2032 2023 2009 2006 2022 2037 2059 2073 2098 2099 2131 2137 2157 2161 2193 2205 2228 2234 2255 2261 2280 2282 2291 2306 2336 2335 2349 2354 2376 2376 2393 2415 2448 2461 2498 2516 2559 2556 2571 2588 2612 2621 2657 2664 2675 2673 2683 2699 2715 2712 2718 2733 2745 2743 2762 2769 2790 2799 2824 2828 2836 2839 2848 2855 2863 2881 2918 2933 2964 2963 2987 2999 3019 3018 3045 3054 3061 3050 3058 3046 3035 3030 3022 3012 3007 3020 3017 3026 3028 3039 3062 3051 3042 3051 3042 3044 3034 3044 3040 3037 3039 3037 3038 3032 3016 3014 3010 3008 2992 2977 2943 2937 2907 2915 2901 2892 2868 2857 2824 2797 2759 2757 2728 2722 2722 2724 2722 2730 2725 2733 2748 2744 2752 2768 2806 2822 2840 2857 2900 2914 2957 2963 3022 3043 3071 3078 3114 3136 3162 3176 3217 3238 3292 3314 3383 3402 3421 3413 3431 3432 3463 3463 3484 3488 3493 3501 3507 3519 3533 3532 3537 3538 3554 3547 3554 3555 3543 3532 3512 3518 3530 3542 3556 3563 3593 3611 3648 3663 3678 3663 3666 3666 3667 3661 3674 3666 3673 3678 3687 3688 3686 3672 3652 3652 3648 3660 3674 3677 3695 3705 3724 3730 3731 3734 3748 3747 3752 3761 3780 3777 3784 3778 3774 3763 3733 3736 3720 3714 3720 3730 3741 3749 3766 3768 3790 3793 3820 3836 3881 3900 3924 3931 3962 3959 4003 4017 4059 4080 4108 4118 4151 4171 4209 4200 4208 4214 4230 4225 4232 4222 4182 4170 4127 4121 4089 4081 4037 4031 4013 4009 3994 3991 3992 4004 4027 4027 4014 4010 4017 4010 4006 4000 3996 3992 3990 3981 3953 3955 3936 3930 3918 3903 3878 3869 3845 3844 3833 3835 3817 3806 3770 3763 3734 3728 3725 3742 3759 3756 3755 3732 3696 3685 3630 3625 3595 3584 3585 3580 3581 3581 3573 3572 3567 3570 3581 3579 3590 3581 3569 3572 3559 3561 3571 3571 3575 3568 3555 3564 3586 3597 3624 3625 3648 3643 3635 3627 3612 3611 3583 3572 3549 3523 3476 3468 3429 3417 3376 3351 3295 3259 3210 3177 3095 3066 3018 3021 2980 2952 2913 2923 2900 2887 2838 2812 2741 2711 2657 2653 2587 2570 2533 2528 2506 2488 2446 2437 2392 2375
1495 1504 1510 1498 1494 1468 1444 1436 1406 1444 1457 1484 1505 1518 1542 1544 1551 1551 1562 1551 1546 1539 1540 1536 1528 1535 1547 1547 1557 1552 1545 1551 1537 1563 1576 1588 1591 1603 1620 1647 1699 1660 1651 1629 1610 1604 1589 1575 1554 1558 1549 1558 1555 1534 1518 1494 1470 1459 1444 1447 1460 1452 1452 1451 1468 1446 1443 1428 1420 1430 1432 1426 1415 1442 1468 1493 1521 1534 1561 1579 1608 1606 1614 1636 1671 1683 1709 1720 1733 1714 1710 1700 1691 1695 1713 1724 1758 1756 1770 1764 1760 1756 1749 1747 1749 1752 1750 1769 1780 1801 1825 1847 1878 1890 1910 1925 1950 1977 2020 2043 2094 2056 2047 2043 2047 2024 2004 1989 1962 2005 2029 2047 2076 2084 2095 2108 2111 2136 2167 2184 2218 2228 2250 2256 2272 2280 2300 2300 2307 2332 2351 2353 2352 2373 2385 2412 2446 2464 2493 2519 2560 2576 2602 2608 2626 2641 2663 2684 2721 2699 2697 2713 2753 2741 2738 2737 2738 2748 2759 2767 2786 2793 2817 2827 2860 2846 2846 2850 2858 2879 2907 2929 2960 2971 2989 2995 2999 3017 3040 3051 3082 3060 3055 3052 3051 3029 3014 2992 2952 2988 3003 3002 3003 3013 3023 3029 3020 3034 3038 3034 3032 3032 3032 3027 3028 3017 3009 3012 3015 3011 3005 3005 3015 2989 2970 2946 2922 2914 2908 2905 2904 2869 2839 2809 2773 2753 2730 2709 2676 2706 2710 2714 2714 2713 2715 2716 2709 2728 2752 2778 2817 2825 2859 2889 2943 2946 2971 3007 3066 3062 3090 3109 3140 3159 3190 3220 3263 3297 3347 3383 3443 3421 3422 3430 3436 3465 3480 3491 3507 3507 3523 3522 3537 3541 3552 3538 3527 3545 3550 3554 3559 3542 3532 3516 3489 3535 3559 3575 3597 3616 3647 3668 3717 3696 3688 3687 3686 3677 3660 3663 3642 3663 3675 3682 3682 3675 3659 3639 3599 3627 3639 3654 3667 3678 3685 3696 3717 3710 3714 3726 3741 3746 3762 3770 3791 3782 3783 3770 3756 3739 3724 3713 3693 3711 3725 3726 3724 3754 3767 3783 3780 3819 3851 3888 3940 3945 3963 3961 3955 3996 4035 4065 4102 4125 4164 4179 4208 4217 4227 4220 4212 4237 4254 4248 4246 4200 4168 4145 4118 4105 4086 4063 4035 4023 4002 3996 3992 3995 4001 4016 4049 4020 4009 4013 4018 4004 3996 3986 3971 3979 3976 3966 3963 3940 3919 3913 3899 3879 3857 3843 3838 3835 3825 3811 3793 3767 3743 3731 3719 3729 3747 3765 3816 3769 3742 3709 3688 3647 3610 3591 3560 3578 3583 3580 3585 3576 3578 3569 3574 3583 3589 3599 3603 3595 3594 3577 3563 3571 3572 3569 3562 3563 3570 3596 3637 3631 3636 3646 3663 3644 3634 3624 3634 3582 3557 3524 3490 3461 3440 3424 3417 3368 3319 3273 3214 3174 3112 3056 2968 2990 2970 2947 2898 2894 2881 2882 2897 2823 2759 2716 2658 2637 2610 2571 2518 2519 2495 2484 2461 2424 2384 2361 2324
1507 1512 1508 1499 1497 1477 1472 1451 1465 1478 1476 1498 1494 1516 1530 1548 1547 1550 1558 1552 1558 1557 1558 1547 1555 1553 1550 1563 1568 1574 1577 1570 1572 1581 1584 1599 1596 1602 1615 1641 1631 1644 1656 1633 1628 1605 1584 1565 1570 1565 1559 1558 1539 1519 1521 1495 1486 1452 1442 1431 1426 1422 1429 1428 1423 1429 1422 1409 1416 1421 1416 1421 1431 1436 1454 1501 1503 1536 1560 1588 1586 1609 1621 1643 1650 1682 1689 1718 1712 1718 1724 1720 1709 1696 1704 1719 1728 1743 1751 1756 1757 1760 1754 1748 1751 1760 1760 1776 1775 1797 1804 1834 1841 1877 1889 1910 1928 1963 1982 2019 2008 2029 2038 2022 2027 2014 2005 1981 2003 2008 2003 2025 2034 2068 2081 2095 2097 2111 2124 2158 2178 2217 2229 2250 2254 2268 2283 2303 2313 2334 2341 2360 2366 2379 2391 2427 2428 2472 2491 2527 2535 2585 2605 2634 2641 2664 2671 2695 2689 2705 2714 2722 2727 2758 2758 2754 2754 2752 2757 2763 2768 2781 2792 2810 2821 2843 2851 2849 2865 2890 2899 2931 2937 2973 2985 3005 2999 3010 3015 3040 3037 3043 3055 3045 3035 3018 3008 2980 2998 2990 2982 2987 2993 2999 3000 3012 3022 3037 3029 3024 3030 3030 3025 3011 3008 2992 2995 2988 3000 3008 2998 2993 2989 2981 2977 2950 2946 2922 2916 2909 2889 2865 2854 2803 2797 2752 2734 2705 2725 2717 2709 2712 2703 2698 2694 2695 2699 2701 2711 2737 2748 2785 2810 2857 2859 2915 2932 2971 2978 3022 3051 3092 3099 3144 3167 3211 3226 3286 3307 3360 3359 3401 3421 3433 3451 3482 3480 3495 3492 3506 3510 3521 3536 3544 3547 3538 3546 3552 3545 3553 3549 3537 3542 3532 3549 3565 3562 3591 3596 3629 3638 3662 3667 3702 3707 3708 3702 3695 3684 3678 3673 3663 3668 3686 3675 3673 3661 3646 3643 3625 3619 3636 3640 3665 3660 3661 3666 3680 3688 3701 3710 3731 3735 3747 3758 3771 3782 3770 3770 3746 3735 3718 3720 3707 3708 3715 3734 3762 3766 3796 3801 3827 3839 3883 3901 3954 3964 3964 3975 3991 4011 4067 4083 4129 4154 4195 4190 4224 4227 4234 4242 4253 4254 4262 4245 4207 4205 4169 4164 4127 4113 4095 4083 4044 4028 3999 4002 3997 3991 3990 3991 4008 4009 4008 4002 3998 3996 3983 3986 3982 3971 3973 3961 3943 3940 3917 3908 3885 3862 3834 3846 3844 3829 3809 3797 3763 3752 3728 3731 3727 3726 3741 3745 3765 3756 3710 3707 3662 3647 3600 3606 3584 3569 3571 3569 3568 3566 3560 3575 3588 3597 3615 3608 3617 3607 3594 3592 3580 3573 3569 3567 3568 3576 3594 3596 3630 3630 3637 3637 3647 3637 3617 3596 3554 3543 3500 3492 3441 3436 3410 3396 3360 3333 3265 3246 3162 3128 3052 3063 3005 2968 2943 2926 2886 2873 2851 2835 2800 2785 2708 2693 2623 2608 2571 2571 2532 2507 2476 2456 2408 2388 2344 2333
1515 1519 1529 1513 1504 1486 1466 1474 1489 1499 1523 1519 1507 1532 1552 1550 1550 1561 1579 1566 1561 1568 1582 1576 1581 1569 1558 1576 1590 1596 1607 1593 1592 1605 1621 1615 1610 1614 1628 1624 1619 1634 1648 1632 1625 1594 1559 1559 1561 1557 1559 1547 1530 1519 1516 1496 1479 1447 1415 1414 1408 1406 1408 1396 1384 1387 1383 1385 1393 1401 1402 1423 1435 1457 1467 1498 1509 1551 1596 1590 1589 1610 1626 1644 1663 1676 1687 1700 1704 1715 1728 1719 1712 1706 1711 1725 1737 1741 1750 1747 1745 1747 1749 1749 1747 1756 1755 1770 1779 1795 1805 1824 1828 1865 1893 1914 1929 1960 1996 1983 1966 1988 2009 2013 2027 2004 1979 1998 2022 2016 2020 2021 2016 2055 2086 2085 2090 2107 2118 2148 2171 2202 2231 2239 2248 2266 2292 2304 2316 2339 2365 2369 2375 2388 2407 2421 2431 2474 2519 2527 2537 2591 2642 2655 2666 2679 2702 2699 2694 2702 2708 2723 2733 2753 2768 2770 2775 2768 2777 2775 2771 2782 2792 2803 2814 2837 2855 2865 2878 2897 2919 2935 2940 2973 3003 2998 2992 3006 3011 3025 3027 3038 3050 3036 3024 3010 2986 2995 3009 3006 2999 2992 2984 2994 2987 3006 3018 3031 3035 3034 3031 3032 3027 3016 3000 2988 2974 2981 2996 2988 2977 2980 2977 2968 2965 2944 2945 2918 2913 2893 2874 2854 2846 2806 2797 2749 2709 2723 2748 2733 2734 2714 2692 2685 2671 2677 2685 2691 2699 2711 2721 2758 2783 2806 2805 2865 2902 2932 2948 2992 3027 3053 3073 3125 3176 3206 3218 3277 3319 3327 3331 3374 3410 3437 3467 3488 3507 3494 3487 3499 3508 3534 3558 3562 3570 3552 3545 3549 3548 3559 3558 3554 3540 3554 3569 3585 3603 3607 3607 3635 3665 3657 3660 3687 3703 3711 3718 3706 3678 3689 3694 3685 3681 3681 3669 3664 3645 3647 3644 3628 3619 3623 3621 3639 3647 3644 3638 3650 3654 3678 3697 3713 3724 3742 3753 3772 3799 3783 3782 3751 3722 3727 3734 3720 3717 3728 3735 3762 3784 3801 3814 3841 3866 3895 3917 3964 3999 3983 3982 4007 4032 4073 4102 4149 4191 4187 4180 4216 4243 4252 4257 4275 4290 4281 4258 4232 4198 4195 4193 4151 4113 4110 4107 4065 4034 4015 4010 3995 3986 3980 3966 3979 3971 3989 3996 3989 3985 3985 3983 3976 3961 3960 3953 3943 3939 3922 3912 3873 3833 3842 3850 3838 3825 3808 3793 3758 3724 3729 3727 3721 3717 3728 3727 3740 3736 3713 3714 3672 3638 3629 3632 3596 3563 3566 3556 3561 3554 3567 3575 3589 3614 3612 3614 3613 3617 3601 3603 3583 3583 3567 3561 3571 3580 3588 3591 3605 3618 3629 3631 3628 3622 3600 3579 3534 3486 3477 3470 3428 3406 3391 3377 3333 3290 3259 3239 3159 3086 3080 3084 3016 2959 2929 2908 2873 2857 2832 2809 2771 2735 2694 2683 2620 2583 2578 2574 2534 2502 2468 2448 2396 2339 2335 2331
1519 1523 1522 1522 1519 1498 1496 1491 1495 1508 1522 1550 1553 1555 1547 1551 1559 1568 1566 1572 1564 1573 1576 1594 1590 1586 1592 1596 1599 1615 1611 1605 1616 1629 1623 1631 1620 1617 1613 1608 1617 1625 1622 1623 1614 1589 1586 1553 1553 1545 1547 1541 1536 1514 1505 1496 1482 1445 1436 1405 1396 1386 1376 1366 1363 1355 1356 1356 1362 1390 1405 1434 1455 1491 1492 1516 1527 1566 1566 1590 1604 1617 1623 1645 1659 1673 1680 1694 1696 1710 1712 1718 1717 1706 1719 1733 1735 1737 1739 1740 1737 1734 1748 1755 1757 1762 1765 1771 1783 1799 1803 1829 1833 1862 1877 1926 1930 1953 1943 1953 1952 1950 1966 1994 1996 1996 2007 2010 2012 2017 2022 2024 2033 2050 2048 2069 2087 2112 2118 2148 2160 2192 2203 2228 2242 2258 2273 2307 2319 2341 2345 2377 2379 2391 2397 2422 2438 2475 2483 2525 2547 2602 2617 2679 2681 2686 2689 2708 2704 2704 2710 2732 2743 2756 2764 2783 2771 2768 2782 2791 2783 2785 2787 2797 2813 2838 2847 2878 2878 2901 2915 2952 2957 2978 2975 2994 3000 3012 3010 3024 3019 3034 3025 3027 3028 3014 3017 3006 3015 3028 3015 3001 3001 3008 3006 3009 3019 3035 3035 3047 3052 3043 3033 3027 3012 2988 2982 2967 2970 2974 2976 2976 2964 2952 2940 2918 2907 2895 2898 2879 2869 2831 2819 2781 2774 2741 2749 2731 2728 2735 2730 2718 2704 2679 2674 2659 2667 2681 2685 2690 2707 2744 2746 2782 2791 2841 2853 2907 2925 2974 2986 3021 3045 3110 3142 3219 3239 3286 3273 3298 3316 3354 3377 3441 3454 3497 3489 3489 3497 3495 3515 3551 3562 3579 3567 3555 3561 3553 3567 3579 3582 3584 3574 3576 3583 3603 3606 3627 3635 3639 3635 3643 3657 3686 3691 3715 3731 3735 3723 3709 3705 3703 3698 3691 3688 3671 3664 3655 3639 3626 3624 3618 3621 3626 3622 3630 3622 3630 3644 3663 3678 3700 3716 3747 3747 3767 3767 3781 3778 3757 3756 3737 3731 3724 3737 3746 3755 3768 3780 3812 3824 3857 3873 3917 3938 3987 3975 3987 4002 4023 4044 4091 4122 4177 4162 4185 4195 4220 4236 4274 4286 4302 4302 4314 4301 4266 4254 4220 4201 4171 4162 4126 4110 4078 4063 4020 4008 3990 3989 3981 3973 3971 3968 3984 3978 3977 3988 3992 3992 3980 3971 3956 3949 3939 3934 3922 3900 3864 3866 3851 3840 3836 3830 3808 3794 3755 3760 3740 3723 3713 3725 3728 3729 3735 3715 3695 3693 3675 3669 3647 3632 3605 3599 3574 3573 3567 3568 3581 3575 3581 3588 3608 3610 3606 3598 3593 3587 3569 3571 3555 3568 3578 3574 3587 3579 3583 3601 3633 3627 3613 3605 3584 3567 3520 3506 3455 3432 3395 3397 3374 3353 3307 3290 3242 3211 3150 3150 3100 3070 3017 2988 2906 2879 2843 2840 2812 2788 2740 2717 2652 2635 2593 2612 2585 2573 2529 2509 2447 2432 2389 2375 2327 2319
1521 1525 1530 1524 1528 1510 1494 1504 1516 1529 1544 1561 1587 1577 1575 1566 1567 1572 1576 1563 1535 1566 1576 1589 1600 1605 1608 1623 1630 1631 1636 1634 1625 1641 1641 1635 1614 1619 1618 1613 1609 1618 1624 1612 1596 1586 1577 1560 1556 1544 1544 1535 1531 1506 1480 1475 1471 1441 1418 1399 1381 1364 1347 1337 1325 1324 1329 1332 1320 1371 1405 1439 1494 1506 1528 1540 1561 1578 1601 1606 1615 1625 1641 1660 1692 1685 1693 1696 1693 1707 1717 1719 1717 1722 1725 1741 1759 1747 1744 1736 1724 1741 1760 1761 1764 1769 1782 1787 1808 1798 1807 1822 1836 1862 1894 1920 1950 1939 1940 1931 1911 1939 1956 1970 1986 1986 1995 2011 2044 2027 2025 2028 2038 2050 2060 2073 2081 2107 2122 2151 2184 2196 2223 2233 2251 2263 2282 2301 2338 2339 2348 2366 2383 2391 2402 2424 2449 2474 2503 2524 2542 2599 2650 2675 2720 2694 2696 2695 2702 2704 2712 2738 2778 2773 2786 2778 2765 2785 2797 2792 2780 2791 2797 2811 2825 2842 2861 2872 2879 2909 2931 2956 2981 2983 2990 2992 2994 3002 3012 3013 3009 3017 3013 3018 3021 3030 3027 3033 3042 3041 3022 3016 2999 3015 3024 3031 3048 3041 3041 3054 3083 3052 3034 3021 3008 2990 2973 2965 2965 2959 2958 2959 2954 2931 2913 2888 2850 2870 2875 2865 2856 2822 2791 2768 2731 2733 2728 2734 2739 2723 2719 2703 2687 2670 2666 2658 2657 2672 2685 2686 2695 2724 2740 2756 2760 2821 2860 2891 2920 2958 3001 3015 3025 3096 3167 3212 3278 3277 3290 3292 3294 3338 3382 3422 3468 3482 3506 3501 3498 3510 3528 3562 3610 3592 3579 3575 3568 3575 3592 3599 3618 3597 3581 3593 3614 3621 3628 3645 3673 3657 3654 3652 3636 3681 3706 3730 3774 3745 3732 3730 3732 3721 3707 3706 3710 3679 3661 3651 3631 3620 3610 3615 3622 3616 3614 3599 3584 3615 3646 3663 3696 3703 3723 3736 3751 3754 3768 3769 3778 3758 3749 3742 3743 3741 3745 3765 3789 3787 3807 3824 3844 3868 3904 3935 3983 3994 4009 4007 4000 4039 4080 4117 4191 4181 4185 4188 4186 4233 4271 4293 4328 4327 4336 4338 4334 4302 4275 4250 4217 4187 4161 4141 4123 4088 4049 4023 3988 3986 3977 3970 3957 3960 3952 3969 3980 3982 3990 3997 4011 3978 3968 3950 3942 3932 3922 3903 3875 3854 3838 3837 3843 3834 3828 3809 3788 3773 3755 3746 3717 3728 3732 3736 3736 3721 3703 3692 3667 3659 3641 3636 3639 3611 3588 3587 3590 3577 3568 3575 3587 3583 3591 3600 3614 3595 3582 3576 3571 3563 3560 3555 3558 3566 3573 3572 3566 3577 3598 3617 3647 3613 3592 3569 3545 3506 3471 3436 3395 3379 3350 3341 3325 3282 3237 3210 3165 3146 3113 3096 3080 3015 2947 2888 2810 2815 2797 2777 2746 2711 2670 2626 2560 2584 2588 2583 2596 2530 2486 2443 2393 2372 2339 2314 2301
1521 1527 1527 1519 1521 1521 1518 1516 1527 1549 1544 1564 1568 1592 1586 1573 1581 1580 1575 1570 1578 1581 1572 1586 1603 1629 1643 1658 1645 1645 1658 1673 1671 1669 1663 1655 1646 1628 1621 1620 1621 1617 1608 1606 1603 1582 1573 1557 1551 1532 1536 1526 1517 1499 1482 1456 1449 1431 1424 1392 1379 1342 1327 1311 1301 1290 1306 1324 1346 1372 1380 1425 1444 1512 1529 1558 1556 1587 1600 1618 1617 1628 1635 1665 1661 1685 1696 1707 1702 1710 1714 1725 1730 1743 1740 1747 1742 1749 1747 1737 1741 1746 1749 1765 1767 1771 1782 1790 1779 1780 1796 1816 1830 1857 1875 1910 1894 1913 1922 1921 1932 1939 1928 1945 1946 1967 1980 1998 2000 2023 2033 2026 2037 2054 2063 2082 2092 2115 2123 2151 2152 2186 2207 2232 2236 2262 2259 2278 2294 2330 2343 2359 2364 2389 2401 2423 2433 2472 2487 2527 2549 2603 2613 2653 2651 2676 2683 2675 2687 2698 2708 2731 2737 2773 2781 2780 2797 2810 2801 2803 2803 2804 2810 2826 2829 2845 2857 2873 2892 2926 2938 2962 2967 2985 2995 2993 2996 2992 2997 3008 3012 3012 3011 3013 3033 3059 3059 3057 3064 3073 3062 3045 3041 3029 3034 3045 3038 3042 3043 3046 3039 3049 3042 3016 3011 2993 2976 2958 2954 2941 2948 2951 2933 2907 2904 2872 2882 2862 2852 2852 2843 2813 2802 2770 2771 2735 2734 2738 2720 2702 2702 2690 2684 2650 2649 2650 2652 2665 2662 2676 2689 2718 2719 2742 2774 2826 2830 2879 2889 2939 2966 3013 3033 3084 3111 3187 3191 3257 3272 3287 3299 3322 3343 3400 3409 3460 3488 3511 3516 3522 3528 3559 3562 3600 3604 3598 3590 3588 3590 3610 3601 3607 3605 3602 3610 3641 3643 3652 3646 3663 3674 3678 3682 3698 3703 3727 3723 3742 3752 3749 3753 3743 3735 3718 3702 3674 3675 3660 3647 3615 3616 3612 3608 3602 3589 3571 3587 3601 3611 3647 3655 3694 3699 3725 3721 3732 3735 3751 3745 3748 3745 3741 3741 3755 3763 3781 3773 3787 3806 3835 3837 3867 3893 3938 3946 3998 4018 4035 4043 4054 4065 4107 4114 4171 4183 4198 4222 4258 4267 4300 4307 4343 4358 4371 4366 4336 4328 4290 4261 4202 4181 4155 4141 4102 4089 4038 4035 3991 3981 3968 3967 3963 3955 3960 3965 3981 3985 3996 3974 3954 3955 3936 3937 3928 3914 3894 3875 3840 3834 3819 3829 3830 3825 3812 3813 3797 3788 3775 3769 3751 3744 3751 3734 3713 3717 3704 3688 3654 3640 3620 3623 3612 3611 3596 3594 3586 3581 3566 3568 3574 3575 3590 3581 3581 3580 3560 3564 3555 3550 3548 3552 3556 3556 3562 3564 3561 3570 3592 3588 3600 3590 3556 3542 3491 3470 3424 3420 3378 3351 3317 3301 3262 3238 3198 3193 3156 3134 3093 3070 3016 2981 2889 2887 2811 2788 2756 2737 2690 2674 2624 2630 2597 2574 2566 2543 2511 2502 2449 2432 2370 2334 2292 2280
1515 1524 1544 1525 1515 1514 1507 1526 1549 1550 1550 1563 1575 1589 1594 1592 1596 1590 1584 1583 1588 1588 1588 1605 1623 1651 1686 1674 1670 1675 1684 1697 1707 1705 1706 1683 1661 1643 1622 1629 1632 1625 1603 1604 1601 1579 1557 1546 1540 1530 1530 1516 1501 1476 1444 1434 1430 1415 1405 1383 1365 1324 1276 1269 1258 1271 1288 1322 1359 1384 1405 1430 1436 1503 1553 1555 1553 1589 1634 1627 1624 1633 1632 1654 1655 1680 1703 1705 1700 1716 1731 1731 1735 1746 1755 1758 1750 1753 1746 1737 1737 1748 1763 1767 1774 1783 1804 1780 1766 1771 1780 1811 1841 1862 1898 1880 1861 1887 1904 1913 1931 1927 1920 1924 1919 1944 1971 1977 1984 2010 2039 2037 2043 2059 2078 2093 2111 2126 2148 2153 2151 2190 2229 2229 2228 2245 2247 2269 2288 2318 2346 2354 2362 2386 2409 2423 2435 2472 2502 2538 2564 2610 2657 2643 2625 2650 2663 2674 2679 2689 2702 2724 2734 2766 2795 2801 2815 2819 2826 2813 2810 2821 2832 2844 2850 2865 2886 2893 2909 2946 2988 2987 2990 3006 3022 3012 3009 3004 2996 3012 3016 3017 3012 3028 3049 3069 3101 3096 3099 3096 3089 3077 3071 3060 3064 3058 3044 3045 3038 3036 3022 3027 3020 3009 3004 2977 2948 2948 2946 2938 2936 2927 2919 2900 2884 2876 2881 2858 2844 2842 2833 2808 2772 2781 2788 2758 2734 2726 2714 2697 2677 2684 2679 2648 2611 2620 2629 2639 2650 2669 2677 2709 2723 2760 2788 2828 2858 2875 2881 2939 2994 3011 3035 3084 3149 3156 3154 3222 3269 3287 3298 3329 3357 3384 3395 3455 3513 3522 3527 3530 3536 3553 3562 3583 3610 3597 3598 3591 3597 3597 3596 3593 3594 3603 3619 3640 3665 3651 3644 3665 3683 3686 3699 3721 3751 3736 3719 3738 3745 3767 3788 3763 3747 3723 3709 3683 3658 3653 3652 3623 3608 3609 3608 3586 3564 3564 3565 3586 3612 3630 3636 3669 3682 3697 3704 3712 3706 3719 3713 3719 3714 3716 3720 3742 3774 3773 3779 3795 3813 3829 3839 3882 3923 3938 3945 4001 4057 4062 4077 4087 4100 4106 4098 4146 4172 4210 4250 4282 4327 4319 4317 4363 4393 4415 4424 4390 4352 4310 4277 4216 4153 4154 4146 4110 4093 4064 4063 4013 3978 3969 3963 3955 3941 3958 3970 3976 3986 3976 3959 3941 3919 3917 3918 3906 3893 3866 3846 3825 3804 3818 3832 3828 3818 3815 3816 3800 3792 3789 3797 3776 3758 3756 3740 3728 3716 3700 3691 3653 3620 3623 3622 3608 3600 3602 3607 3593 3582 3571 3567 3564 3552 3564 3563 3565 3567 3557 3562 3548 3529 3543 3545 3548 3548 3560 3561 3559 3561 3570 3564 3566 3557 3540 3531 3474 3420 3413 3410 3365 3317 3292 3277 3224 3169 3175 3184 3150 3123 3088 3059 2997 2939 2910 2903 2829 2775 2741 2708 2676 2639 2633 2630 2598 2573 2539 2510 2483 2453 2433 2425 2354 2284 2263 2247
1502 1513 1516 1525 1528 1513 1525 1532 1541 1552 1561 1566 1579 1597 1598 1606 1605 1603 1600 1590 1597 1598 1613 1624 1640 1666 1671 1684 1695 1701 1708 1725 1740 1741 1724 1710 1693 1663 1661 1645 1651 1648 1629 1607 1595 1576 1564 1531 1521 1519 1513 1508 1493 1461 1449 1409 1397 1396 1392 1372 1350 1315 1296 1234 1222 1250 1277 1317 1346 1402 1410 1454 1469 1511 1512 1556 1565 1582 1595 1635 1647 1648 1650 1665 1661 1678 1681 1710 1713 1726 1720 1736 1735 1751 1755 1780 1781 1769 1752 1730 1736 1748 1747 1769 1770 1785 1769 1761 1771 1760 1777 1809 1820 1855 1847 1852 1867 1873 1878 1897 1907 1918 1918 1915 1917 1922 1930 1955 1965 1997 2012 2040 2049 2063 2071 2102 2113 2131 2142 2163 2173 2195 2197 2230 2239 2245 2247 2264 2272 2311 2312 2351 2359 2384 2395 2425 2440 2479 2501 2561 2582 2617 2615 2640 2643 2638 2652 2680 2674 2680 2699 2730 2733 2764 2776 2815 2824 2825 2822 2813 2824 2839 2843 2869 2871 2882 2882 2906 2924 2964 2965 3008 3024 3029 3019 3025 3026 3020 3023 3028 3019 3029 3027 3040 3039 3069 3084 3129 3135 3124 3112 3103 3090 3079 3079 3079 3079 3057 3052 3038 3029 3017 3010 2998 2977 2966 2964 2943 2939 2931 2921 2903 2905 2890 2886 2868 2860 2848 2849 2842 2832 2814 2816 2794 2784 2778 2761 2720 2716 2696 2704 2690 2677 2653 2639 2591 2587 2615 2642 2674 2691 2721 2737 2788 2798 2843 2850 2884 2899 2943 2953 3003 3026 3071 3086 3135 3166 3209 3224 3294 3308 3339 3347 3384 3402 3452 3468 3539 3544 3535 3537 3558 3556 3563 3566 3585 3589 3584 3583 3586 3587 3578 3587 3597 3606 3636 3630 3646 3659 3672 3666 3684 3709 3739 3731 3748 3747 3746 3757 3789 3789 3775 3759 3718 3714 3693 3677 3642 3638 3620 3626 3608 3593 3570 3574 3558 3548 3569 3590 3628 3643 3666 3664 3679 3690 3707 3700 3706 3699 3704 3694 3690 3695 3722 3735 3760 3781 3804 3812 3830 3853 3899 3902 3947 3968 4006 4024 4082 4106 4119 4112 4122 4131 4144 4162 4220 4239 4294 4300 4333 4366 4402 4412 4475 4476 4450 4399 4324 4295 4234 4218 4164 4135 4101 4098 4064 4049 4023 4012 3970 3963 3956 3963 3961 3957 3969 3966 3965 3959 3934 3924 3898 3898 3887 3871 3833 3821 3811 3821 3819 3821 3833 3823 3815 3800 3797 3803 3792 3799 3801 3793 3776 3761 3744 3721 3692 3677 3649 3651 3630 3613 3601 3612 3608 3603 3597 3592 3571 3575 3564 3560 3554 3551 3552 3547 3540 3547 3546 3553 3550 3549 3546 3555 3571 3562 3555 3561 3565 3561 3545 3538 3519 3508 3456 3450 3400 3383 3356 3331 3260 3238 3189 3194 3149 3143 3137 3121 3079 3047 2977 2972 2910 2884 2829 2810 2728 2705 2670 2665 2639 2618 2594 2565 2507 2488 2459 2448 2406 2391 2337 2315 2229 2210
1480 1497 1514 1519 1530 1528 1541 1549 1574 1567 1577 1584 1603 1608 1616 1617 1620 1616 1612 1611 1616 1624 1643 1659 1684 1693 1711 1705 1711 1717 1739 1754 1811 1761 1740 1715 1694 1680 1677 1673 1691 1659 1629 1616 1597 1577 1549 1527 1480 1496 1488 1489 1475 1454 1425 1397 1340 1376 1371 1357 1309 1307 1273 1236 1129 1242 1286 1335 1378 1407 1426 1463 1509 1522 1548 1555 1571 1588 1612 1634 1672 1658 1664 1662 1672 1672 1683 1695 1715 1714 1718 1719 1722 1730 1755 1773 1823 1776 1759 1737 1721 1735 1734 1751 1766 1763 1757 1756 1759 1761 1776 1798 1839 1835 1843 1841 1847 1861 1882 1893 1911 1909 1910 1912 1914 1922 1926 1942 1940 1989 2027 2040 2054 2062 2079 2103 2141 2145 2164 2172 2189 2193 2212 2226 2253 2247 2253 2260 2269 2288 2301 2333 2356 2383 2411 2429 2448 2486 2532 2573 2649 2627 2641 2636 2638 2648 2667 2671 2673 2686 2708 2723 2737 2766 2791 2819 2862 2839 2838 2820 2820 2835 2854 2872 2903 2885 2891 2903 2940 2951 2982 3007 3073 3035 3032 3032 3040 3033 3036 3030 3024 3026 3026 3030 3036 3061 3092 3125 3187 3136 3123 3102 3091 3089 3090 3095 3118 3079 3069 3043 3024 3014 3004 2977 2927 2944 2945 2937 2935 2923 2907 2898 2893 2879 2867 2860 2842 2838 2825 2832 2829 2824 2823 2813 2793 2782 2759 2738 2715 2721 2718 2707 2689 2671 2634 2605 2531 2619 2652 2689 2719 2735 2765 2796 2839 2855 2887 2899 2913 2948 2985 3005 3039 3060 3103 3128 3174 3198 3240 3279 3331 3335 3370 3387 3417 3443 3486 3521 3591 3539 3529 3542 3567 3551 3554 3563 3578 3565 3564 3575 3587 3580 3578 3588 3599 3611 3622 3635 3656 3659 3665 3686 3730 3726 3738 3735 3746 3751 3776 3796 3849 3790 3758 3726 3699 3684 3666 3647 3633 3629 3627 3610 3589 3580 3562 3546 3502 3559 3598 3632 3668 3667 3678 3681 3695 3689 3684 3681 3681 3678 3671 3669 3655 3705 3740 3764 3789 3809 3838 3847 3871 3893 3925 3955 3997 4017 4066 4096 4169 4128 4133 4137 4160 4163 4188 4216 4273 4290 4326 4353 4404 4412 4457 4488 4586 4462 4399 4334 4271 4243 4198 4171 4122 4112 4083 4060 4019 4018 3994 3976 3948 3968 3975 3967 3959 3962 3963 3958 3954 3929 3906 3899 3891 3878 3847 3819 3747 3799 3809 3820 3831 3826 3814 3801 3773 3799 3809 3807 3812 3805 3798 3782 3769 3741 3711 3684 3652 3649 3634 3628 3604 3616 3618 3615 3608 3601 3593 3586 3584 3569 3556 3547 3546 3543 3533 3535 3538 3545 3555 3557 3572 3556 3560 3567 3577 3562 3564 3564 3574 3543 3526 3516 3502 3456 3413 3391 3359 3337 3298 3259 3189 3188 3164 3149 3119 3115 3085 3058 3009 2981 2943 2911 2858 2829 2780 2729 2649 2666 2645 2633 2603 2577 2532 2494 2416 2438 2419 2402 2368 2326 2271 2226 2156
1476 1481 1483 1509 1510 1528 1540 1551 1549 1568 1579 1593 1599 1619 1624 1627 1625 1632 1627 1627 1632 1639 1657 1686 1683 1713 1709 1714 1713 1717 1730 1743 1737 1753 1747 1716 1716 1688 1690 1680 1680 1670 1665 1632 1620 1586 1574 1548 1538 1498 1493 1488 1479 1457 1447 1416 1424 1399 1386 1378 1371 1331 1332 1309 1325 1305 1296 1361 1365 1422 1429 1464 1470 1521 1534 1548 1559 1587 1587 1619 1615 1650 1653 1650 1647 1655 1661 1673 1676 1697 1694 1701 1694 1695 1708 1736 1732 1753 1755 1738 1740 1737 1730 1738 1736 1747 1749 1747 1746 1749 1752 1771 1773 1803 1813 1825 1834 1845 1860 1884 1885 1898 1913 1909 1916 1929 1928 1949 1959 1993 2002 2039 2040 2054 2071 2091 2104 2146 2160 2175 2171 2177 2189 2212 2217 2239 2248 2255 2259 2274 2285 2325 2334 2382 2400 2433 2444 2488 2504 2552 2546 2602 2614 2627 2632 2652 2652 2666 2671 2683 2698 2718 2737 2772 2783 2811 2803 2832 2827 2810 2823 2828 2833 2862 2852 2865 2870 2875 2890 2921 2939 2967 2970 3006 3026 3033 3031 3036 3038 3033 3031 3028 3026 3020 3029 3049 3056 3095 3088 3113 3120 3094 3107 3097 3093 3095 3084 3072 3072 3042 3045 3013 3006 2982 2978 2938 2931 2928 2923 2921 2912 2891 2891 2867 2869 2865 2858 2838 2834 2832 2834 2830 2840 2842 2830 2800 2786 2759 2771 2758 2748 2731 2731 2709 2692 2665 2682 2680 2668 2712 2707 2738 2757 2792 2799 2853 2876 2914 2917 2952 2954 2996 2993 3029 3055 3102 3114 3171 3196 3251 3249 3301 3336 3377 3376 3417 3432 3471 3471 3502 3517 3515 3516 3521 3531 3535 3532 3535 3553 3566 3562 3579 3579 3578 3576 3588 3593 3618 3617 3644 3649 3667 3668 3699 3706 3708 3721 3737 3755 3773 3768 3781 3774 3730 3723 3681 3665 3647 3651 3638 3631 3617 3615 3601 3587 3565 3574 3568 3578 3634 3627 3658 3666 3674 3671 3673 3669 3656 3660 3658 3658 3660 3678 3704 3718 3770 3771 3808 3821 3849 3853 3879 3903 3953 3954 4000 4027 4070 4058 4092 4125 4136 4134 4160 4163 4186 4205 4270 4298 4349 4346 4388 4408 4435 4410 4416 4423 4345 4344 4270 4247 4201 4194 4145 4120 4075 4073 4036 4020 3994 4006 3994 3982 3976 3967 3959 3956 3953 3945 3925 3920 3903 3903 3888 3882 3850 3859 3830 3813 3821 3822 3828 3825 3805 3818 3819 3817 3817 3816 3812 3806 3788 3774 3740 3725 3684 3691 3663 3655 3647 3653 3643 3634 3629 3621 3608 3604 3599 3586 3575 3559 3535 3542 3544 3536 3531 3534 3541 3543 3554 3551 3547 3557 3563 3552 3554 3558 3556 3547 3528 3532 3518 3498 3455 3441 3395 3385 3336 3328 3291 3277 3211 3186 3164 3150 3121 3097 3061 3050 2995 2976 2933 2912 2850 2827 2761 2764 2700 2671 2646 2629 2580 2571 2522 2519 2459 2432 2416 2390 2328 2315 2248 2218
1468 1466 1463 1482 1489 1515 1553 1546 1539 1566 1584 1600 1609 1632 1649 1634 1626 1629 1630 1635 1650 1656 1687 1689 1693 1710 1725 1719 1710 1722 1750 1727 1713 1719 1711 1709 1721 1704 1701 1692 1694 1680 1667 1649 1636 1600 1565 1564 1558 1526 1507 1495 1485 1462 1443 1447 1458 1436 1430 1410 1404 1387 1381 1390 1415 1394 1390 1403 1391 1437 1453 1468 1470 1517 1559 1556 1555 1572 1571 1585 1581 1618 1643 1627 1622 1631 1645 1651 1652 1664 1664 1671 1663 1671 1682 1696 1685 1707 1707 1715 1727 1726 1726 1729 1728 1733 1739 1733 1734 1735 1729 1746 1743 1773 1788 1809 1825 1846 1866 1875 1877 1905 1936 1924 1916 1922 1921 1951 1970 2002 2036 2044 2040 2071 2085 2092 2101 2138 2179 2175 2169 2176 2179 2196 2207 2230 2246 2251 2255 2265 2274 2311 2329 2382 2432 2434 2444 2483 2529 2517 2499 2549 2580 2597 2609 2638 2654 2663 2671 2691 2720 2730 2750 2778 2812 2796 2781 2800 2807 2806 2817 2818 2824 2832 2830 2838 2837 2856 2873 2899 2929 2932 2925 2965 2995 3010 3025 3032 3044 3038 3030 3034 3034 3027 3024 3041 3047 3059 3055 3079 3088 3094 3117 3100 3090 3090 3082 3072 3059 3054 3058 3028 3008 2993 2989 2957 2933 2916 2900 2905 2904 2902 2900 2878 2851 2861 2862 2843 2826 2843 2850 2854 2859 2860 2855 2823 2795 2798 2808 2792 2791 2776 2769 2741 2705 2726 2750 2745 2749 2743 2728 2757 2780 2788 2787 2842 2899 2909 2917 2939 2956 2962 2964 3007 3050 3071 3081 3136 3189 3203 3206 3271 3338 3340 3343 3382 3423 3424 3426 3454 3463 3486 3501 3500 3503 3505 3505 3514 3534 3537 3540 3555 3574 3569 3562 3570 3569 3581 3585 3612 3632 3642 3644 3666 3687 3693 3703 3728 3766 3749 3742 3741 3737 3726 3726 3678 3636 3645 3655 3642 3638 3621 3617 3602 3596 3591 3602 3600 3611 3622 3619 3651 3667 3667 3659 3660 3655 3651 3645 3645 3636 3662 3678 3713 3744 3762 3769 3809 3839 3848 3849 3882 3912 3933 3938 3992 4042 4027 4005 4050 4104 4101 4107 4127 4147 4161 4178 4240 4303 4316 4324 4360 4408 4371 4332 4346 4347 4335 4365 4292 4249 4231 4235 4179 4141 4113 4099 4061 4034 4028 4043 4020 4013 3982 3958 3958 3956 3951 3942 3928 3900 3910 3918 3909 3899 3894 3910 3876 3855 3844 3830 3837 3837 3832 3837 3840 3859 3840 3828 3823 3813 3793 3773 3740 3707 3698 3706 3677 3661 3674 3689 3670 3662 3648 3630 3617 3601 3595 3578 3568 3545 3541 3535 3530 3523 3528 3532 3535 3541 3542 3550 3545 3546 3541 3531 3536 3546 3541 3541 3525 3511 3502 3493 3453 3412 3405 3398 3360 3329 3318 3311 3245 3180 3170 3153 3121 3089 3073 3062 3010 2967 2945 2925 2878 2839 2817 2818 2745 2691 2667 2646 2607 2579 2562 2563 2492 2440 2422 2399 2354 2316 2281 2252
1460 1452 1460 1467 1470 1492 1507 1542 1549 1574 1583 1617 1631 1654 1637 1636 1634 1630 1633 1636 1635 1650 1667 1691 1698 1710 1711 1728 1721 1711 1707 1702 1708 1700 1699 1688 1692 1707 1706 1694 1700 1691 1684 1663 1651 1613 1616 1588 1574 1541 1534 1500 1486 1466 1472 1472 1464 1459 1453 1431 1441 1435 1445 1456 1461 1466 1468 1473 1475 1483 1473 1487 1487 1518 1525 1562 1570 1575 1563 1570 1569 1598 1591 1596 1602 1602 1617 1634 1637 1643 1645 1657 1650 1647 1660 1682 1680 1685 1684 1690 1701 1715 1720 1724 1724 1719 1721 1714 1721 1730 1729 1741 1742 1760 1769 1799 1811 1849 1851 1875 1887 1909 1912 1938 1933 1922 1939 1964 1977 2012 2029 2062 2086 2108 2092 2091 2098 2129 2139 2178 2178 2180 2183 2189 2203 2229 2233 2249 2250 2257 2281 2319 2331 2388 2388 2427 2448 2472 2466 2491 2494 2518 2526 2574 2596 2637 2640 2663 2671 2693 2701 2734 2747 2779 2766 2780 2786 2782 2781 2792 2794 2803 2807 2812 2814 2823 2830 2841 2844 2874 2881 2909 2912 2934 2947 2988 3009 3024 3033 3048 3045 3047 3037 3033 3037 3047 3038 3039 3049 3061 3061 3079 3081 3096 3095 3093 3086 3075 3071 3059 3050 3034 3027 2993 2990 2968 2954 2906 2903 2895 2902 2913 2905 2894 2884 2867 2851 2848 2860 2864 2871 2879 2877 2887 2872 2844 2849 2831 2822 2811 2817 2815 2803 2782 2791 2785 2787 2803 2799 2786 2793 2785 2781 2794 2798 2829 2850 2907 2918 2932 2926 2935 2944 2986 2998 3052 3064 3105 3114 3166 3190 3240 3250 3303 3327 3347 3352 3378 3397 3425 3430 3465 3463 3475 3475 3478 3481 3485 3495 3508 3520 3527 3538 3564 3565 3563 3560 3554 3563 3587 3596 3626 3623 3634 3649 3676 3685 3706 3702 3717 3717 3707 3708 3714 3701 3672 3671 3645 3641 3637 3628 3615 3612 3594 3604 3604 3609 3621 3616 3626 3639 3662 3653 3669 3659 3655 3655 3649 3645 3643 3654 3675 3683 3729 3734 3768 3794 3823 3823 3857 3860 3890 3893 3930 3949 3989 3973 3994 3988 3999 4018 4058 4076 4095 4113 4136 4160 4212 4225 4290 4306 4322 4310 4309 4304 4290 4285 4286 4289 4284 4282 4241 4242 4198 4187 4139 4114 4075 4071 4043 4044 4033 4017 3984 3978 3959 3959 3954 3952 3946 3940 3922 3918 3931 3929 3919 3921 3910 3902 3871 3866 3855 3852 3851 3848 3846 3852 3856 3856 3841 3821 3800 3779 3742 3735 3697 3693 3680 3697 3699 3698 3689 3688 3672 3654 3629 3623 3603 3595 3577 3573 3549 3536 3519 3527 3526 3524 3528 3526 3526 3535 3538 3533 3524 3521 3514 3521 3524 3531 3522 3514 3487 3482 3453 3449 3418 3399 3377 3376 3342 3332 3279 3255 3184 3160 3123 3113 3080 3065 3018 3011 2957 2937 2899 2895 2852 2837 2774 2755 2686 2667 2626 2618 2587 2566 2508 2497 2436 2409 2376 2362 2311 2292
1462 1453 1456 1459 1460 1489 1507 1528 1530 1568 1605 1627 1671 1651 1649 1636 1622 1631 1642 1636 1625 1652 1680 1693 1706 1707 1716 1720 1721 1712 1706 1696 1680 1689 1698 1687 1662 1694 1705 1707 1717 1702 1689 1675 1663 1642 1629 1615 1603 1567 1537 1509 1472 1476 1465 1476 1485 1471 1465 1460 1468 1476 1488 1507 1541 1523 1519 1529 1555 1536 1533 1516 1492 1531 1552 1565 1584 1562 1552 1550 1539 1573 1592 1582 1569 1590 1613 1618 1627 1627 1630 1633 1634 1638 1650 1662 1672 1670 1677 1683 1692 1700 1717 1718 1728 1721 1723 1714 1703 1718 1714 1730 1738 1756 1774 1790 1809 1834 1858 1873 1900 1911 1924 1931 1939 1940 1955 1980 2011 2034 2074 2094 2139 2130 2131 2113 2089 2126 2148 2169 2178 2190 2197 2200 2216 2229 2249 2249 2249 2271 2293 2316 2343 2376 2411 2430 2461 2455 2457 2457 2440 2485 2515 2553 2593 2621 2652 2663 2675 2695 2709 2732 2758 2759 2758 2766 2771 2772 2769 2775 2775 2790 2796 2803 2800 2815 2828 2827 2826 2849 2868 2876 2877 2912 2942 2974 3030 3018 3037 3038 3043 3038 3041 3034 3034 3035 3043 3040 3052 3050 3051 3060 3063 3075 3074 3081 3089 3075 3071 3057 3048 3036 3023 3010 2994 2976 2956 2921 2878 2896 2900 2909 2911 2892 2877 2865 2838 2861 2867 2886 2915 2898 2895 2897 2899 2881 2867 2861 2854 2845 2834 2833 2826 2822 2829 2835 2857 2854 2857 2847 2852 2826 2820 2809 2790 2836 2880 2904 2935 2923 2922 2915 2900 2953 2990 3023 3049 3073 3104 3136 3165 3211 3251 3279 3321 3323 3341 3349 3364 3384 3407 3427 3450 3444 3446 3449 3458 3468 3484 3492 3514 3513 3523 3541 3559 3557 3563 3553 3542 3569 3589 3602 3602 3621 3644 3656 3672 3673 3683 3683 3679 3673 3672 3675 3684 3653 3642 3637 3649 3620 3607 3597 3601 3595 3604 3602 3615 3614 3617 3631 3659 3660 3663 3661 3648 3658 3660 3649 3636 3646 3655 3672 3693 3723 3761 3786 3841 3834 3845 3853 3856 3885 3905 3933 3967 3962 3971 3952 3918 3967 4011 4031 4050 4080 4117 4127 4145 4185 4223 4260 4312 4290 4285 4253 4211 4229 4232 4240 4241 4244 4241 4242 4282 4208 4176 4137 4101 4083 4069 4061 4069 4041 4010 3992 3957 3966 3965 3960 3954 3955 3951 3939 3921 3943 3949 3951 3958 3936 3917 3904 3884 3884 3872 3868 3861 3864 3869 3860 3870 3840 3815 3793 3762 3745 3729 3708 3688 3700 3706 3716 3743 3714 3703 3685 3655 3650 3633 3617 3600 3596 3588 3564 3531 3534 3529 3529 3520 3525 3520 3528 3536 3527 3521 3513 3501 3509 3518 3522 3532 3516 3507 3485 3477 3456 3432 3414 3392 3393 3389 3374 3379 3309 3249 3204 3154 3127 3097 3087 3075 3039 3009 2976 2927 2921 2907 2892 2885 2806 2742 2706 2667 2648 2615 2603 2591 2529 2481 2445 2387 2382 2364 2338 2315
1455 1444 1450 1456 1470 1500 1505 1534 1535 1566 1577 1616 1611 1632 1639 1637 1644 1633 1637 1644 1650 1656 1669 1695 1691 1697 1707 1715 1714 1713 1701 1696 1692 1681 1690 1700 1700 1702 1694 1713 1705 1712 1706 1686 1680 1665 1664 1641 1626 1588 1571 1528 1527 1504 1490 1483 1477 1477 1479 1478 1499 1514 1522 1544 1546 1568 1567 1570 1559 1574 1568 1553 1561 1563 1548 1562 1547 1538 1544 1540 1552 1565 1564 1574 1575 1578 1580 1601 1604 1611 1612 1613 1614 1622 1628 1644 1635 1647 1658 1675 1670 1676 1689 1706 1709 1717 1721 1718 1723 1727 1722 1729 1733 1753 1758 1778 1795 1823 1837 1861 1876 1914 1915 1923 1934 1947 1967 1990 1997 2040 2056 2104 2103 2143 2149 2142 2148 2140 2147 2175 2179 2205 2200 2201 2208 2222 2234 2251 2261 2287 2288 2309 2325 2364 2384 2423 2419 2432 2443 2442 2450 2469 2482 2531 2544 2604 2626 2662 2674 2706 2708 2727 2723 2741 2747 2756 2760 2766 2766 2764 2777 2786 2798 2805 2802 2809 2808 2813 2815 2831 2827 2852 2859 2897 2904 2937 2942 2981 3006 3024 3027 3021 3026 3029 3019 3016 3019 3026 3029 3039 3045 3049 3051 3067 3063 3068 3066 3066 3064 3053 3052 3040 3040 3030 3015 2988 2976 2944 2943 2911 2902 2913 2898 2888 2897 2879 2894 2891 2889 2901 2891 2903 2909 2909 2913 2915 2907 2892 2892 2881 2875 2858 2862 2852 2860 2872 2877 2899 2896 2895 2874 2847 2847 2832 2840 2847 2857 2895 2887 2906 2910 2905 2916 2938 2950 3002 2998 3034 3062 3112 3132 3190 3205 3243 3249 3285 3294 3313 3322 3343 3361 3389 3388 3405 3411 3415 3433 3448 3450 3464 3476 3488 3502 3519 3523 3543 3550 3554 3561 3560 3569 3592 3595 3604 3614 3633 3627 3632 3644 3656 3645 3636 3633 3632 3626 3617 3618 3613 3601 3589 3586 3567 3579 3583 3584 3586 3598 3604 3617 3624 3634 3659 3666 3667 3670 3672 3659 3654 3655 3651 3652 3667 3674 3711 3726 3776 3786 3828 3842 3855 3865 3889 3900 3930 3910 3924 3933 3926 3934 3941 3950 4007 4017 4061 4077 4112 4122 4160 4173 4216 4209 4241 4233 4208 4211 4185 4182 4202 4202 4210 4202 4207 4195 4178 4183 4132 4136 4088 4081 4064 4068 4052 4045 4018 4010 3986 3976 3967 3974 3971 3969 3963 3969 3971 3973 3981 3972 3961 3959 3944 3937 3926 3911 3888 3889 3882 3858 3845 3846 3834 3818 3795 3787 3750 3748 3720 3729 3727 3716 3717 3718 3722 3732 3711 3707 3684 3662 3633 3638 3622 3611 3588 3582 3559 3553 3541 3535 3534 3527 3531 3518 3516 3515 3509 3512 3506 3504 3514 3502 3505 3494 3470 3476 3465 3451 3416 3424 3417 3403 3388 3369 3331 3306 3229 3211 3137 3124 3098 3090 3055 3052 3011 3003 2952 2945 2927 2889 2823 2801 2731 2727 2684 2659 2621 2597 2538 2528 2478 2465 2402 2388 2365 2354
1460 1451 1441 1460 1468 1500 1526 1533 1533 1567 1596 1601 1594 1617 1617 1641 1660 1651 1651 1658 1658 1675 1702 1703 1694 1706 1712 1714 1714 1698 1674 1681 1687 1688 1700 1694 1701 1701 1700 1702 1692 1705 1712 1694 1683 1678 1687 1666 1646 1607 1567 1548 1539 1515 1501 1487 1483 1483 1478 1506 1541 1549 1562 1578 1585 1594 1590 1585 1576 1586 1592 1587 1595 1585 1576 1562 1539 1533 1517 1536 1554 1563 1578 1567 1559 1575 1574 1592 1593 1599 1597 1598 1592 1601 1612 1611 1602 1621 1638 1647 1653 1663 1683 1692 1697 1715 1722 1720 1725 1729 1729 1735 1737 1754 1763 1785 1807 1831 1858 1864 1871 1904 1924 1936 1945 1967 1992 2000 2004 2042 2071 2093 2093 2137 2172 2168 2179 2178 2187 2190 2188 2211 2218 2216 2215 2228 2248 2255 2259 2286 2307 2322 2334 2370 2409 2415 2413 2426 2438 2436 2434 2459 2489 2513 2527 2589 2646 2663 2676 2700 2726 2722 2716 2730 2734 2750 2763 2769 2764 2773 2789 2802 2827 2811 2798 2805 2810 2802 2791 2801 2802 2820 2821 2867 2908 2911 2908 2950 2991 3007 3027 3022 3014 3004 2990 2997 3000 3005 3011 3026 3043 3037 3039 3045 3054 3053 3056 3052 3049 3045 3046 3045 3044 3035 3021 3003 2981 2965 2961 2930 2908 2904 2894 2898 2911 2910 2931 2921 2929 2917 2896 2909 2909 2920 2934 2926 2922 2923 2928 2917 2908 2905 2905 2895 2891 2907 2911 2925 2933 2918 2899 2875 2858 2851 2863 2870 2897 2890 2870 2892 2897 2894 2902 2928 2961 2974 2969 3018 3056 3097 3124 3175 3223 3222 3220 3249 3258 3276 3291 3319 3351 3357 3351 3367 3375 3402 3423 3427 3430 3453 3471 3481 3487 3500 3507 3527 3544 3551 3569 3569 3583 3596 3595 3606 3618 3610 3600 3608 3616 3613 3607 3600 3588 3593 3586 3576 3559 3564 3562 3553 3540 3549 3560 3563 3567 3584 3600 3607 3626 3632 3636 3661 3681 3673 3679 3671 3664 3658 3657 3656 3657 3661 3664 3704 3726 3764 3779 3820 3847 3858 3873 3896 3925 3910 3883 3901 3917 3902 3901 3912 3935 3969 3992 4041 4088 4094 4100 4136 4173 4172 4158 4176 4171 4171 4168 4150 4130 4160 4166 4165 4153 4160 4154 4148 4142 4137 4151 4104 4073 4078 4088 4067 4041 4034 4027 4011 3996 3993 3993 3987 3989 3984 3994 3998 4021 4007 3997 3988 3973 3965 3963 3951 3946 3924 3914 3884 3846 3842 3838 3816 3775 3782 3790 3769 3761 3745 3743 3734 3733 3729 3729 3740 3754 3736 3732 3703 3676 3668 3665 3645 3637 3607 3596 3582 3582 3553 3536 3535 3523 3519 3508 3509 3501 3503 3513 3501 3495 3487 3473 3478 3471 3464 3465 3450 3447 3429 3433 3419 3417 3392 3370 3330 3286 3245 3229 3160 3110 3111 3110 3082 3068 3044 3040 2995 2977 2939 2902 2838 2766 2748 2752 2699 2664 2631 2615 2557 2506 2493 2500 2435 2399 2389 2382
1466 1462 1467 1476 1477 1508 1508 1541 1547 1574 1571 1600 1614 1628 1626 1652 1648 1662 1669 1681 1678 1684 1696 1723 1731 1723 1710 1715 1711 1694 1686 1670 1670 1684 1676 1676 1691 1704 1699 1703 1711 1707 1696 1695 1685 1677 1683 1690 1678 1630 1609 1558 1542 1519 1513 1484 1490 1495 1511 1529 1546 1581 1592 1623 1625 1633 1614 1605 1605 1605 1605 1609 1617 1608 1594 1572 1564 1540 1537 1535 1526 1555 1555 1559 1578 1590 1587 1600 1600 1595 1594 1591 1585 1579 1584 1589 1591 1599 1604 1625 1631 1643 1658 1682 1705 1724 1710 1718 1724 1735 1732 1745 1748 1766 1766 1792 1805 1836 1839 1867 1881 1908 1919 1954 1957 1987 1988 2014 2029 2056 2064 2104 2119 2142 2149 2179 2195 2208 2211 2210 2223 2236 2224 2233 2225 2230 2247 2264 2278 2293 2307 2338 2347 2374 2377 2417 2418 2423 2421 2430 2426 2446 2464 2505 2527 2581 2598 2670 2678 2694 2701 2721 2727 2731 2734 2749 2766 2783 2772 2778 2785 2806 2805 2814 2816 2805 2798 2797 2786 2782 2790 2808 2811 2844 2854 2892 2904 2922 2938 2987 3010 3027 3008 2985 2981 2983 2978 2984 2992 3014 3009 3020 3022 3020 3029 3037 3047 3040 3041 3033 3044 3052 3045 3048 3042 3024 3006 2976 2964 2940 2934 2904 2898 2899 2906 2922 2926 2936 2940 2942 2937 2929 2928 2928 2930 2935 2948 2951 2952 2951 2953 2951 2940 2935 2943 2954 2959 2959 2953 2945 2931 2899 2886 2854 2857 2874 2882 2899 2897 2897 2881 2875 2875 2911 2925 2964 2985 3016 3030 3097 3112 3165 3169 3205 3224 3236 3232 3243 3256 3291 3302 3337 3335 3337 3357 3395 3394 3409 3427 3449 3457 3478 3480 3490 3494 3517 3525 3540 3550 3566 3588 3614 3610 3608 3594 3591 3589 3584 3578 3573 3577 3570 3569 3567 3554 3542 3539 3523 3517 3524 3526 3529 3534 3543 3561 3583 3589 3601 3614 3644 3651 3671 3659 3665 3672 3669 3667 3660 3660 3660 3660 3657 3677 3715 3726 3777 3786 3829 3826 3859 3871 3900 3889 3902 3896 3882 3870 3864 3860 3872 3905 3945 3973 4024 4030 4077 4092 4114 4112 4142 4148 4136 4136 4138 4121 4117 4135 4144 4134 4134 4139 4129 4120 4120 4126 4126 4120 4106 4109 4087 4096 4090 4081 4051 4043 4037 4031 4016 4010 3997 3999 3992 4000 4006 4017 4032 4038 4024 4004 3981 3975 3969 3958 3949 3933 3897 3884 3840 3834 3819 3803 3768 3769 3778 3772 3757 3753 3735 3740 3738 3752 3756 3748 3750 3746 3723 3720 3700 3691 3659 3644 3610 3612 3593 3582 3554 3558 3547 3534 3514 3519 3511 3504 3490 3491 3493 3490 3469 3474 3466 3461 3450 3438 3424 3431 3422 3417 3410 3408 3393 3383 3335 3309 3238 3218 3166 3166 3128 3111 3095 3089 3060 3044 3011 2997 2951 2932 2862 2827 2743 2725 2698 2679 2626 2611 2570 2553 2491 2475 2439 2445 2411 2408
1477 1471 1470 1477 1486 1500 1515 1532 1550 1560 1579 1600 1634 1625 1630 1645 1661 1662 1676 1686 1699 1703 1719 1731 1778 1729 1710 1708 1724 1686 1667 1658 1653 1662 1657 1664 1687 1681 1688 1699 1734 1700 1691 1680 1657 1672 1683 1687 1707 1647 1602 1571 1526 1525 1511 1502 1481 1516 1540 1560 1599 1607 1623 1644 1683 1651 1636 1626 1621 1623 1631 1638 1660 1629 1604 1593 1571 1557 1534 1532 1497 1543 1554 1573 1588 1595 1602 1615 1633 1609 1600 1586 1575 1579 1578 1575 1567 1583 1591 1607 1621 1629 1655 1678 1734 1707 1703 1706 1724 1720 1723 1737 1754 1762 1770 1793 1831 1836 1849 1866 1893 1918 1946 1958 1964 1987 2008 2026 2055 2068 2095 2115 2159 2161 2184 2194 2221 2229 2247 2242 2260 2245 2241 2238 2219 2255 2281 2291 2308 2321 2340 2355 2371 2374 2383 2401 2423 2416 2418 2414 2390 2436 2472 2504 2535 2570 2616 2652 2702 2698 2713 2717 2731 2737 2743 2759 2798 2778 2767 2775 2794 2803 2814 2809 2820 2803 2795 2781 2755 2773 2782 2791 2790 2825 2859 2874 2896 2907 2936 2968 3035 3001 2993 2969 2945 2961 2957 2964 2970 2987 2992 2996 3008 3005 3021 3027 3058 3038 3037 3033 3043 3043 3036 3045 3052 3024 3004 2985 2961 2954 2932 2915 2882 2906 2912 2928 2935 2948 2952 2952 2951 2954 2961 2954 2951 2957 2973 2972 2984 2981 2984 2979 2968 2971 2979 2996 3035 3005 3000 2975 2948 2923 2893 2880 2845 2880 2893 2900 2898 2893 2883 2863 2818 2891 2926 2960 3000 3013 3039 3080 3131 3150 3183 3197 3235 3226 3231 3233 3234 3267 3290 3304 3316 3324 3348 3372 3397 3405 3427 3445 3471 3476 3484 3488 3484 3518 3536 3548 3551 3579 3604 3613 3637 3603 3585 3571 3564 3565 3558 3558 3552 3546 3535 3534 3519 3517 3507 3489 3465 3486 3491 3502 3526 3533 3559 3573 3607 3597 3612 3629 3663 3660 3665 3664 3675 3664 3660 3658 3659 3662 3667 3671 3680 3718 3750 3776 3813 3823 3837 3854 3881 3874 3883 3874 3877 3864 3854 3833 3787 3855 3905 3943 3988 4004 4030 4054 4092 4084 4093 4109 4144 4122 4114 4097 4059 4091 4111 4120 4130 4127 4130 4113 4080 4097 4106 4107 4107 4098 4093 4104 4137 4108 4096 4070 4043 4047 4045 4037 4031 4023 4015 4017 4013 4020 4036 4047 4075 4035 4014 3994 3977 3966 3953 3947 3943 3911 3885 3854 3833 3811 3790 3777 3757 3769 3766 3759 3759 3745 3747 3759 3783 3765 3760 3753 3757 3739 3728 3722 3732 3678 3642 3621 3608 3602 3588 3569 3551 3548 3539 3531 3528 3520 3507 3495 3481 3488 3485 3474 3466 3459 3455 3433 3410 3416 3416 3402 3392 3393 3398 3389 3388 3339 3296 3244 3183 3173 3143 3131 3111 3104 3094 3071 3040 3013 2988 2960 2939 2868 2801 2753 2695 2678 2641 2619 2584 2565 2536 2502 2464 2452 2433 2427 2433
