314 283 299 274 239 233 244 234 257 272 252 224 217 188 155 118 95 77 72 60 64 68 80 68 87 126 124 123 136 148 133 114 119 112 116 100 106 55 35 -10 -16 -54 -48 -73 -99 -109 -87 -72 -80 -54 -62 -57 -40 -57 -44 -26 -16 10 23 37 41 32 23 15 11 57 44 59 66 72 85 121 127 146 180 223 206 169 177 146 128 94 70 11 -7 -89 -123 -202 -250 -369 -415 -565 -593 -644 -626 -656 -670 -743 -802 -919 -974 -1094 -1095 -1180 -1204 -1280 -1317 -1410 -1459 -1564 -1574 -1632 -1655 -1697 -1713 -1760 -1774 -1821 -1819 -1840 -1820 -1825 -1833 -1820 -1837 -1855 -1866 -1918 -1923 -1956 -1972 -2015 -2019 -1991 -1997 -1995 -1970 -1930 -1939 -1939 -1920 -1912 -1893 -1872 -1889 -1940 -1927 -1914 -1932 -1924 -1918 -1931 -1911 -1867 -1873 -1850 -1836 -1818 -1810 -1755 -1745 -1660 -1642 -1552 -1528 -1527 -1512 -1493 -1493 -1500 -1496 -1487 -1497 -1527 -1517 -1558 -1555 -1593 -1592 -1625 -1613 -1606 -1585 -1573 -1560 -1535 -1537 -1500 -1507 -1527 -1528 -1522 -1548 -1577 -1573 -1580 -1580 -1588 -1592 -1610 -1591 -1574 -1584 -1574 -1562 -1573 -1606 -1613 -1616 -1640 -1642 -1645 -1649 -1625 -1621 -1616 -1585 -1557 -1573 -1580 -1555 -1533 -1513 -1464 -1443 -1340 -1305 -1201 -1184 -1169 -1159 -1152 -1118 -1072 -1083 -1067 -1064 -1027 -1024 -975 -938 -846 -811 -708 -672 -624 -619 -568 -554 -506 -499 -440 -435 -451 -454 -481 -458 -421 -419 -392 -336 -219 -240 -186 -148 -72 -12 122 176 214 240 304 330 409 404 449 473 501 499 561 546 569 598 688 691 714 733 776 781 823 837 871 885 908 938 995 1018 1076 1111 1215 1262 1283 1266 1257 1276 1313 1317 1327 1325 1322 1317 1297 1307 1304 1309 1331 1345 1401 1392 1405 1424 1439 1422 1424 1417 1401 1417 1440 1425 1420 1427 1428 1442 1455 1416 1395 1409 1424 1450 1536 1556 1626 1623 1685 1699 1714 1711 1731 1751 1761 1761 1744 1736 1677 1645 1596 1572 1569 1569 1562 1548 1480 1485 1444 1438 1448 1422 1406 1412 1433 1435 1468 1472 1449 1466 1467 1476 1528 1513 1543 1567 1553 1554 1550 1549 1548 1530 1490 1490 1458 1459 1453 1435 1410 1373 1311 1312 1353 1355 1398 1422 1455 1447 1480 1485 1491 1511 1525 1534 1568 1595 1631 1665 1703 1686 1670 1679 1679 1657 1633 1645 1616 1608 1604 1582 1555 1519 1455 1427 1392 1387 1389 1395 1394 1373 1372 1369 1382 1391 1383 1379 1380 1369 1344 1352 1321 1300 1263 1253 1210 1179 1113 1117 1068 1057 1026 1011 964 949 889 883 902 873 847 834 794 814 818 807 780 776 708 718 690 671 604 604 572 612 651 659 733 717 754 747 689 684 650 661 665 666 659 641 658 677 718 739 831 875 981 1018 1084 1083 1126 1139 1181 1199 1258 1297 1334 1333 1379 1427
311 299 291 253 188 229 234 248 288 268 256 239 252 176 134 67 2 14 -3 5 -24 36 75 93 124 131 127 143 141 170 181 160 149 146 151 129 144 74 33 -15 -61 -51 -76 -82 -128 -105 -87 -70 -54 -52 -55 -44 -23 -40 -46 -27 -18 18 54 53 85 50 48 14 -24 21 20 33 23 57 64 77 47 123 175 215 245 207 188 169 154 100 53 20 1 -69 -150 -170 -193 -309 -416 -493 -608 -584 -601 -600 -596 -706 -807 -887 -974 -1059 -1119 -1145 -1142 -1254 -1334 -1397 -1464 -1527 -1579 -1637 -1678 -1710 -1738 -1766 -1802 -1819 -1830 -1836 -1830 -1846 -1856 -1838 -1811 -1841 -1860 -1912 -1981 -1972 -2005 -2024 -2069 -2022 -2018 -2005 -1984 -1964 -1959 -1937 -1904 -1919 -1903 -1894 -1871 -1912 -1935 -1923 -1936 -1912 -1904 -1898 -1906 -1877 -1882 -1874 -1890 -1842 -1825 -1788 -1773 -1707 -1650 -1586 -1526 -1523 -1507 -1502 -1505 -1513 -1511 -1496 -1476 -1512 -1520 -1533 -1501 -1575 -1590 -1604 -1581 -1580 -1555 -1552 -1529 -1527 -1507 -1482 -1424 -1470 -1491 -1507 -1554 -1539 -1554 -1537 -1535 -1546 -1558 -1552 -1532 -1552 -1566 -1558 -1525 -1572 -1612 -1613 -1601 -1627 -1655 -1641 -1651 -1598 -1566 -1541 -1480 -1501 -1505 -1508 -1512 -1452 -1424 -1397 -1401 -1292 -1213 -1155 -1086 -1102 -1092 -1084 -1053 -1033 -1006 -1020 -1041 -974 -916 -896 -881 -794 -720 -649 -546 -556 -531 -538 -559 -497 -455 -410 -354 -405 -427 -448 -443 -405 -374 -334 -278 -227 -179 -191 -215 -66 52 143 267 264 296 341 378 415 448 472 524 514 529 495 429 513 555 609 654 670 686 717 765 795 843 857 892 911 973 999 1033 1080 1149 1220 1352 1301 1287 1284 1278 1314 1339 1329 1305 1324 1333 1306 1296 1302 1296 1321 1334 1368 1383 1404 1423 1428 1438 1430 1415 1412 1415 1410 1402 1417 1441 1440 1471 1441 1430 1397 1361 1399 1428 1490 1567 1586 1609 1633 1644 1660 1667 1681 1701 1712 1715 1711 1724 1642 1572 1562 1528 1534 1535 1536 1547 1488 1456 1432 1426 1405 1378 1377 1362 1393 1405 1427 1440 1439 1455 1440 1423 1463 1479 1508 1546 1527 1513 1535 1544 1518 1493 1464 1449 1423 1392 1402 1418 1365 1309 1267 1217 1293 1324 1354 1391 1409 1421 1443 1474 1487 1502 1502 1504 1558 1626 1659 1741 1713 1720 1685 1666 1652 1645 1641 1678 1616 1575 1577 1595 1528 1475 1439 1382 1386 1369 1380 1380 1368 1337 1343 1335 1349 1369 1366 1362 1345 1343 1329 1338 1290 1248 1232 1211 1170 1129 1125 1132 1061 1019 992 968 942 913 891 875 872 840 828 789 787 792 791 806 775 765 748 775 728 717 674 645 661 686 718 756 781 797 809 831 766 725 723 724 721 719 697 652 705 743 761 761 865 965 1025 1135 1127 1170 1172 1173 1231 1277 1291 1325 1356 1381 1430 1497
314 311 301 261 284 262 228 238 234 258 243 226 202 130 104 17 32 -17 -21 -10 -4 27 50 108 99 147 161 184 181 213 200 196 188 173 158 124 109 65 43 -24 3 -15 -39 -53 -72 -96 -100 -70 -78 -45 -45 -42 -45 -37 -28 -20 -6 27 26 37 39 35 49 20 45 31 22 32 40 69 60 79 101 125 153 219 194 226 224 191 166 101 91 18 9 -39 -67 -138 -165 -258 -286 -385 -393 -483 -518 -549 -599 -679 -718 -851 -896 -1049 -1077 -1142 -1171 -1262 -1279 -1383 -1406 -1503 -1567 -1659 -1655 -1727 -1732 -1765 -1772 -1824 -1843 -1844 -1860 -1875 -1873 -1866 -1859 -1839 -1857 -1891 -1902 -1946 -1975 -2009 -2006 -2013 -2018 -2025 -2019 -1983 -1983 -1946 -1961 -1958 -1939 -1932 -1913 -1905 -1896 -1908 -1897 -1884 -1876 -1851 -1863 -1854 -1876 -1877 -1866 -1837 -1843 -1801 -1804 -1745 -1712 -1617 -1615 -1534 -1522 -1506 -1530 -1538 -1530 -1512 -1531 -1526 -1543 -1556 -1591 -1619 -1614 -1621 -1597 -1581 -1576 -1554 -1547 -1539 -1515 -1497 -1481 -1441 -1443 -1461 -1464 -1472 -1483 -1480 -1505 -1503 -1516 -1508 -1527 -1538 -1547 -1568 -1566 -1580 -1591 -1628 -1611 -1614 -1610 -1616 -1592 -1553 -1539 -1503 -1492 -1464 -1433 -1435 -1393 -1341 -1342 -1300 -1274 -1214 -1205 -1123 -1127 -1061 -1055 -1040 -1028 -1002 -978 -968 -936 -915 -884 -812 -805 -731 -719 -623 -613 -524 -500 -494 -487 -470 -459 -394 -417 -389 -402 -442 -411 -382 -359 -295 -298 -233 -221 -187 -121 -30 5 133 157 279 331 388 379 426 435 467 462 505 488 463 501 501 495 542 564 628 621 641 676 750 775 822 831 872 919 996 1003 1064 1088 1165 1185 1282 1303 1316 1322 1329 1324 1346 1335 1338 1315 1301 1321 1312 1313 1326 1333 1355 1381 1407 1400 1415 1421 1444 1435 1418 1405 1383 1399 1408 1408 1423 1413 1408 1408 1403 1402 1386 1387 1432 1462 1544 1565 1595 1598 1618 1620 1628 1650 1671 1666 1661 1636 1597 1599 1552 1534 1507 1498 1500 1491 1470 1459 1403 1405 1368 1378 1363 1368 1373 1374 1395 1396 1415 1416 1416 1422 1424 1428 1467 1471 1498 1517 1534 1511 1489 1467 1424 1433 1396 1379 1348 1350 1324 1301 1232 1267 1279 1262 1306 1316 1370 1371 1400 1421 1483 1482 1480 1504 1536 1569 1641 1640 1689 1702 1687 1674 1621 1619 1608 1614 1597 1585 1535 1530 1488 1492 1444 1450 1402 1386 1384 1382 1364 1350 1330 1325 1313 1326 1352 1326 1295 1304 1294 1280 1253 1248 1206 1188 1131 1141 1126 1087 1026 1021 958 964 925 911 889 894 872 863 837 805 775 765 748 754 750 750 744 743 730 753 733 748 744 754 781 784 838 834 855 824 819 815 795 783 776 771 759 771 767 769 825 838 904 923 1019 1038 1121 1172 1219 1251 1296 1278 1307 1335 1386 1411 1465 1491
322 320 323 304 324 283 224 232 208 225 201 203 198 120 18 1 -5 -46 -62 -48 -32 22 89 84 67 134 190 194 201 224 252 222 205 190 188 132 96 49 -10 -1 21 -8 -27 -42 -64 -81 -106 -107 -113 -79 -41 -41 -49 -39 -33 -12 15 28 58 34 32 39 57 52 81 62 49 49 39 56 71 105 137 164 222 202 157 201 235 195 187 117 92 31 7 -51 -94 -115 -116 -220 -310 -316 -289 -393 -435 -503 -567 -657 -748 -826 -878 -1024 -1146 -1153 -1163 -1262 -1330 -1367 -1406 -1518 -1643 -1655 -1656 -1721 -1759 -1762 -1764 -1830 -1903 -1885 -1893 -1900 -1922 -1882 -1876 -1869 -1890 -1892 -1914 -1937 -1967 -1994 -1997 -1990 -1968 -2010 -2051 -2026 -2020 -1984 -1983 -1959 -1964 -1930 -1912 -1914 -1902 -1882 -1862 -1860 -1834 -1839 -1843 -1845 -1868 -1868 -1870 -1853 -1844 -1845 -1845 -1773 -1715 -1669 -1660 -1576 -1523 -1544 -1571 -1572 -1566 -1563 -1575 -1585 -1615 -1643 -1669 -1690 -1716 -1651 -1599 -1600 -1590 -1561 -1543 -1520 -1498 -1483 -1482 -1450 -1447 -1449 -1434 -1440 -1429 -1462 -1483 -1500 -1518 -1507 -1504 -1520 -1550 -1557 -1551 -1593 -1632 -1619 -1590 -1602 -1612 -1584 -1546 -1511 -1449 -1441 -1438 -1391 -1353 -1337 -1292 -1263 -1217 -1199 -1161 -1119 -1083 -1082 -1112 -1043 -1035 -995 -980 -937 -890 -873 -857 -815 -769 -747 -762 -691 -642 -590 -586 -505 -436 -448 -453 -435 -415 -414 -432 -421 -424 -428 -396 -368 -318 -292 -292 -226 -186 -135 -90 9 132 152 164 277 392 400 407 434 471 455 428 460 460 487 514 514 508 533 531 570 564 588 629 686 765 775 789 852 916 954 982 1044 1093 1132 1147 1224 1264 1325 1357 1359 1345 1337 1317 1325 1317 1319 1340 1329 1319 1345 1357 1388 1429 1410 1395 1405 1405 1434 1440 1416 1404 1391 1392 1396 1399 1408 1381 1386 1352 1381 1389 1381 1369 1409 1447 1506 1554 1568 1573 1583 1591 1616 1636 1636 1634 1608 1572 1544 1523 1521 1508 1479 1460 1459 1460 1439 1417 1395 1394 1371 1355 1351 1360 1353 1366 1367 1372 1387 1393 1388 1394 1399 1401 1427 1442 1467 1491 1505 1508 1460 1414 1410 1421 1374 1324 1327 1338 1295 1232 1239 1250 1246 1246 1262 1264 1315 1324 1363 1382 1437 1494 1475 1500 1539 1596 1604 1604 1642 1693 1675 1670 1631 1584 1597 1607 1577 1530 1523 1522 1483 1441 1453 1480 1423 1377 1406 1412 1373 1328 1339 1323 1322 1307 1315 1290 1270 1265 1242 1232 1214 1196 1179 1169 1130 1096 1093 1067 1018 969 968 957 920 865 888 904 886 870 815 770 756 751 740 726 728 703 722 733 736 775 771 798 807 848 833 834 860 887 869 825 832 817 831 836 827 827 836 841 837 835 867 881 948 1011 1055 1047 1152 1215 1271 1319 1335 1337 1363 1370 1418 1469 1496 1513
307 327 317 309 329 324 304 260 254 233 213 187 182 135 87 -23 -63 -101 -77 -91 -56 6 23 74 98 134 146 203 216 233 227 235 231 196 168 123 104 47 49 9 -8 -14 -12 -26 -44 -61 -89 -142 -136 -118 -81 -34 -45 -40 -28 -13 -14 12 9 10 33 34 34 53 63 87 82 78 58 46 78 134 133 175 178 213 207 188 167 168 147 89 87 9 -5 -80 -75 -115 -137 -199 -207 -283 -315 -368 -371 -461 -501 -634 -693 -829 -887 -1026 -1050 -1162 -1221 -1294 -1282 -1352 -1408 -1520 -1548 -1665 -1703 -1745 -1722 -1761 -1786 -1831 -1840 -1901 -1915 -1913 -1891 -1867 -1881 -1874 -1873 -1875 -1899 -1923 -1956 -2005 -1987 -1984 -1990 -1997 -2021 -2052 -2020 -1989 -1956 -1934 -1934 -1915 -1944 -1937 -1900 -1856 -1866 -1863 -1848 -1831 -1824 -1817 -1835 -1857 -1862 -1861 -1873 -1892 -1864 -1788 -1765 -1686 -1655 -1589 -1612 -1577 -1596 -1614 -1608 -1600 -1601 -1625 -1657 -1733 -1744 -1759 -1719 -1671 -1672 -1632 -1595 -1557 -1538 -1502 -1491 -1455 -1440 -1432 -1448 -1455 -1441 -1427 -1432 -1459 -1455 -1498 -1490 -1499 -1500 -1491 -1513 -1562 -1573 -1611 -1600 -1627 -1631 -1592 -1580 -1564 -1549 -1497 -1452 -1375 -1359 -1311 -1312 -1269 -1256 -1203 -1179 -1119 -1067 -1019 -1027 -1011 -997 -964 -964 -925 -916 -877 -841 -778 -756 -720 -710 -646 -640 -629 -604 -512 -504 -476 -473 -411 -396 -402 -419 -416 -420 -441 -436 -452 -435 -376 -334 -263 -230 -196 -162 -77 -67 24 49 181 213 274 301 413 414 435 435 456 465 450 474 511 517 533 537 553 561 558 531 520 534 601 648 725 778 834 847 922 957 1040 1050 1123 1154 1203 1249 1363 1375 1406 1369 1341 1336 1331 1333 1320 1331 1346 1362 1381 1374 1413 1395 1410 1395 1407 1416 1447 1425 1402 1406 1386 1381 1386 1402 1429 1421 1403 1398 1383 1370 1381 1390 1390 1415 1479 1492 1550 1558 1550 1567 1610 1600 1603 1588 1566 1529 1485 1512 1502 1468 1441 1439 1417 1411 1411 1412 1369 1373 1368 1348 1328 1303 1314 1331 1335 1360 1371 1361 1350 1366 1379 1388 1399 1402 1438 1454 1487 1478 1431 1426 1384 1368 1355 1337 1300 1294 1286 1274 1244 1217 1209 1232 1234 1263 1304 1299 1347 1346 1391 1392 1429 1471 1525 1523 1578 1575 1584 1604 1651 1664 1650 1628 1590 1579 1577 1553 1505 1490 1484 1477 1450 1438 1436 1458 1453 1424 1388 1396 1375 1351 1345 1323 1311 1275 1231 1223 1179 1181 1175 1160 1145 1148 1125 1121 1086 1066 1010 1019 990 959 935 920 894 893 901 857 786 762 729 742 738 741 733 732 710 692 707 743 780 797 839 836 869 889 882 888 910 896 867 868 877 878 870 893 919 908 907 912 929 947 999 1045 1144 1166 1228 1244 1333 1362 1391 1407 1441 1432 1449 1473 1538 1561
274 308 311 331 360 333 310 292 300 263 224 212 205 129 39 -28 -146 -109 -111 -95 -80 -6 47 67 96 142 183 215 239 237 241 230 242 185 151 112 59 57 46 20 -20 -15 -32 -31 -62 -64 -92 -122 -180 -107 -60 -56 -68 -40 -12 -24 -25 -13 0 3 32 19 18 39 56 69 85 83 61 84 96 134 153 163 189 195 205 173 156 133 97 81 63 9 -44 -79 -112 -114 -141 -183 -232 -253 -301 -332 -368 -426 -477 -612 -745 -828 -945 -1032 -1136 -1175 -1284 -1280 -1320 -1354 -1432 -1505 -1602 -1647 -1760 -1718 -1728 -1745 -1796 -1819 -1864 -1879 -1946 -1907 -1891 -1873 -1862 -1867 -1870 -1890 -1908 -1943 -1984 -1982 -1992 -1976 -1982 -2002 -2069 -2014 -1991 -1947 -1884 -1906 -1907 -1919 -1960 -1930 -1897 -1863 -1843 -1849 -1836 -1835 -1814 -1822 -1826 -1850 -1864 -1854 -1869 -1889 -1932 -1814 -1742 -1691 -1630 -1629 -1624 -1634 -1671 -1650 -1648 -1627 -1614 -1646 -1698 -1760 -1872 -1792 -1779 -1715 -1670 -1641 -1592 -1555 -1503 -1494 -1466 -1434 -1377 -1408 -1425 -1432 -1436 -1425 -1411 -1424 -1434 -1458 -1480 -1479 -1494 -1486 -1496 -1533 -1571 -1584 -1612 -1625 -1674 -1600 -1575 -1545 -1524 -1469 -1392 -1349 -1302 -1280 -1232 -1222 -1200 -1151 -1103 -1040 -915 -942 -920 -927 -932 -888 -858 -847 -829 -790 -729 -697 -637 -642 -617 -584 -517 -541 -516 -467 -386 -418 -419 -387 -336 -387 -406 -418 -411 -422 -420 -440 -489 -382 -301 -230 -143 -134 -84 -48 -30 26 84 162 267 293 354 380 419 427 443 470 485 481 507 528 565 549 548 570 625 561 515 501 454 568 639 701 790 807 843 895 950 1002 1055 1120 1199 1220 1284 1362 1469 1401 1375 1358 1328 1354 1365 1361 1341 1365 1384 1386 1386 1397 1401 1381 1335 1396 1415 1443 1449 1421 1398 1386 1351 1389 1403 1425 1453 1425 1428 1399 1366 1389 1401 1396 1425 1455 1492 1526 1581 1543 1536 1567 1598 1573 1547 1518 1433 1476 1492 1469 1408 1410 1390 1386 1358 1398 1410 1380 1338 1339 1305 1285 1215 1295 1315 1343 1369 1363 1351 1351 1343 1359 1381 1377 1373 1409 1449 1459 1503 1426 1382 1348 1322 1300 1274 1270 1267 1256 1229 1215 1186 1215 1237 1247 1270 1276 1281 1310 1322 1354 1367 1398 1437 1467 1490 1532 1543 1562 1578 1620 1665 1625 1604 1581 1568 1556 1526 1494 1442 1477 1454 1460 1427 1458 1463 1466 1481 1429 1412 1389 1358 1342 1315 1294 1254 1225 1195 1153 1107 1109 1088 1105 1129 1119 1107 1093 1075 1034 1011 977 944 934 895 910 914 882 839 766 665 724 731 743 744 757 759 723 648 721 753 778 795 817 838 889 959 918 928 918 922 909 904 926 951 939 947 966 981 963 973 996 1027 1072 1157 1201 1284 1303 1369 1415 1511 1464 1477 1484 1501 1515 1538 1580 1633
311 322 326 344 333 341 339 299 303 296 275 232 205 137 109 16 17 -79 -100 -100 -66 0 14 51 77 155 173 235 221 236 227 203 193 151 155 115 120 79 66 48 47 4 -10 -7 -19 -42 -50 -75 -62 -71 -86 -62 -62 -42 -40 -46 -40 -39 -39 -27 -7 -5 16 29 33 48 77 111 114 136 133 155 124 137 160 174 158 143 137 113 114 75 53 10 -4 -83 -76 -88 -112 -160 -168 -197 -220 -292 -313 -400 -444 -592 -648 -793 -848 -1021 -1044 -1120 -1132 -1222 -1264 -1314 -1362 -1468 -1489 -1564 -1572 -1641 -1674 -1698 -1721 -1786 -1780 -1806 -1827 -1878 -1883 -1874 -1884 -1865 -1884 -1908 -1922 -1958 -1951 -1949 -1947 -1946 -1949 -1961 -1946 -1947 -1963 -1925 -1932 -1900 -1894 -1895 -1906 -1929 -1907 -1856 -1872 -1854 -1853 -1859 -1844 -1833 -1835 -1854 -1828 -1824 -1847 -1865 -1838 -1797 -1802 -1709 -1724 -1674 -1661 -1667 -1665 -1670 -1682 -1649 -1655 -1650 -1674 -1739 -1723 -1761 -1789 -1743 -1735 -1673 -1629 -1568 -1559 -1507 -1484 -1441 -1435 -1400 -1388 -1414 -1425 -1427 -1421 -1393 -1402 -1422 -1424 -1446 -1451 -1463 -1478 -1506 -1513 -1545 -1569 -1589 -1565 -1560 -1560 -1517 -1509 -1463 -1423 -1330 -1332 -1275 -1230 -1189 -1153 -1099 -1081 -1026 -1012 -917 -877 -846 -836 -801 -806 -777 -766 -725 -690 -647 -639 -596 -584 -556 -555 -504 -479 -457 -442 -392 -400 -384 -408 -407 -412 -441 -417 -418 -396 -399 -378 -364 -331 -216 -198 -113 -59 -1 -12 28 41 118 158 278 304 336 354 413 451 496 481 483 504 529 528 553 561 555 552 549 547 517 553 581 579 651 670 764 804 865 885 963 999 1103 1113 1197 1254 1335 1299 1357 1394 1389 1393 1395 1404 1420 1398 1389 1384 1395 1391 1390 1383 1381 1405 1428 1424 1462 1436 1437 1441 1411 1413 1418 1399 1417 1409 1416 1438 1420 1420 1409 1378 1371 1392 1424 1435 1483 1483 1506 1517 1527 1532 1547 1549 1528 1524 1495 1482 1477 1463 1403 1401 1381 1406 1414 1406 1405 1397 1346 1323 1295 1321 1337 1324 1355 1344 1362 1368 1361 1354 1335 1340 1355 1363 1378 1375 1400 1384 1388 1371 1304 1309 1250 1249 1242 1251 1243 1235 1202 1225 1228 1227 1247 1242 1249 1275 1293 1297 1336 1328 1362 1373 1416 1459 1518 1511 1546 1542 1588 1571 1581 1601 1562 1570 1555 1548 1503 1530 1531 1518 1512 1514 1509 1493 1470 1454 1435 1432 1412 1393 1353 1337 1296 1276 1220 1190 1132 1116 1067 1059 1059 1090 1116 1120 1104 1088 1041 1014 965 987 965 946 939 910 877 848 774 808 772 741 762 774 794 795 778 789 779 771 785 783 796 828 893 874 904 911 915 933 945 962 972 972 988 997 1020 1000 991 1019 1056 1058 1107 1145 1221 1252 1334 1383 1447 1433 1477 1496 1519 1527 1572 1579 1613 1632
338 348 367 357 339 346 357 325 309 295 272 249 227 154 80 82 94 6 -76 -61 -55 13 86 67 57 146 207 234 233 239 232 206 178 145 115 122 136 108 78 79 90 34 -20 4 4 0 -21 -13 -10 -24 -34 -53 -86 -41 -5 -35 -65 -54 -66 -27 3 0 8 25 37 58 95 112 126 150 182 141 111 132 177 150 126 107 88 93 112 63 30 9 -6 -51 -92 -83 -90 -139 -177 -170 -160 -229 -262 -351 -416 -572 -730 -795 -835 -980 -1090 -1070 -1050 -1152 -1236 -1296 -1348 -1423 -1493 -1489 -1481 -1552 -1598 -1648 -1672 -1718 -1734 -1756 -1761 -1821 -1837 -1877 -1907 -1895 -1903 -1922 -1953 -1966 -1990 -1936 -1910 -1905 -1900 -1905 -1896 -1912 -1914 -1905 -1912 -1898 -1900 -1895 -1895 -1898 -1885 -1870 -1881 -1861 -1856 -1840 -1851 -1834 -1841 -1828 -1808 -1819 -1838 -1829 -1822 -1785 -1772 -1746 -1772 -1697 -1673 -1687 -1701 -1705 -1741 -1691 -1676 -1675 -1694 -1704 -1695 -1735 -1780 -1753 -1746 -1671 -1606 -1573 -1572 -1519 -1488 -1451 -1435 -1399 -1363 -1414 -1435 -1432 -1428 -1398 -1382 -1393 -1395 -1416 -1415 -1438 -1450 -1485 -1507 -1534 -1572 -1535 -1501 -1501 -1490 -1481 -1482 -1432 -1375 -1336 -1334 -1235 -1154 -1130 -1092 -1054 -1002 -1003 -1004 -912 -832 -813 -780 -759 -717 -712 -704 -641 -560 -582 -585 -555 -548 -547 -545 -502 -441 -431 -405 -405 -438 -419 -423 -437 -464 -439 -405 -391 -356 -353 -331 -298 -257 -202 -165 -68 20 12 9 32 50 104 153 245 338 319 313 392 477 493 502 500 521 529 525 549 574 563 556 545 500 540 602 599 630 633 626 725 798 834 869 931 980 1066 1100 1187 1285 1266 1223 1297 1361 1379 1415 1438 1474 1448 1421 1421 1413 1419 1397 1408 1377 1403 1412 1439 1473 1462 1433 1441 1469 1433 1427 1410 1412 1412 1402 1424 1463 1434 1423 1392 1367 1373 1372 1403 1409 1443 1452 1459 1455 1491 1520 1521 1524 1531 1529 1517 1526 1489 1482 1443 1415 1422 1442 1429 1447 1438 1428 1376 1313 1327 1347 1365 1392 1373 1347 1372 1381 1371 1372 1344 1327 1340 1340 1347 1350 1330 1299 1308 1290 1281 1302 1233 1185 1219 1245 1237 1231 1225 1243 1235 1247 1243 1237 1259 1291 1292 1281 1296 1295 1342 1350 1414 1467 1490 1492 1503 1493 1529 1537 1558 1599 1569 1560 1557 1566 1557 1561 1570 1589 1569 1581 1556 1568 1495 1449 1426 1401 1401 1397 1361 1343 1300 1274 1210 1157 1112 1071 1037 1003 1051 1097 1108 1131 1108 1103 1037 978 979 1007 967 937 934 930 890 828 830 847 815 767 794 809 842 864 835 842 843 874 829 800 821 831 868 864 883 867 910 945 966 1009 1020 1025 1037 1031 1040 1042 1040 1049 1083 1097 1161 1227 1263 1296 1381 1468 1449 1441 1472 1480 1514 1540 1582 1631 1642 1652
338 365 361 378 384 350 342 335 331 306 299 267 242 174 188 138 117 85 60 -15 -18 23 29 77 106 165 176 264 261 255 235 214 178 139 144 124 122 141 135 103 101 62 72 40 39 57 50 53 31 18 4 -31 -36 -33 -35 -27 -31 -49 -38 -18 -18 -3 17 26 25 55 71 117 135 158 138 117 126 104 110 123 115 73 82 59 57 38 49 3 8 -24 -29 -64 -83 -129 -122 -149 -167 -205 -237 -327 -378 -550 -618 -823 -873 -975 -960 -1020 -1035 -1102 -1158 -1289 -1322 -1383 -1385 -1421 -1451 -1490 -1540 -1627 -1646 -1683 -1703 -1726 -1756 -1808 -1834 -1891 -1894 -1906 -1922 -1926 -1942 -1963 -1936 -1898 -1898 -1864 -1881 -1865 -1879 -1891 -1888 -1871 -1878 -1881 -1888 -1893 -1897 -1886 -1873 -1860 -1856 -1854 -1827 -1797 -1812 -1812 -1812 -1811 -1820 -1808 -1793 -1791 -1779 -1750 -1744 -1732 -1702 -1672 -1711 -1707 -1712 -1708 -1705 -1701 -1700 -1681 -1680 -1689 -1695 -1705 -1719 -1746 -1728 -1662 -1632 -1549 -1547 -1510 -1494 -1441 -1428 -1399 -1422 -1445 -1435 -1441 -1419 -1392 -1387 -1376 -1386 -1411 -1403 -1424 -1442 -1480 -1489 -1514 -1491 -1478 -1469 -1456 -1443 -1435 -1431 -1410 -1378 -1307 -1266 -1179 -1175 -1085 -1064 -1025 -1028 -981 -965 -895 -884 -797 -777 -741 -705 -650 -638 -578 -584 -537 -498 -491 -531 -539 -540 -518 -483 -421 -388 -385 -403 -433 -452 -456 -445 -447 -440 -387 -361 -328 -287 -243 -226 -170 -114 -14 -34 20 28 44 60 97 133 211 228 290 311 365 398 498 495 494 514 541 532 545 550 569 576 576 564 544 551 586 608 625 648 715 720 807 837 915 962 1082 1103 1167 1167 1224 1222 1249 1277 1354 1406 1471 1460 1480 1491 1461 1474 1472 1473 1471 1452 1444 1440 1446 1457 1482 1460 1428 1430 1427 1414 1383 1405 1418 1428 1418 1418 1430 1418 1371 1384 1382 1376 1407 1407 1430 1426 1426 1444 1462 1463 1495 1514 1544 1534 1520 1500 1471 1486 1474 1462 1450 1424 1413 1437 1473 1463 1418 1404 1355 1369 1385 1396 1398 1418 1401 1378 1370 1357 1344 1349 1338 1331 1321 1297 1272 1266 1258 1241 1230 1216 1195 1211 1204 1215 1231 1227 1227 1228 1225 1243 1242 1263 1261 1273 1303 1284 1274 1312 1363 1369 1424 1435 1484 1501 1483 1483 1500 1485 1516 1526 1556 1548 1549 1572 1598 1591 1599 1599 1594 1598 1567 1549 1494 1490 1419 1423 1397 1378 1351 1334 1289 1265 1191 1162 1088 1051 1009 1034 1045 1051 1089 1085 1097 1087 1026 1027 969 967 960 959 933 931 925 914 871 883 874 871 840 862 903 872 858 871 878 872 858 879 859 855 884 874 899 895 915 923 966 1007 1074 1081 1105 1087 1069 1078 1078 1103 1130 1151 1215 1236 1308 1356 1427 1411 1440 1463 1493 1493 1519 1531 1587 1609 1673 1672
313 339 365 388 441 370 346 339 329 321 315 290 256 232 213 185 168 121 77 33 -7 48 71 81 96 159 220 256 318 265 238 201 129 145 136 132 110 151 162 152 163 113 97 83 79 93 89 89 76 66 40 2 -47 -12 5 -21 -43 -31 -22 -2 12 20 45 31 14 55 75 119 172 157 153 130 104 115 104 101 87 69 71 55 45 37 45 27 24 -5 -25 -38 -49 -93 -122 -137 -140 -212 -259 -321 -373 -535 -684 -800 -965 -961 -1013 -986 -929 -1083 -1194 -1271 -1381 -1359 -1390 -1386 -1402 -1475 -1562 -1612 -1677 -1691 -1732 -1745 -1759 -1819 -1877 -1908 -1944 -1940 -1950 -1949 -1979 -1960 -1933 -1899 -1842 -1873 -1887 -1871 -1860 -1885 -1894 -1871 -1846 -1860 -1866 -1875 -1912 -1873 -1852 -1850 -1825 -1811 -1777 -1777 -1785 -1776 -1774 -1797 -1821 -1791 -1768 -1759 -1737 -1705 -1672 -1672 -1632 -1668 -1693 -1726 -1762 -1729 -1710 -1698 -1680 -1676 -1675 -1675 -1693 -1699 -1733 -1719 -1727 -1639 -1572 -1542 -1526 -1486 -1456 -1424 -1387 -1403 -1412 -1452 -1493 -1448 -1409 -1387 -1352 -1378 -1375 -1382 -1382 -1425 -1452 -1473 -1513 -1473 -1466 -1422 -1373 -1386 -1381 -1382 -1390 -1346 -1315 -1256 -1205 -1159 -1104 -1063 -992 -1011 -1015 -985 -984 -907 -841 -803 -738 -698 -652 -623 -610 -556 -519 -480 -404 -477 -509 -528 -557 -498 -451 -394 -307 -365 -390 -421 -484 -456 -455 -446 -465 -381 -325 -284 -222 -200 -162 -110 -16 0 22 36 29 62 91 124 175 211 261 253 251 341 419 462 514 502 519 533 522 545 562 572 587 576 582 572 575 603 620 633 624 683 734 780 828 902 985 1062 1185 1150 1180 1168 1130 1212 1283 1346 1438 1461 1477 1506 1549 1526 1544 1535 1537 1518 1496 1495 1493 1485 1488 1478 1457 1436 1433 1411 1380 1381 1393 1421 1465 1433 1424 1423 1411 1383 1363 1367 1349 1406 1421 1430 1441 1439 1436 1441 1440 1473 1498 1520 1548 1506 1480 1479 1476 1460 1445 1438 1420 1422 1423 1462 1515 1448 1417 1402 1426 1428 1455 1459 1481 1433 1395 1381 1333 1344 1345 1342 1341 1305 1255 1235 1184 1190 1180 1176 1151 1155 1144 1176 1243 1210 1207 1217 1230 1243 1262 1271 1304 1282 1292 1294 1268 1304 1333 1367 1396 1428 1485 1503 1572 1494 1458 1453 1433 1478 1498 1515 1490 1547 1582 1591 1604 1620 1644 1629 1645 1582 1557 1518 1482 1449 1427 1397 1364 1339 1302 1268 1239 1165 1097 1049 950 992 1013 1032 1068 1057 1060 1080 1095 1046 1011 983 961 961 936 946 932 942 930 934 961 940 924 920 940 932 919 901 887 906 910 907 928 892 878 883 883 903 903 938 947 990 1044 1088 1138 1137 1149 1134 1137 1144 1164 1177 1213 1263 1326 1366 1465 1458 1481 1465 1453 1496 1521 1539 1538 1603 1639 1673 1693
313 313 334 369 351 344 368 349 353 337 328 324 311 285 258 222 207 157 137 79 111 108 73 81 108 155 164 224 219 252 246 223 223 177 164 161 174 194 175 180 163 131 144 118 143 150 147 139 133 133 106 48 57 26 -1 -19 -4 -12 -7 18 4 29 37 41 50 77 76 114 111 147 155 148 157 149 118 91 72 48 41 45 34 22 26 37 21 3 6 -16 -30 -75 -96 -137 -166 -246 -263 -326 -381 -533 -575 -729 -745 -891 -956 -982 -1045 -1108 -1122 -1220 -1212 -1282 -1319 -1332 -1376 -1447 -1481 -1584 -1586 -1673 -1717 -1763 -1783 -1832 -1850 -1921 -1913 -1961 -1956 -1943 -1951 -1965 -1948 -1926 -1921 -1900 -1871 -1873 -1884 -1898 -1877 -1874 -1873 -1849 -1833 -1831 -1839 -1842 -1871 -1864 -1834 -1789 -1772 -1752 -1746 -1733 -1758 -1783 -1762 -1767 -1751 -1740 -1718 -1664 -1670 -1652 -1668 -1676 -1690 -1745 -1728 -1737 -1735 -1704 -1693 -1669 -1657 -1646 -1663 -1666 -1671 -1671 -1642 -1595 -1588 -1523 -1508 -1452 -1453 -1412 -1437 -1417 -1438 -1461 -1443 -1450 -1446 -1396 -1418 -1410 -1374 -1361 -1393 -1442 -1434 -1450 -1419 -1400 -1403 -1372 -1374 -1337 -1327 -1324 -1307 -1272 -1267 -1199 -1203 -1150 -1123 -1071 -1058 -1014 -993 -963 -954 -910 -905 -836 -784 -663 -632 -582 -568 -518 -503 -463 -498 -506 -486 -510 -484 -469 -461 -399 -412 -381 -349 -377 -395 -432 -435 -417 -389 -347 -333 -261 -249 -174 -141 -93 -72 5 29 73 72 85 90 133 144 198 196 211 252 329 338 417 424 483 516 550 546 553 553 570 565 561 581 588 602 633 630 663 655 660 680 753 784 882 914 997 999 1068 1108 1141 1160 1187 1207 1309 1340 1459 1486 1519 1517 1553 1572 1588 1573 1570 1558 1549 1528 1516 1507 1488 1470 1429 1430 1407 1398 1369 1389 1410 1404 1428 1440 1430 1422 1387 1395 1376 1413 1450 1428 1428 1436 1453 1433 1429 1439 1462 1468 1490 1476 1479 1492 1489 1471 1445 1437 1438 1433 1433 1420 1437 1430 1442 1446 1412 1437 1448 1475 1504 1473 1455 1457 1429 1406 1356 1353 1345 1326 1303 1275 1231 1201 1140 1141 1144 1131 1131 1119 1114 1122 1161 1183 1206 1213 1256 1258 1277 1271 1273 1299 1314 1315 1342 1339 1376 1360 1408 1426 1474 1459 1465 1468 1422 1452 1466 1471 1518 1529 1568 1557 1581 1606 1634 1633 1633 1605 1560 1570 1541 1520 1471 1454 1402 1381 1341 1303 1243 1212 1136 1119 1061 1057 997 996 1003 1001 1013 1044 1070 1051 1054 1037 992 995 990 982 983 972 983 973 977 982 1003 992 978 972 967 959 942 946 951 931 934 923 905 898 890 906 928 949 988 981 1006 1034 1098 1106 1156 1171 1181 1188 1197 1198 1202 1229 1298 1299 1368 1379 1462 1468 1488 1511 1517 1541 1581 1601 1651 1643 1688 1702
313 325 341 342 329 343 340 363 382 354 324 329 322 300 269 253 239 196 146 158 180 148 111 114 126 152 181 193 180 204 193 219 254 211 191 201 207 218 217 207 179 170 167 174 209 207 223 198 171 169 167 118 115 58 34 10 9 1 8 7 -7 26 66 45 39 59 101 107 108 130 156 159 180 147 128 83 48 24 -14 4 -2 -5 1 5 0 7 15 -1 -6 -64 -125 -140 -162 -256 -343 -365 -409 -533 -668 -694 -679 -851 -988 -1027 -1079 -1142 -1232 -1200 -1153 -1238 -1284 -1309 -1335 -1400 -1491 -1527 -1527 -1650 -1758 -1782 -1805 -1845 -1889 -1903 -1894 -1943 -1976 -1949 -1947 -1948 -1924 -1925 -1925 -1896 -1869 -1874 -1879 -1892 -1879 -1878 -1877 -1846 -1808 -1815 -1818 -1836 -1868 -1851 -1832 -1781 -1723 -1720 -1724 -1720 -1732 -1743 -1725 -1714 -1676 -1708 -1701 -1661 -1629 -1652 -1675 -1681 -1707 -1739 -1740 -1734 -1738 -1698 -1689 -1661 -1633 -1647 -1665 -1660 -1655 -1620 -1571 -1548 -1510 -1489 -1485 -1450 -1423 -1432 -1464 -1452 -1487 -1468 -1452 -1451 -1446 -1443 -1460 -1421 -1373 -1380 -1394 -1425 -1463 -1413 -1375 -1354 -1327 -1316 -1322 -1293 -1274 -1267 -1253 -1222 -1210 -1162 -1148 -1099 -1066 -1040 -1044 -1006 -1005 -958 -928 -908 -890 -830 -797 -661 -545 -536 -522 -478 -424 -459 -505 -513 -527 -486 -450 -444 -420 -411 -419 -375 -331 -371 -383 -398 -409 -377 -339 -305 -260 -249 -238 -154 -76 -48 -40 27 55 103 109 116 113 143 156 190 203 209 210 299 356 387 380 464 519 543 562 561 567 563 567 576 589 601 607 631 651 673 678 683 686 739 767 859 950 959 948 1015 1040 1105 1134 1175 1204 1283 1311 1435 1530 1524 1520 1555 1600 1589 1592 1578 1577 1560 1551 1535 1532 1499 1478 1458 1429 1406 1386 1378 1398 1402 1385 1417 1440 1437 1448 1418 1408 1424 1464 1469 1487 1451 1444 1437 1411 1429 1432 1460 1480 1472 1437 1455 1453 1475 1470 1434 1391 1422 1419 1413 1392 1412 1421 1425 1417 1436 1471 1484 1522 1501 1481 1468 1465 1457 1446 1405 1381 1346 1313 1274 1225 1204 1181 1129 1098 1091 1069 1080 1080 1077 1071 1098 1124 1154 1183 1223 1270 1259 1274 1285 1305 1302 1314 1332 1373 1351 1325 1381 1426 1433 1415 1426 1416 1429 1463 1457 1470 1507 1534 1562 1589 1613 1629 1648 1661 1633 1584 1561 1535 1525 1511 1476 1464 1398 1355 1302 1264 1206 1168 1105 1043 1050 1074 1033 1034 1003 977 1003 1028 1036 1020 1012 1010 983 988 980 996 983 989 990 1001 1005 1018 1028 1029 1028 1021 998 988 976 975 971 954 950 944 915 871 903 931 952 997 1016 1028 1056 1085 1113 1128 1172 1212 1222 1228 1242 1259 1247 1254 1300 1320 1351 1363 1430 1460 1518 1560 1584 1614 1633 1652 1679 1696 1712 1725
311 336 326 330 339 362 362 381 380 376 369 346 340 325 318 284 270 242 252 230 217 194 175 141 135 148 172 189 203 192 201 207 214 224 255 247 246 257 258 253 244 203 207 205 226 249 250 262 246 205 176 143 118 58 62 16 23 0 10 11 14 17 28 37 25 21 53 105 100 110 116 153 156 133 125 68 66 14 4 -13 -38 -41 -15 -16 4 13 8 2 -13 -51 -83 -139 -187 -274 -280 -384 -414 -522 -559 -700 -746 -848 -886 -1059 -1082 -1149 -1144 -1196 -1227 -1235 -1232 -1285 -1271 -1330 -1390 -1507 -1545 -1645 -1683 -1804 -1828 -1854 -1868 -1910 -1924 -1942 -1928 -1933 -1953 -1957 -1940 -1927 -1917 -1890 -1902 -1877 -1896 -1913 -1891 -1882 -1874 -1852 -1843 -1804 -1795 -1818 -1829 -1841 -1829 -1783 -1762 -1683 -1678 -1692 -1711 -1734 -1715 -1688 -1713 -1715 -1681 -1653 -1672 -1654 -1644 -1666 -1710 -1766 -1750 -1721 -1701 -1663 -1670 -1655 -1666 -1646 -1657 -1656 -1629 -1586 -1565 -1516 -1501 -1438 -1437 -1440 -1442 -1430 -1428 -1440 -1461 -1474 -1477 -1459 -1457 -1471 -1452 -1443 -1426 -1392 -1389 -1404 -1383 -1364 -1368 -1317 -1294 -1246 -1247 -1239 -1240 -1217 -1201 -1156 -1146 -1092 -1065 -1034 -1039 -981 -977 -963 -962 -936 -938 -907 -864 -800 -755 -642 -618 -496 -468 -450 -472 -445 -460 -514 -491 -458 -468 -437 -431 -409 -392 -372 -389 -393 -374 -368 -363 -346 -328 -275 -267 -237 -194 -130 -81 17 48 90 103 178 169 159 161 170 172 203 206 213 226 303 323 398 425 474 480 543 548 563 558 551 574 587 594 620 611 633 653 701 696 709 722 753 771 837 862 944 968 1005 1029 1105 1108 1177 1220 1309 1333 1441 1436 1527 1529 1547 1549 1577 1578 1575 1575 1564 1580 1542 1530 1499 1516 1496 1459 1404 1384 1361 1390 1416 1409 1418 1420 1433 1426 1430 1448 1451 1451 1478 1470 1447 1456 1442 1449 1446 1450 1467 1466 1484 1468 1453 1461 1490 1466 1431 1449 1440 1414 1409 1409 1400 1417 1420 1439 1447 1468 1496 1486 1498 1500 1471 1487 1489 1482 1438 1405 1348 1325 1258 1233 1182 1142 1099 1097 1054 1046 1040 1043 1045 1023 1036 1058 1105 1126 1183 1191 1215 1247 1290 1282 1275 1288 1299 1315 1332 1346 1368 1380 1419 1420 1411 1407 1415 1413 1429 1467 1509 1525 1558 1594 1656 1673 1669 1661 1657 1625 1566 1548 1514 1497 1460 1432 1373 1344 1250 1232 1151 1122 1073 1066 1025 1019 1027 1030 1001 1001 995 999 1026 998 964 964 944 938 948 965 966 988 990 1013 1025 1050 1064 1067 1085 1059 1016 1016 1002 1003 1004 985 969 962 940 941 922 919 953 992 1052 1076 1106 1109 1141 1172 1194 1209 1268 1268 1287 1266 1273 1290 1329 1325 1356 1393 1436 1476 1566 1593 1647 1651 1685 1695 1718 1718 1742 1751
285 310 325 322 325 361 377 393 426 393 373 380 368 361 344 323 285 294 298 297 298 237 187 170 140 187 226 222 250 232 228 232 235 268 298 289 292 295 315 300 304 255 242 252 285 276 280 286 295 229 188 151 104 93 62 59 42 34 22 32 23 44 66 34 -23 15 50 72 84 82 95 133 184 142 122 83 57 8 -32 -46 -84 -45 -2 -6 20 8 20 -6 -18 -79 -136 -164 -213 -267 -300 -366 -407 -508 -607 -684 -768 -853 -958 -1040 -1133 -1122 -1154 -1190 -1248 -1245 -1255 -1242 -1187 -1303 -1390 -1470 -1540 -1640 -1758 -1816 -1898 -1877 -1905 -1924 -1955 -1950 -1943 -1953 -1947 -1947 -1931 -1940 -1930 -1918 -1917 -1907 -1926 -1909 -1891 -1884 -1884 -1869 -1841 -1813 -1750 -1815 -1839 -1844 -1827 -1787 -1750 -1687 -1617 -1670 -1695 -1713 -1707 -1712 -1724 -1709 -1681 -1678 -1683 -1661 -1629 -1684 -1733 -1749 -1806 -1717 -1680 -1652 -1626 -1645 -1674 -1673 -1694 -1642 -1612 -1569 -1506 -1501 -1479 -1426 -1361 -1406 -1414 -1422 -1421 -1443 -1468 -1461 -1490 -1453 -1449 -1452 -1449 -1419 -1411 -1391 -1390 -1368 -1370 -1335 -1328 -1277 -1240 -1211 -1177 -1186 -1183 -1182 -1158 -1126 -1084 -1027 -927 -993 -995 -964 -900 -919 -906 -895 -907 -857 -824 -762 -691 -630 -537 -488 -383 -447 -472 -465 -460 -485 -487 -467 -450 -436 -428 -398 -369 -366 -372 -376 -407 -362 -356 -313 -283 -244 -219 -191 -151 -71 25 76 162 154 185 216 286 224 209 211 202 230 254 233 187 301 382 420 475 490 524 543 568 567 557 575 593 601 602 613 604 644 673 697 723 733 751 769 811 848 902 941 976 1019 1058 1093 1110 1185 1262 1310 1381 1416 1465 1492 1514 1527 1555 1554 1562 1566 1571 1579 1639 1558 1528 1517 1539 1502 1458 1415 1343 1396 1399 1421 1405 1436 1444 1432 1402 1445 1463 1467 1470 1492 1491 1467 1449 1457 1467 1469 1477 1483 1482 1481 1457 1461 1467 1487 1491 1467 1455 1444 1417 1419 1411 1428 1457 1448 1468 1465 1512 1494 1480 1494 1512 1485 1509 1507 1537 1454 1388 1346 1313 1246 1181 1137 1063 1074 1055 1034 995 1014 1018 994 931 995 1021 1070 1095 1150 1186 1205 1213 1258 1289 1281 1275 1297 1317 1316 1314 1364 1410 1407 1425 1399 1388 1396 1395 1433 1470 1514 1564 1578 1628 1678 1779 1704 1690 1656 1616 1575 1530 1500 1480 1430 1385 1346 1290 1233 1172 1123 1003 1035 1001 1010 982 1018 1019 1005 976 988 1000 989 976 958 930 912 851 918 958 962 1001 1014 1051 1057 1110 1092 1102 1100 1108 1059 1027 1020 1018 1016 992 993 986 988 959 966 930 994 1035 1091 1149 1134 1162 1186 1269 1244 1247 1280 1305 1286 1277 1295 1302 1343 1362 1408 1460 1496 1542 1608 1702 1686 1712 1733 1765 1759 1761 1771 1788
291 294 310 310 334 380 377 388 393 397 428 434 418 407 403 382 381 353 366 363 330 269 265 214 241 236 214 226 241 261 270 258 284 316 317 321 329 319 327 330 312 272 286 276 273 291 300 307 268 231 221 172 180 151 130 116 95 72 71 75 62 72 67 57 51 13 20 51 44 42 66 102 104 129 130 86 62 -4 -22 -57 -42 -54 -48 -26 -15 -19 -12 -30 -56 -112 -122 -170 -203 -283 -296 -373 -390 -497 -538 -662 -698 -839 -890 -1010 -987 -1054 -1108 -1162 -1180 -1242 -1238 -1242 -1277 -1306 -1339 -1443 -1488 -1619 -1680 -1804 -1784 -1851 -1888 -1926 -1939 -1960 -1970 -1991 -1976 -1955 -1970 -1975 -1949 -1937 -1931 -1911 -1918 -1907 -1897 -1881 -1906 -1900 -1891 -1858 -1869 -1856 -1847 -1871 -1830 -1789 -1767 -1698 -1719 -1677 -1683 -1716 -1720 -1731 -1727 -1717 -1713 -1698 -1693 -1678 -1689 -1710 -1686 -1694 -1673 -1661 -1665 -1641 -1644 -1628 -1649 -1679 -1640 -1606 -1616 -1572 -1567 -1506 -1475 -1429 -1454 -1411 -1411 -1424 -1423 -1444 -1418 -1414 -1420 -1414 -1439 -1441 -1410 -1376 -1387 -1372 -1356 -1308 -1299 -1279 -1268 -1224 -1216 -1183 -1190 -1148 -1154 -1171 -1150 -1106 -1079 -1008 -1042 -1017 -983 -981 -956 -910 -863 -831 -826 -790 -790 -733 -723 -651 -622 -537 -544 -483 -473 -485 -477 -482 -482 -475 -462 -432 -416 -389 -383 -351 -338 -334 -320 -317 -310 -270 -255 -200 -186 -158 -122 -30 2 102 110 180 199 216 219 242 278 266 269 264 272 278 298 332 344 428 431 490 510 540 544 580 582 602 595 624 616 626 642 666 669 692 713 749 754 762 784 842 867 942 955 1040 1056 1100 1119 1193 1216 1289 1313 1380 1415 1463 1464 1492 1498 1523 1537 1558 1543 1544 1544 1526 1538 1505 1525 1517 1508 1455 1494 1483 1456 1467 1469 1478 1465 1449 1470 1485 1466 1485 1497 1529 1510 1483 1488 1470 1485 1488 1484 1507 1500 1504 1484 1469 1474 1501 1489 1491 1493 1466 1457 1439 1439 1445 1440 1447 1437 1436 1458 1491 1486 1487 1460 1451 1475 1495 1467 1454 1432 1337 1321 1235 1199 1125 1130 1079 1060 1035 1030 1006 992 984 999 992 999 1060 1062 1139 1151 1207 1204 1242 1256 1286 1293 1299 1296 1302 1334 1367 1363 1377 1380 1372 1394 1386 1415 1441 1450 1513 1508 1565 1590 1652 1645 1679 1706 1661 1643 1588 1543 1478 1474 1396 1380 1337 1307 1221 1223 1168 1152 1066 1040 1034 1044 1046 1034 1025 1011 983 963 955 976 964 957 925 931 916 898 923 951 1014 1018 1044 1047 1094 1098 1107 1108 1087 1077 1036 1054 1051 1047 1027 1051 1068 1060 1055 1048 1058 1066 1130 1099 1122 1148 1173 1199 1268 1279 1300 1278 1278 1309 1329 1350 1381 1397 1457 1461 1547 1565 1625 1619 1683 1731 1772 1760 1792 1787 1796 1807
295 303 352 324 321 375 417 409 412 430 457 453 461 450 455 445 447 437 465 429 392 344 282 291 327 281 254 255 254 281 314 315 335 366 397 390 380 374 370 347 331 310 294 287 284 291 318 291 255 235 189 184 210 168 151 143 131 104 96 92 80 95 119 84 68 50 39 43 34 35 38 76 91 109 121 74 45 -23 -87 -53 -25 -34 -28 -16 -14 -22 -19 -72 -105 -154 -189 -218 -223 -299 -318 -373 -390 -500 -587 -642 -687 -824 -944 -947 -926 -1019 -1085 -1139 -1163 -1216 -1223 -1263 -1305 -1348 -1423 -1469 -1502 -1629 -1758 -1754 -1723 -1809 -1880 -1924 -1966 -1980 -1977 -2016 -2018 -2012 -2005 -1984 -1956 -1947 -1946 -1930 -1938 -1916 -1876 -1916 -1955 -1935 -1923 -1911 -1921 -1905 -1914 -1878 -1824 -1797 -1756 -1746 -1752 -1733 -1724 -1734 -1741 -1752 -1753 -1737 -1713 -1711 -1716 -1695 -1687 -1687 -1712 -1657 -1607 -1593 -1553 -1586 -1627 -1626 -1665 -1640 -1604 -1593 -1594 -1573 -1578 -1503 -1461 -1465 -1498 -1458 -1451 -1427 -1413 -1421 -1396 -1386 -1384 -1386 -1413 -1396 -1375 -1364 -1352 -1346 -1336 -1276 -1219 -1216 -1202 -1171 -1129 -1163 -1189 -1149 -1123 -1148 -1141 -1097 -1044 -1041 -1060 -1027 -1008 -980 -941 -890 -813 -802 -778 -759 -731 -700 -686 -646 -611 -595 -619 -561 -541 -508 -470 -490 -511 -479 -454 -427 -396 -375 -365 -330 -301 -280 -258 -259 -248 -227 -196 -153 -103 -96 -82 6 87 117 136 200 240 231 235 266 318 310 337 325 344 317 330 368 430 425 426 482 536 533 535 560 581 599 597 616 624 640 674 689 716 726 739 760 784 776 782 828 874 915 938 1031 1108 1111 1126 1205 1275 1305 1321 1386 1436 1438 1437 1456 1465 1503 1512 1528 1509 1535 1537 1510 1483 1512 1551 1526 1522 1540 1580 1552 1532 1529 1534 1530 1530 1513 1502 1500 1493 1510 1514 1534 1561 1524 1511 1499 1533 1497 1475 1500 1514 1502 1484 1488 1470 1494 1497 1509 1524 1497 1471 1456 1458 1456 1457 1440 1408 1429 1439 1456 1455 1450 1422 1431 1444 1439 1411 1415 1403 1345 1324 1220 1123 1132 1136 1093 1064 1045 1027 1006 986 995 1004 1006 1014 1025 1030 1111 1166 1182 1183 1238 1285 1288 1298 1307 1309 1321 1350 1364 1395 1380 1361 1389 1396 1419 1445 1461 1454 1492 1486 1550 1582 1606 1621 1657 1707 1662 1634 1578 1492 1496 1492 1400 1308 1302 1288 1235 1214 1201 1203 1130 1059 1074 1097 1086 1086 1046 1019 992 940 964 986 972 965 951 954 930 904 917 910 976 1014 1015 1002 1054 1083 1108 1138 1116 1077 1083 1104 1093 1093 1097 1118 1115 1131 1117 1120 1118 1147 1142 1109 1136 1148 1175 1195 1240 1282 1286 1287 1298 1324 1369 1414 1429 1448 1470 1478 1549 1628 1624 1629 1696 1769 1774 1765 1786 1798 1818 1838
272 271 287 313 339 383 382 421 435 454 456 460 476 480 484 496 484 485 489 499 483 435 405 344 333 309 316 289 287 298 326 356 387 419 425 464 451 427 401 357 359 344 318 295 270 271 275 286 295 265 229 168 161 162 177 174 155 120 132 120 117 110 95 94 96 81 61 50 30 29 44 73 62 97 71 45 20 -47 -19 -46 -52 -32 -22 1 -17 -37 -74 -137 -150 -210 -230 -293 -326 -374 -359 -414 -425 -526 -538 -632 -693 -826 -822 -911 -943 -1011 -1052 -1146 -1190 -1238 -1239 -1282 -1298 -1361 -1410 -1508 -1552 -1638 -1651 -1732 -1747 -1784 -1832 -1924 -1963 -2019 -2041 -2078 -2065 -2070 -2054 -2003 -1991 -1951 -1952 -1925 -1934 -1944 -1949 -1952 -1952 -1965 -1957 -1943 -1939 -1929 -1918 -1904 -1879 -1821 -1812 -1779 -1774 -1779 -1766 -1758 -1763 -1783 -1764 -1767 -1748 -1717 -1703 -1701 -1674 -1641 -1637 -1615 -1603 -1552 -1550 -1526 -1538 -1586 -1597 -1612 -1614 -1568 -1565 -1549 -1523 -1469 -1488 -1472 -1475 -1475 -1463 -1422 -1438 -1433 -1399 -1351 -1347 -1335 -1347 -1357 -1362 -1354 -1334 -1324 -1290 -1241 -1226 -1164 -1146 -1130 -1150 -1153 -1150 -1139 -1158 -1158 -1130 -1100 -1092 -1052 -1037 -1023 -1017 -990 -957 -896 -860 -789 -772 -737 -713 -650 -648 -637 -633 -615 -616 -602 -572 -537 -526 -500 -485 -477 -466 -426 -409 -350 -341 -304 -283 -227 -234 -213 -205 -196 -166 -113 -99 -44 -11 51 66 145 191 246 214 235 242 270 283 321 349 355 337 319 347 382 387 417 449 477 495 523 538 546 574 618 609 621 626 637 661 701 717 760 775 771 768 776 781 814 838 906 945 1039 1039 1112 1148 1228 1244 1336 1370 1407 1387 1416 1418 1433 1477 1515 1518 1535 1539 1550 1517 1496 1518 1511 1497 1516 1565 1605 1597 1615 1599 1584 1587 1579 1571 1573 1550 1520 1538 1548 1544 1533 1530 1542 1516 1482 1492 1494 1504 1506 1509 1506 1526 1530 1513 1508 1510 1525 1523 1528 1500 1457 1470 1467 1460 1448 1450 1435 1429 1439 1435 1436 1415 1409 1412 1408 1403 1392 1356 1316 1288 1201 1198 1146 1122 1096 1087 1057 1031 1006 1013 1007 1008 1016 1010 999 1032 1109 1115 1172 1192 1245 1240 1284 1299 1323 1312 1326 1331 1347 1367 1389 1408 1429 1425 1452 1464 1504 1500 1517 1533 1567 1558 1571 1582 1622 1624 1647 1648 1599 1576 1522 1473 1406 1381 1275 1238 1218 1237 1222 1220 1195 1173 1106 1110 1116 1097 1054 1058 1027 1006 977 968 973 969 962 961 948 949 932 939 969 970 1002 1011 1038 1055 1105 1138 1163 1143 1118 1114 1126 1138 1153 1135 1145 1151 1162 1164 1149 1162 1185 1177 1166 1163 1185 1188 1218 1240 1278 1284 1303 1352 1411 1427 1474 1481 1499 1506 1546 1566 1615 1651 1703 1719 1790 1785 1790 1821 1843 1870
250 257 269 289 310 373 406 427 449 467 498 493 507 505 500 500 503 509 526 526 536 481 452 415 397 364 339 327 309 354 396 418 462 464 482 490 519 471 441 401 368 343 303 274 222 257 262 285 311 265 228 193 126 166 162 172 175 154 160 144 144 121 99 98 93 74 46 28 3 29 43 48 43 62 54 12 -37 -34 -29 -32 -44 -41 -32 -21 -5 -63 -110 -164 -235 -258 -313 -363 -450 -426 -426 -440 -443 -545 -607 -673 -730 -805 -866 -896 -908 -1024 -1127 -1181 -1292 -1267 -1275 -1310 -1327 -1405 -1469 -1543 -1641 -1668 -1732 -1735 -1715 -1805 -1899 -1953 -2032 -2064 -2102 -2129 -2135 -2135 -2125 -2069 -2008 -1995 -1977 -1945 -1921 -1941 -1962 -1971 -2016 -1976 -1966 -1951 -1963 -1931 -1921 -1895 -1879 -1847 -1826 -1798 -1784 -1783 -1777 -1783 -1790 -1774 -1768 -1757 -1757 -1713 -1683 -1672 -1640 -1624 -1607 -1578 -1534 -1531 -1517 -1503 -1487 -1534 -1566 -1583 -1613 -1568 -1541 -1522 -1483 -1458 -1436 -1455 -1495 -1460 -1457 -1432 -1447 -1422 -1399 -1354 -1308 -1319 -1315 -1320 -1327 -1309 -1284 -1275 -1245 -1206 -1164 -1127 -1073 -1107 -1117 -1144 -1179 -1153 -1147 -1151 -1141 -1110 -1075 -1061 -1030 -1020 -996 -970 -936 -874 -816 -781 -751 -718 -688 -632 -577 -591 -595 -598 -636 -568 -533 -523 -526 -511 -495 -480 -450 -433 -407 -350 -315 -270 -236 -209 -195 -174 -153 -148 -109 -80 -44 1 51 87 150 200 289 246 242 228 223 266 307 341 402 359 339 346 346 388 422 439 473 499 555 550 548 574 600 618 616 625 649 654 684 707 733 775 854 806 789 775 750 812 851 910 961 1032 1070 1111 1145 1230 1286 1361 1465 1422 1407 1415 1387 1462 1524 1546 1560 1561 1561 1550 1516 1530 1530 1511 1480 1546 1591 1617 1649 1629 1620 1625 1653 1618 1601 1598 1580 1571 1585 1588 1603 1563 1534 1523 1482 1488 1483 1492 1485 1520 1552 1542 1557 1546 1531 1529 1537 1547 1545 1535 1494 1498 1486 1489 1467 1471 1460 1457 1436 1444 1429 1406 1360 1394 1411 1392 1368 1344 1306 1286 1234 1183 1124 1124 1124 1090 1061 1039 997 1011 1014 1020 1024 1014 1023 1008 1009 1088 1152 1169 1187 1221 1248 1267 1305 1301 1303 1320 1342 1363 1383 1403 1419 1436 1461 1485 1506 1529 1534 1558 1594 1597 1609 1579 1553 1595 1607 1626 1640 1591 1552 1515 1472 1416 1354 1273 1153 1203 1220 1227 1251 1217 1189 1162 1160 1142 1123 1091 1068 1036 1001 984 983 963 958 960 972 965 963 946 954 974 1001 989 992 1036 1077 1123 1204 1173 1154 1148 1138 1157 1171 1170 1151 1171 1181 1193 1217 1192 1194 1195 1212 1206 1195 1206 1203 1240 1272 1278 1273 1334 1408 1448 1499 1512 1537 1541 1534 1582 1627 1646 1659 1725 1756 1786 1792 1841 1887 1900 1929
229 240 251 267 313 393 396 433 434 469 481 507 515 536 520 502 518 524 523 544 521 504 506 470 462 412 394 373 393 413 420 459 457 493 500 498 500 498 491 440 421 360 333 278 299 276 265 284 272 257 276 252 245 214 179 177 168 163 160 154 152 132 126 109 102 78 58 13 34 42 21 34 44 57 24 -14 3 -24 -25 -12 -32 -59 -51 -49 -72 -101 -116 -177 -186 -277 -322 -397 -382 -454 -469 -478 -534 -606 -630 -723 -715 -801 -828 -901 -942 -1052 -1066 -1160 -1178 -1266 -1313 -1359 -1379 -1465 -1479 -1557 -1560 -1664 -1700 -1764 -1779 -1824 -1866 -1959 -1995 -2104 -2151 -2203 -2207 -2211 -2189 -2140 -2116 -2044 -2012 -1960 -1965 -1937 -1942 -1954 -1959 -1957 -1968 -1934 -1934 -1914 -1900 -1878 -1881 -1863 -1837 -1804 -1806 -1794 -1799 -1807 -1777 -1755 -1763 -1737 -1733 -1698 -1705 -1667 -1651 -1608 -1586 -1556 -1556 -1522 -1508 -1484 -1504 -1498 -1507 -1543 -1538 -1551 -1559 -1516 -1496 -1447 -1434 -1418 -1406 -1416 -1418 -1404 -1407 -1411 -1395 -1358 -1358 -1318 -1299 -1281 -1285 -1274 -1265 -1247 -1218 -1174 -1161 -1107 -1132 -1108 -1099 -1127 -1129 -1149 -1157 -1158 -1137 -1125 -1110 -1089 -1070 -1031 -1008 -958 -923 -851 -830 -768 -755 -698 -669 -614 -609 -557 -539 -548 -532 -501 -516 -497 -513 -524 -511 -499 -480 -450 -404 -331 -314 -225 -213 -178 -174 -138 -152 -134 -99 -56 -14 43 49 98 134 216 186 209 231 212 241 265 277 337 315 340 366 380 384 405 408 444 450 493 531 576 588 605 611 639 615 616 618 648 668 711 727 755 763 811 804 785 811 834 851 924 955 1061 1072 1120 1162 1262 1277 1360 1351 1410 1436 1452 1470 1507 1521 1586 1569 1589 1595 1573 1587 1580 1546 1526 1567 1600 1585 1625 1619 1635 1643 1644 1640 1639 1643 1638 1622 1600 1616 1619 1602 1583 1572 1534 1531 1507 1503 1509 1521 1540 1537 1553 1551 1566 1557 1542 1567 1581 1579 1574 1576 1555 1548 1537 1530 1511 1502 1499 1481 1475 1443 1399 1412 1397 1383 1382 1365 1312 1317 1291 1254 1175 1152 1104 1094 1079 1077 1044 1048 1030 1028 1035 1004 996 997 1003 1031 1085 1107 1167 1171 1204 1210 1231 1247 1275 1307 1311 1334 1380 1399 1421 1417 1437 1475 1521 1538 1575 1583 1589 1596 1619 1606 1583 1603 1598 1593 1611 1595 1576 1563 1514 1503 1435 1405 1311 1305 1222 1193 1216 1219 1233 1221 1195 1196 1172 1158 1122 1104 1051 1028 977 977 941 946 949 959 977 957 938 962 973 963 963 995 1039 1042 1109 1121 1171 1189 1182 1192 1193 1190 1206 1195 1208 1199 1212 1207 1210 1205 1190 1217 1254 1251 1241 1243 1269 1273 1289 1319 1354 1389 1475 1490 1540 1575 1595 1599 1623 1632 1684 1714 1785 1784 1807 1833 1895 1894 1943 1960
197 221 247 280 325 377 451 441 429 477 502 510 522 528 538 539 547 539 523 526 513 509 515 518 516 460 397 427 449 463 499 493 480 526 550 532 524 514 510 455 443 375 329 326 341 312 279 305 285 294 287 284 289 247 199 197 172 169 148 170 165 147 120 126 124 83 49 28 37 27 8 26 42 36 10 -2 -3 -10 -28 -32 -28 -48 -52 -71 -109 -129 -181 -171 -182 -278 -380 -383 -366 -444 -496 -551 -627 -675 -748 -738 -729 -812 -882 -924 -950 -1053 -1144 -1163 -1160 -1257 -1338 -1381 -1419 -1487 -1567 -1562 -1552 -1660 -1734 -1773 -1796 -1879 -1969 -1996 -2019 -2142 -2265 -2298 -2313 -2309 -2272 -2196 -2156 -2083 -2036 -1996 -1989 -1962 -1956 -1967 -1963 -1960 -1965 -1948 -1925 -1896 -1848 -1856 -1864 -1837 -1805 -1796 -1803 -1794 -1812 -1792 -1771 -1764 -1772 -1744 -1731 -1705 -1701 -1671 -1646 -1605 -1542 -1544 -1542 -1520 -1495 -1492 -1519 -1502 -1501 -1504 -1495 -1521 -1557 -1505 -1483 -1426 -1388 -1363 -1356 -1353 -1357 -1356 -1356 -1369 -1365 -1355 -1360 -1314 -1292 -1268 -1272 -1246 -1214 -1190 -1167 -1144 -1120 -1117 -1152 -1120 -1090 -1114 -1125 -1144 -1145 -1146 -1119 -1107 -1086 -1080 -1086 -1037 -1013 -948 -887 -821 -767 -753 -740 -674 -613 -592 -580 -539 -477 -486 -485 -460 -432 -462 -499 -491 -496 -477 -476 -425 -387 -331 -295 -217 -136 -150 -145 -128 -141 -102 -56 0 65 92 100 141 174 196 171 203 217 224 246 258 286 294 276 315 345 376 412 423 440 443 442 503 584 601 617 624 655 636 605 613 595 640 667 719 760 759 754 782 768 798 836 854 899 944 985 1070 1148 1169 1198 1283 1342 1354 1350 1399 1420 1466 1516 1555 1604 1589 1577 1619 1661 1633 1634 1609 1563 1589 1614 1632 1635 1637 1627 1648 1647 1657 1659 1646 1643 1640 1651 1636 1666 1635 1624 1599 1571 1549 1551 1528 1514 1533 1554 1565 1572 1559 1534 1558 1563 1580 1617 1619 1627 1624 1632 1616 1608 1585 1587 1554 1531 1517 1491 1480 1465 1438 1424 1405 1394 1378 1355 1326 1299 1278 1247 1170 1098 1075 1070 1053 1062 1048 1058 1047 1051 1013 971 972 968 988 1013 1077 1168 1168 1164 1201 1218 1220 1234 1280 1338 1327 1342 1393 1456 1437 1428 1470 1523 1557 1596 1623 1665 1643 1645 1639 1628 1631 1624 1621 1611 1609 1589 1563 1524 1521 1511 1442 1404 1343 1334 1251 1184 1202 1209 1209 1206 1214 1228 1193 1179 1137 1121 1060 1016 996 991 956 914 947 953 952 942 953 976 963 964 967 977 1014 1031 1094 1127 1175 1199 1211 1239 1222 1225 1209 1198 1206 1225 1229 1227 1225 1203 1214 1232 1266 1297 1271 1270 1303 1332 1340 1361 1406 1456 1501 1539 1601 1668 1645 1644 1671 1690 1730 1760 1833 1887 1875 1875 1922 1949 1984 2009
184 200 220 282 286 341 378 452 487 511 488 511 513 519 547 571 573 562 548 526 516 505 537 572 555 515 512 490 471 494 521 537 565 584 551 558 552 527 494 427 410 369 384 357 358 355 370 372 357 347 331 310 310 286 279 241 233 196 207 215 188 172 168 152 134 84 71 16 22 24 34 23 33 35 24 -2 16 14 -23 -63 -55 -55 -56 -77 -84 -125 -127 -144 -190 -276 -287 -390 -417 -463 -497 -604 -658 -719 -716 -752 -795 -839 -859 -965 -989 -1066 -1082 -1190 -1212 -1266 -1287 -1408 -1431 -1497 -1503 -1575 -1624 -1693 -1697 -1799 -1845 -1929 -1929 -2037 -2078 -2180 -2230 -2413 -2471 -2442 -2328 -2217 -2192 -2097 -2067 -1999 -1989 -1968 -1980 -1995 -1979 -1955 -1962 -1970 -1946 -1899 -1883 -1836 -1836 -1819 -1806 -1773 -1746 -1769 -1774 -1781 -1788 -1760 -1762 -1737 -1736 -1693 -1692 -1671 -1665 -1626 -1595 -1536 -1523 -1523 -1505 -1471 -1482 -1493 -1493 -1479 -1495 -1483 -1472 -1465 -1446 -1386 -1364 -1290 -1290 -1286 -1296 -1309 -1325 -1347 -1335 -1340 -1332 -1288 -1280 -1230 -1236 -1226 -1194 -1134 -1138 -1117 -1116 -1089 -1103 -1131 -1131 -1114 -1139 -1158 -1154 -1165 -1139 -1100 -1081 -1061 -1048 -1019 -998 -937 -887 -781 -784 -740 -699 -645 -633 -564 -570 -545 -510 -435 -427 -423 -432 -421 -413 -448 -438 -438 -435 -390 -364 -312 -280 -214 -197 -142 -109 -89 -98 -78 -31 45 68 160 172 193 186 224 214 216 209 221 216 236 265 278 298 301 320 369 383 435 429 446 465 496 531 629 627 621 625 645 639 636 634 651 671 740 732 768 782 798 785 803 811 850 894 968 1005 1089 1110 1211 1258 1330 1313 1366 1385 1417 1432 1478 1516 1593 1574 1589 1624 1649 1649 1667 1685 1661 1661 1654 1660 1679 1670 1663 1682 1683 1675 1679 1667 1645 1648 1629 1635 1629 1637 1632 1630 1621 1598 1542 1543 1542 1558 1556 1558 1595 1583 1577 1559 1569 1571 1601 1614 1651 1662 1663 1678 1669 1648 1609 1610 1588 1580 1550 1538 1489 1485 1466 1455 1408 1406 1382 1371 1341 1309 1278 1240 1160 1127 1031 1005 1003 1023 1028 1034 1051 1031 997 987 954 956 971 989 1044 1084 1175 1206 1219 1203 1200 1222 1274 1269 1320 1351 1394 1402 1446 1466 1492 1515 1591 1617 1659 1652 1673 1677 1667 1674 1692 1679 1653 1634 1626 1617 1564 1561 1536 1489 1420 1406 1326 1318 1267 1269 1200 1196 1189 1208 1230 1207 1193 1179 1129 1122 1054 1052 1001 990 979 977 972 950 939 953 957 947 941 960 965 975 1010 1042 1109 1138 1206 1193 1225 1226 1232 1224 1210 1208 1194 1219 1253 1267 1261 1252 1234 1253 1281 1273 1277 1309 1342 1339 1378 1404 1454 1473 1535 1583 1660 1637 1676 1697 1727 1734 1789 1828 1903 1887 1931 1948 1969 1982 2038 2065
155 181 202 242 274 329 396 451 534 506 501 504 520 537 579 580 623 577 558 531 512 538 560 577 618 554 529 530 505 556 606 602 643 608 583 578 576 539 498 435 337 371 370 387 391 398 412 414 432 394 385 363 359 323 300 290 296 261 248 232 220 199 184 172 183 108 60 38 0 31 53 54 69 36 22 23 45 3 -40 -53 -77 -61 -65 -68 -82 -109 -131 -136 -162 -234 -300 -358 -435 -473 -557 -646 -816 -757 -767 -785 -844 -855 -903 -961 -1046 -1069 -1125 -1174 -1251 -1256 -1316 -1380 -1482 -1484 -1523 -1576 -1661 -1688 -1746 -1803 -1920 -1913 -1954 -2011 -2129 -2176 -2310 -2451 -2764 -2471 -2340 -2245 -2182 -2103 -2017 -1996 -1956 -1963 -1971 -1986 -2011 -1970 -1961 -1950 -1952 -1911 -1874 -1858 -1841 -1816 -1768 -1739 -1638 -1722 -1744 -1776 -1799 -1783 -1781 -1757 -1744 -1710 -1676 -1673 -1664 -1619 -1572 -1537 -1491 -1499 -1484 -1476 -1469 -1469 -1484 -1482 -1518 -1458 -1445 -1420 -1377 -1342 -1297 -1259 -1199 -1235 -1234 -1265 -1289 -1287 -1299 -1293 -1338 -1259 -1243 -1204 -1196 -1163 -1145 -1115 -1090 -1085 -1093 -1076 -1074 -1102 -1128 -1139 -1195 -1160 -1168 -1148 -1148 -1093 -1047 -1039 -1027 -990 -951 -895 -819 -771 -731 -698 -644 -618 -585 -563 -561 -515 -482 -430 -376 -402 -401 -387 -352 -373 -367 -387 -416 -342 -281 -260 -208 -182 -138 -119 -69 -90 -82 -29 47 74 126 180 271 227 229 233 245 230 231 220 192 249 302 303 330 317 336 359 384 401 425 446 480 502 559 613 676 626 618 628 622 643 645 662 698 735 755 769 805 791 787 817 823 882 924 995 1065 1109 1158 1226 1343 1331 1360 1366 1415 1439 1483 1520 1576 1588 1599 1617 1656 1681 1703 1711 1752 1702 1697 1710 1744 1722 1724 1719 1747 1725 1713 1706 1699 1680 1660 1656 1642 1643 1638 1638 1602 1612 1608 1578 1519 1566 1586 1582 1570 1600 1607 1581 1518 1571 1582 1622 1642 1678 1720 1718 1756 1710 1683 1650 1638 1617 1596 1578 1583 1531 1497 1488 1481 1449 1413 1394 1369 1326 1262 1256 1226 1156 1070 1014 889 985 994 1007 998 1014 1019 991 948 937 931 954 974 1032 1104 1161 1264 1217 1232 1199 1196 1229 1249 1300 1352 1385 1429 1448 1471 1506 1549 1598 1697 1661 1680 1676 1703 1686 1692 1705 1745 1671 1635 1646 1669 1608 1555 1531 1476 1434 1369 1339 1278 1291 1275 1243 1214 1216 1207 1211 1199 1181 1167 1147 1129 1072 1032 1006 967 970 967 963 976 963 965 959 948 956 959 958 962 1018 1073 1122 1206 1202 1215 1229 1249 1235 1216 1217 1204 1217 1231 1263 1329 1287 1288 1272 1294 1287 1304 1303 1320 1347 1367 1402 1454 1486 1545 1594 1681 1672 1673 1685 1719 1735 1778 1824 1931 1927 1955 1966 2008 2019 2047 2082 2149
169 168 186 211 239 308 333 424 415 481 486 484 495 530 538 548 553 568 554 530 555 576 561 561 556 554 591 596 604 620 611 622 618 623 627 597 580 557 525 478 474 410 401 433 427 435 434 441 429 413 427 401 383 350 345 324 321 307 295 248 248 223 206 170 160 108 114 77 65 47 44 72 43 21 41 28 10 -5 -4 -34 -30 -48 -56 -49 -72 -98 -97 -108 -140 -201 -224 -308 -330 -437 -491 -610 -600 -728 -766 -777 -783 -835 -862 -931 -933 -1042 -1070 -1130 -1132 -1191 -1238 -1316 -1335 -1435 -1481 -1545 -1563 -1653 -1683 -1748 -1751 -1852 -1873 -1925 -1966 -2085 -2153 -2318 -2251 -2341 -2393 -2242 -2230 -2118 -2071 -2013 -2004 -1959 -1960 -1967 -1955 -1954 -1949 -1917 -1930 -1921 -1902 -1881 -1866 -1837 -1831 -1779 -1782 -1739 -1742 -1783 -1775 -1792 -1792 -1768 -1754 -1728 -1707 -1683 -1653 -1616 -1605 -1549 -1540 -1500 -1488 -1481 -1452 -1433 -1430 -1448 -1415 -1388 -1407 -1394 -1374 -1311 -1291 -1250 -1262 -1221 -1205 -1230 -1206 -1215 -1206 -1197 -1193 -1169 -1181 -1149 -1142 -1088 -1095 -1093 -1084 -1042 -1048 -1051 -1062 -1076 -1086 -1121 -1114 -1119 -1133 -1114 -1119 -1079 -1065 -1024 -1012 -964 -952 -873 -858 -755 -737 -680 -665 -600 -577 -543 -526 -475 -475 -429 -435 -410 -381 -374 -350 -326 -322 -327 -303 -282 -283 -240 -222 -171 -162 -130 -140 -122 -70 -6 1 78 103 164 161 216 237 237 236 229 246 238 248 268 271 304 293 304 317 350 340 360 393 434 442 473 509 589 570 589 623 627 646 670 653 657 687 747 738 750 761 777 818 858 872 932 942 1026 1030 1126 1136 1195 1191 1291 1305 1326 1370 1443 1482 1546 1533 1584 1606 1627 1659 1718 1710 1724 1706 1699 1731 1746 1729 1743 1751 1745 1741 1759 1750 1735 1733 1716 1711 1693 1687 1664 1678 1683 1657 1620 1632 1643 1643 1618 1605 1619 1623 1631 1628 1622 1629 1615 1621 1664 1652 1700 1713 1735 1720 1735 1723 1672 1679 1646 1626 1586 1588 1558 1547 1508 1504 1495 1470 1414 1386 1333 1299 1259 1230 1169 1152 1066 1087 1057 1016 1010 1003 989 997 1000 972 916 929 941 956 1008 1023 1102 1098 1155 1190 1170 1190 1199 1216 1281 1287 1367 1400 1446 1459 1514 1512 1558 1548 1608 1633 1651 1665 1683 1692 1691 1667 1652 1661 1654 1642 1644 1626 1558 1538 1473 1433 1384 1378 1347 1313 1284 1279 1254 1242 1209 1200 1167 1174 1166 1133 1075 1061 1025 1007 967 950 937 958 973 978 967 967 977 958 948 981 1029 1046 1100 1116 1184 1206 1228 1232 1243 1249 1240 1242 1239 1232 1239 1243 1273 1280 1272 1272 1270 1295 1311 1322 1361 1363 1409 1430 1491 1538 1616 1602 1677 1684 1675 1687 1718 1753 1801 1825 1920 1954 1970 1995 2055 2061 2097 2119
185 200 213 233 238 293 326 359 362 420 448 460 468 509 555 539 517 515 496 524 556 572 596 572 552 581 599 635 672 677 700 653 622 638 646 611 586 549 489 496 511 463 424 452 470 476 469 461 451 448 464 424 396 375 347 354 356 331 330 287 274 246 214 190 181 125 91 77 79 54 57 42 29 30 47 15 -2 -11 -23 -19 2 -32 -52 -55 -79 -85 -101 -104 -120 -179 -225 -259 -275 -383 -482 -502 -507 -629 -743 -746 -756 -792 -840 -856 -857 -966 -1062 -1069 -1082 -1127 -1195 -1232 -1273 -1360 -1462 -1500 -1534 -1611 -1671 -1673 -1658 -1746 -1798 -1849 -1900 -1990 -2082 -2091 -2037 -2142 -2225 -2188 -2221 -2086 -1974 -1999 -2028 -1975 -1961 -1944 -1928 -1929 -1916 -1909 -1921 -1903 -1857 -1877 -1873 -1868 -1868 -1837 -1844 -1805 -1810 -1792 -1781 -1791 -1810 -1760 -1739 -1712 -1676 -1662 -1639 -1611 -1592 -1557 -1542 -1501 -1483 -1432 -1411 -1385 -1370 -1365 -1340 -1341 -1329 -1352 -1346 -1296 -1227 -1252 -1280 -1221 -1171 -1166 -1147 -1140 -1126 -1119 -1107 -1090 -1068 -1085 -1090 -1041 -1003 -1035 -1056 -1030 -1010 -1024 -1029 -1060 -1076 -1094 -1088 -1101 -1107 -1107 -1115 -1063 -1009 -1005 -1013 -961 -947 -881 -855 -764 -695 -680 -650 -587 -524 -513 -503 -464 -437 -421 -421 -391 -365 -330 -300 -292 -286 -265 -239 -220 -195 -185 -196 -154 -142 -145 -173 -121 -86 -21 16 71 123 135 139 191 226 230 249 255 273 262 256 283 322 300 265 295 287 322 316 362 396 421 436 465 497 536 544 577 600 634 670 667 665 669 701 736 757 757 763 799 833 871 911 951 990 1019 1046 1111 1158 1154 1123 1213 1261 1304 1351 1436 1524 1530 1522 1578 1640 1657 1693 1713 1743 1717 1699 1709 1730 1742 1733 1750 1772 1752 1738 1760 1760 1759 1770 1750 1738 1724 1734 1716 1725 1698 1688 1668 1663 1684 1704 1686 1664 1668 1658 1673 1690 1675 1675 1672 1688 1682 1665 1714 1775 1733 1692 1718 1731 1713 1717 1672 1634 1619 1614 1575 1540 1515 1516 1495 1490 1432 1386 1323 1237 1236 1232 1183 1149 1142 1158 1115 1109 1056 1019 1016 1001 987 953 938 914 939 947 979 1010 1037 1031 1101 1173 1144 1162 1170 1190 1235 1253 1351 1437 1446 1448 1485 1508 1503 1480 1540 1576 1609 1646 1657 1694 1657 1635 1616 1595 1624 1638 1631 1634 1583 1569 1491 1399 1410 1412 1377 1346 1320 1304 1280 1292 1242 1220 1181 1164 1150 1124 1072 1018 1012 1005 964 932 940 955 977 997 970 959 962 962 968 990 1046 1094 1105 1109 1172 1208 1222 1242 1251 1267 1258 1273 1252 1249 1236 1229 1250 1248 1256 1259 1271 1306 1317 1315 1353 1363 1424 1454 1517 1591 1589 1570 1643 1705 1685 1683 1722 1775 1789 1802 1899 1995 1992 2002 2048 2084 2094 2111
222 236 248 272 280 300 291 327 341 390 405 440 447 483 495 536 518 482 502 515 521 562 570 579 594 619 627 676 670 716 695 671 688 662 639 615 599 567 551 506 515 508 510 481 502 531 504 483 474 465 454 437 433 408 395 390 364 331 328 297 289 273 252 195 182 121 114 62 43 35 36 10 26 25 13 -11 0 -17 -17 -22 -29 -30 -24 -41 -40 -62 -72 -88 -128 -171 -176 -229 -276 -340 -350 -412 -450 -541 -575 -708 -724 -738 -755 -797 -826 -903 -923 -1004 -1013 -1040 -1071 -1147 -1179 -1272 -1333 -1461 -1508 -1588 -1570 -1615 -1637 -1678 -1695 -1773 -1816 -1896 -1882 -1929 -1923 -1968 -1991 -2065 -2080 -2032 -2042 -1983 -1977 -1954 -1953 -1920 -1920 -1920 -1902 -1884 -1903 -1913 -1906 -1899 -1887 -1896 -1874 -1860 -1854 -1830 -1819 -1796 -1793 -1782 -1759 -1723 -1728 -1708 -1691 -1651 -1637 -1598 -1580 -1546 -1532 -1481 -1442 -1356 -1347 -1327 -1316 -1302 -1313 -1308 -1319 -1339 -1319 -1301 -1286 -1254 -1239 -1212 -1185 -1116 -1113 -1073 -1067 -1046 -1034 -1018 -1027 -1035 -1009 -984 -1009 -991 -1006 -1015 -1014 -1009 -1024 -1059 -1053 -1093 -1089 -1092 -1088 -1093 -1080 -1051 -1037 -975 -964 -921 -910 -852 -846 -753 -754 -695 -653 -577 -550 -482 -464 -442 -420 -399 -381 -369 -340 -282 -289 -256 -237 -209 -196 -164 -152 -110 -111 -107 -144 -138 -141 -105 -87 -9 17 70 82 117 146 185 187 210 234 272 265 283 278 289 291 310 324 324 312 335 332 377 374 421 435 455 476 515 527 575 598 641 641 663 661 656 685 742 738 759 796 824 832 885 907 974 970 1017 1064 1115 1106 1143 1142 1178 1205 1281 1331 1428 1447 1529 1533 1569 1590 1668 1685 1699 1700 1704 1705 1708 1725 1759 1750 1754 1749 1756 1767 1784 1773 1771 1766 1777 1760 1732 1746 1743 1729 1699 1692 1702 1713 1727 1739 1758 1743 1734 1718 1714 1709 1716 1698 1713 1709 1712 1719 1717 1716 1730 1731 1717 1721 1734 1726 1693 1681 1642 1628 1591 1567 1498 1493 1482 1477 1441 1421 1336 1310 1216 1202 1182 1196 1197 1178 1138 1130 1086 1082 1056 1029 995 986 971 959 954 933 951 958 1005 1007 1047 1042 1074 1100 1132 1166 1217 1256 1349 1353 1454 1465 1472 1455 1467 1480 1499 1509 1563 1571 1608 1604 1608 1608 1583 1596 1611 1598 1611 1604 1573 1576 1523 1502 1447 1420 1406 1380 1347 1316 1271 1273 1248 1232 1176 1183 1148 1125 1074 1059 1001 978 954 958 937 964 984 969 959 952 952 967 974 1012 1074 1069 1117 1143 1190 1176 1212 1220 1255 1243 1253 1254 1247 1241 1227 1236 1253 1242 1246 1244 1250 1282 1339 1349 1374 1400 1470 1477 1534 1529 1580 1580 1620 1636 1679 1687 1713 1729 1780 1809 1881 1902 2001 2012 2053 2047 2085 2098
247 276 299 317 338 308 300 318 321 384 430 428 417 471 493 502 500 493 497 510 511 561 586 587 583 624 664 675 692 708 723 714 720 693 660 616 568 565 546 542 558 543 540 540 573 545 532 510 482 478 465 453 423 415 387 393 390 352 329 299 257 273 269 236 199 144 94 48 -15 14 21 20 14 18 10 -8 -18 -27 -27 -38 -42 -39 -29 -26 -7 -44 -61 -90 -153 -155 -187 -230 -312 -323 -373 -374 -368 -468 -547 -629 -707 -713 -729 -760 -765 -856 -929 -937 -946 -976 -1017 -1069 -1104 -1213 -1329 -1402 -1521 -1523 -1546 -1573 -1585 -1625 -1674 -1711 -1800 -1794 -1805 -1777 -1715 -1820 -1895 -1925 -2001 -1936 -1933 -1930 -1997 -1924 -1911 -1898 -1881 -1893 -1878 -1886 -1901 -1894 -1893 -1886 -1896 -1869 -1869 -1855 -1859 -1819 -1809 -1788 -1787 -1768 -1751 -1715 -1673 -1677 -1667 -1640 -1624 -1570 -1539 -1519 -1512 -1446 -1390 -1312 -1223 -1240 -1227 -1252 -1272 -1272 -1292 -1290 -1310 -1270 -1244 -1240 -1265 -1185 -1133 -1099 -1094 -1039 -1005 -986 -946 -956 -951 -971 -952 -954 -971 -972 -1017 -977 -979 -982 -1021 -1026 -1033 -1058 -1096 -1079 -1080 -1070 -1072 -1045 -1009 -972 -951 -901 -856 -837 -832 -757 -713 -686 -645 -574 -492 -458 -409 -393 -339 -343 -322 -313 -291 -272 -253 -229 -186 -167 -125 -115 -97 -69 -32 -86 -138 -145 -179 -107 -64 0 96 82 125 134 161 183 217 228 229 246 257 271 267 294 312 320 342 329 325 336 332 355 384 424 470 469 499 514 522 587 635 646 661 660 658 660 680 717 753 789 845 843 857 894 939 957 979 1042 1134 1117 1122 1118 1091 1177 1238 1282 1356 1413 1481 1495 1512 1547 1603 1658 1736 1698 1706 1689 1668 1701 1736 1745 1758 1757 1756 1766 1759 1783 1799 1781 1757 1774 1764 1763 1774 1756 1741 1704 1644 1704 1736 1765 1808 1798 1776 1772 1760 1753 1748 1728 1674 1712 1738 1739 1759 1756 1752 1745 1703 1739 1742 1756 1749 1713 1675 1662 1647 1607 1566 1510 1452 1481 1472 1449 1419 1355 1302 1247 1174 1189 1175 1210 1229 1183 1138 1108 1080 1067 1047 1012 979 978 959 949 916 932 932 962 968 1004 1017 1027 1024 1089 1155 1200 1270 1296 1356 1409 1497 1448 1436 1436 1447 1465 1494 1524 1538 1555 1555 1556 1550 1558 1555 1574 1578 1589 1597 1587 1574 1522 1470 1450 1430 1397 1358 1335 1302 1278 1269 1247 1213 1204 1190 1163 1117 1091 1040 1001 942 950 939 962 1004 990 980 950 902 957 986 1001 1039 1062 1095 1125 1172 1181 1193 1204 1208 1229 1225 1234 1249 1224 1218 1218 1215 1230 1243 1233 1235 1256 1280 1328 1377 1395 1441 1490 1542 1538 1549 1549 1530 1618 1678 1683 1652 1711 1742 1780 1801 1868 1926 1967 2001 2025 2048 2086 2100
310 325 333 362 323 297 314 326 352 398 400 425 456 492 472 480 493 496 519 519 547 585 588 600 617 631 646 669 683 703 730 745 738 731 695 622 623 579 569 560 560 568 555 569 552 546 567 546 536 501 490 488 473 444 436 407 383 360 351 314 317 295 290 282 242 163 130 54 70 17 16 36 20 25 6 -13 -23 -48 -58 -61 -53 -58 -35 -27 -41 -48 -45 -61 -69 -111 -149 -195 -198 -269 -294 -344 -360 -417 -447 -556 -576 -680 -705 -752 -765 -827 -831 -870 -880 -902 -941 -1010 -1028 -1149 -1175 -1300 -1317 -1439 -1499 -1548 -1538 -1566 -1565 -1597 -1608 -1678 -1670 -1659 -1685 -1705 -1680 -1740 -1750 -1780 -1818 -1810 -1821 -1835 -1879 -1880 -1882 -1894 -1887 -1881 -1870 -1871 -1867 -1858 -1842 -1815 -1829 -1833 -1808 -1780 -1775 -1760 -1766 -1754 -1747 -1714 -1706 -1663 -1643 -1618 -1591 -1519 -1513 -1481 -1466 -1402 -1364 -1281 -1276 -1185 -1184 -1207 -1195 -1218 -1222 -1219 -1228 -1226 -1228 -1200 -1172 -1130 -1113 -1055 -1041 -986 -971 -949 -944 -912 -931 -947 -924 -911 -901 -909 -898 -900 -927 -922 -948 -993 -991 -1010 -1015 -1048 -1056 -1037 -1049 -1049 -1020 -953 -942 -877 -853 -809 -792 -730 -734 -693 -661 -585 -538 -452 -441 -383 -343 -312 -290 -270 -270 -263 -244 -221 -196 -151 -136 -77 -69 -38 -67 -69 -87 -127 -104 -81 -73 -23 -21 37 77 135 141 171 210 256 236 227 248 280 276 309 303 319 315 327 340 353 335 328 355 422 418 453 488 522 549 618 616 647 639 661 649 646 675 696 727 801 798 847 870 897 897 937 962 1039 1036 1097 1113 1118 1149 1202 1198 1255 1285 1388 1414 1458 1478 1506 1542 1627 1612 1652 1686 1678 1685 1694 1700 1729 1734 1760 1782 1796 1800 1793 1798 1800 1801 1799 1782 1784 1780 1766 1774 1735 1757 1736 1749 1789 1809 1850 1837 1818 1812 1790 1799 1777 1767 1726 1725 1748 1775 1796 1801 1796 1805 1796 1791 1801 1761 1736 1731 1686 1664 1627 1587 1527 1539 1519 1491 1464 1434 1364 1365 1297 1290 1228 1218 1240 1222 1227 1200 1130 1130 1086 1061 1030 1031 1003 994 968 956 932 927 946 957 984 982 994 1022 1047 1071 1158 1148 1209 1258 1332 1333 1390 1413 1394 1413 1420 1446 1501 1498 1522 1522 1512 1529 1546 1557 1555 1567 1571 1589 1605 1573 1522 1506 1454 1440 1396 1379 1335 1322 1272 1276 1261 1265 1240 1230 1200 1188 1136 1089 1022 1013 966 959 968 967 993 994 962 990 990 985 1005 1016 1041 1069 1119 1129 1171 1183 1203 1212 1229 1225 1209 1201 1183 1201 1213 1205 1209 1207 1209 1239 1260 1274 1318 1329 1388 1439 1507 1489 1527 1535 1540 1590 1645 1661 1725 1721 1739 1752 1799 1810 1867 1879 1943 1951 1998 2049 2112 2115
358 362 398 366 335 317 298 334 386 410 456 457 478 498 502 497 505 525 564 562 587 622 657 654 654 673 704 694 696 730 783 762 756 734 708 655 634 600 569 559 568 556 528 552 555 564 605 582 566 519 491 485 496 470 471 424 381 361 341 338 331 319 326 287 257 176 104 91 115 47 29 16 0 6 -2 -25 -42 -64 -107 -84 -68 -51 -15 -40 -60 -55 -64 -45 -46 -89 -138 -143 -143 -205 -251 -281 -306 -373 -450 -494 -523 -617 -684 -716 -752 -810 -864 -837 -821 -854 -906 -921 -936 -1056 -1149 -1187 -1202 -1353 -1488 -1496 -1495 -1508 -1513 -1511 -1483 -1536 -1546 -1554 -1571 -1571 -1560 -1590 -1585 -1636 -1682 -1690 -1708 -1748 -1806 -1813 -1844 -1862 -1894 -1868 -1852 -1846 -1841 -1816 -1802 -1783 -1773 -1774 -1753 -1736 -1701 -1720 -1743 -1733 -1736 -1706 -1696 -1650 -1618 -1585 -1563 -1493 -1431 -1442 -1444 -1358 -1263 -1249 -1249 -1172 -1124 -1143 -1128 -1153 -1180 -1173 -1175 -1179 -1177 -1138 -1117 -1056 -1005 -994 -991 -926 -855 -888 -912 -898 -921 -903 -887 -859 -834 -830 -814 -836 -871 -888 -899 -925 -941 -965 -972 -1013 -1046 -1025 -1031 -1016 -1006 -953 -929 -852 -775 -782 -775 -722 -681 -661 -654 -560 -472 -447 -437 -353 -269 -260 -241 -223 -226 -213 -204 -173 -162 -136 -133 -71 -36 -39 -67 -76 -120 -100 -71 -51 -10 -22 -35 12 42 99 134 187 253 259 246 250 259 272 258 298 320 318 303 322 341 337 337 340 340 397 414 464 510 533 558 610 678 650 616 648 629 664 700 707 733 773 794 845 894 893 898 917 934 992 1030 1075 1105 1124 1154 1200 1247 1249 1261 1362 1454 1457 1467 1491 1524 1573 1567 1626 1679 1660 1662 1679 1711 1712 1713 1769 1816 1825 1856 1845 1841 1816 1806 1804 1789 1808 1809 1819 1822 1812 1816 1811 1829 1846 1863 1882 1875 1872 1864 1865 1869 1833 1820 1791 1754 1788 1821 1837 1853 1860 1876 1865 1866 1825 1767 1759 1753 1704 1670 1618 1547 1543 1545 1530 1529 1484 1437 1401 1381 1342 1334 1278 1230 1249 1248 1245 1216 1194 1169 1114 1048 1047 1047 1023 1029 994 968 941 915 952 969 980 984 1001 1032 1051 1057 1086 1070 1157 1223 1256 1254 1325 1374 1373 1402 1406 1417 1457 1476 1505 1519 1503 1505 1544 1577 1578 1590 1580 1602 1591 1570 1523 1477 1455 1441 1396 1355 1328 1326 1291 1271 1277 1291 1264 1268 1235 1226 1159 1083 1053 1024 987 961 968 971 994 1019 1004 1028 1026 1044 1035 1032 1059 1078 1118 1134 1172 1186 1217 1226 1247 1257 1220 1187 1175 1159 1181 1183 1196 1195 1214 1244 1259 1284 1313 1331 1399 1485 1490 1483 1519 1534 1571 1627 1682 1747 1750 1744 1785 1821 1832 1833 1875 1908 1932 1938 2004 2087 2119 2133
366 370 363 372 377 340 333 327 350 403 433 470 500 521 513 504 520 538 562 581 608 659 658 705 703 705 696 708 716 738 739 765 764 744 706 658 651 619 591 540 550 562 558 559 542 552 579 611 582 519 514 468 473 471 465 439 410 364 369 367 346 326 310 285 263 180 157 92 68 27 34 2 5 2 -25 -44 -45 -60 -76 -102 -101 -64 -57 -58 -40 -48 -36 -9 -28 -62 -73 -99 -126 -158 -162 -224 -252 -322 -349 -450 -498 -582 -598 -679 -728 -797 -770 -794 -799 -787 -798 -834 -888 -991 -1000 -1099 -1170 -1283 -1308 -1454 -1464 -1459 -1445 -1454 -1443 -1437 -1428 -1442 -1434 -1451 -1467 -1476 -1480 -1499 -1517 -1560 -1577 -1645 -1660 -1724 -1757 -1818 -1821 -1848 -1859 -1821 -1789 -1764 -1761 -1745 -1749 -1739 -1736 -1711 -1702 -1678 -1689 -1701 -1693 -1681 -1671 -1625 -1601 -1543 -1518 -1460 -1458 -1412 -1386 -1323 -1294 -1204 -1174 -1132 -1137 -1113 -1097 -1086 -1096 -1120 -1128 -1138 -1105 -1060 -1027 -973 -972 -927 -911 -873 -876 -838 -830 -849 -851 -860 -838 -805 -797 -765 -739 -760 -798 -863 -862 -870 -895 -937 -957 -989 -962 -988 -977 -979 -960 -926 -906 -830 -820 -769 -735 -703 -689 -618 -595 -529 -511 -427 -396 -325 -303 -220 -177 -157 -164 -160 -150 -106 -110 -101 -75 -38 -42 -18 -22 -49 -56 -85 -92 -42 -44 -20 -4 7 38 85 116 191 209 281 279 271 288 292 290 305 307 331 334 320 324 319 335 357 383 413 427 482 492 543 554 589 607 659 685 688 674 684 677 699 727 766 783 845 836 884 879 899 922 968 1008 1070 1076 1119 1138 1198 1191 1235 1270 1347 1349 1449 1456 1468 1504 1577 1585 1607 1607 1623 1638 1651 1680 1698 1733 1788 1784 1832 1868 1893 1858 1817 1830 1825 1837 1853 1868 1880 1876 1875 1870 1864 1889 1903 1925 1942 1934 1931 1932 1940 1908 1867 1874 1864 1855 1831 1847 1878 1882 1917 1930 1924 1898 1866 1835 1783 1762 1710 1680 1629 1610 1554 1542 1530 1522 1506 1482 1425 1409 1359 1342 1323 1319 1278 1292 1289 1279 1261 1223 1155 1132 1066 1039 1013 1024 1013 986 951 966 979 965 985 988 995 1022 1068 1056 1062 1075 1126 1141 1215 1237 1282 1282 1322 1351 1385 1405 1434 1449 1503 1488 1477 1503 1549 1552 1591 1569 1557 1575 1590 1585 1526 1514 1448 1440 1394 1368 1298 1300 1298 1294 1287 1264 1258 1256 1246 1242 1194 1158 1083 1044 998 997 972 972 994 1000 1010 1030 1044 1047 1060 1074 1087 1099 1144 1163 1199 1208 1256 1272 1279 1248 1227 1215 1172 1167 1172 1164 1197 1198 1211 1214 1250 1271 1321 1330 1394 1412 1486 1510 1533 1545 1586 1628 1709 1725 1787 1812 1836 1839 1876 1865 1893 1886 1941 1950 1995 2039 2147 2164
370 359 355 371 400 360 330 348 375 429 475 503 553 545 551 543 539 580 625 615 629 658 683 713 746 720 719 715 716 738 758 760 764 720 668 646 622 606 574 550 529 552 543 550 532 570 598 608 596 545 505 487 463 470 455 421 369 372 366 362 350 321 298 269 261 179 100 81 51 27 -6 -6 -12 -26 -58 -61 -74 -79 -100 -110 -134 -79 -40 -46 -39 -40 -30 -14 22 -40 -86 -94 -112 -115 -126 -167 -214 -257 -318 -403 -512 -532 -609 -652 -754 -729 -740 -733 -751 -736 -752 -782 -824 -907 -977 -1043 -1150 -1207 -1295 -1349 -1458 -1383 -1372 -1365 -1369 -1357 -1351 -1344 -1300 -1357 -1373 -1384 -1386 -1409 -1426 -1441 -1424 -1509 -1565 -1623 -1682 -1736 -1775 -1807 -1873 -1772 -1720 -1712 -1696 -1701 -1711 -1706 -1722 -1696 -1669 -1665 -1679 -1656 -1647 -1631 -1645 -1584 -1541 -1497 -1451 -1419 -1397 -1375 -1378 -1289 -1208 -1157 -1099 -1082 -1057 -1065 -1065 -1053 -1051 -1058 -1074 -1061 -1048 -986 -899 -905 -871 -864 -842 -826 -805 -802 -780 -793 -783 -785 -769 -760 -732 -690 -600 -700 -755 -796 -847 -843 -874 -907 -962 -930 -899 -911 -896 -900 -905 -882 -865 -805 -754 -743 -694 -686 -663 -607 -554 -501 -436 -393 -363 -290 -231 -168 -62 -108 -101 -105 -109 -65 -31 -32 -1 5 18 13 13 -6 -25 -62 -124 -64 -44 -26 6 44 96 107 148 192 231 277 314 318 345 321 307 317 336 347 365 352 354 342 325 385 426 441 475 501 532 547 575 596 625 668 717 704 711 703 698 715 746 767 791 817 823 852 841 894 926 988 1063 1074 1085 1111 1132 1164 1180 1213 1252 1308 1341 1400 1456 1469 1505 1563 1633 1613 1631 1617 1602 1656 1712 1723 1738 1782 1806 1857 1931 1883 1866 1847 1838 1856 1867 1894 1950 1936 1942 1922 1920 1947 1973 1993 2027 2007 2003 1988 1985 1981 1963 1939 1898 1917 1906 1902 1926 1908 1912 1944 2027 1955 1927 1879 1826 1817 1789 1727 1631 1630 1589 1575 1538 1531 1510 1508 1468 1444 1416 1369 1306 1344 1343 1352 1373 1340 1319 1297 1263 1202 1141 1095 1031 1032 1026 998 952 966 969 981 984 991 1003 1017 1041 1061 1065 1066 1056 1111 1156 1184 1229 1245 1272 1302 1323 1359 1400 1415 1443 1481 1496 1481 1468 1533 1566 1575 1553 1565 1566 1583 1623 1553 1515 1474 1441 1399 1342 1309 1249 1274 1266 1257 1243 1234 1230 1230 1260 1186 1130 1084 1015 1018 995 980 963 997 1025 1021 1048 1032 1057 1066 1107 1096 1133 1156 1234 1224 1244 1286 1370 1295 1263 1233 1204 1176 1140 1148 1129 1177 1203 1212 1203 1241 1269 1316 1323 1396 1440 1489 1539 1553 1579 1621 1686 1739 1778 1832 1880 1886 1900 1882 1872 1885 1880 1920 1958 2016 2077 2143 2212
341 342 351 359 358 371 365 362 393 465 468 515 516 558 576 581 593 619 618 626 639 664 679 720 696 711 701 717 725 742 746 756 737 705 690 636 648 612 593 560 587 574 564 568 580 600 605 630 594 560 555 513 510 492 454 421 422 390 382 366 347 312 287 234 227 177 146 82 62 37 17 -11 -18 -38 -46 -68 -70 -83 -87 -104 -94 -80 -79 -49 -49 -44 -41 -42 -36 -35 -33 -82 -61 -65 -73 -106 -120 -175 -224 -334 -332 -425 -477 -566 -553 -625 -655 -648 -658 -655 -683 -718 -749 -839 -849 -947 -974 -1101 -1111 -1190 -1182 -1245 -1280 -1267 -1272 -1272 -1279 -1286 -1291 -1306 -1289 -1303 -1302 -1328 -1321 -1355 -1364 -1403 -1445 -1523 -1563 -1670 -1684 -1734 -1685 -1675 -1692 -1669 -1668 -1653 -1643 -1653 -1663 -1683 -1674 -1635 -1629 -1598 -1590 -1553 -1550 -1527 -1499 -1455 -1435 -1368 -1345 -1315 -1300 -1249 -1230 -1119 -1111 -1043 -1027 -1027 -1015 -1012 -1007 -988 -992 -987 -991 -940 -949 -880 -854 -819 -804 -784 -789 -786 -771 -760 -754 -731 -739 -734 -704 -666 -693 -686 -656 -719 -727 -781 -808 -858 -842 -870 -866 -861 -845 -823 -832 -834 -826 -774 -790 -758 -734 -685 -654 -595 -567 -487 -435 -346 -334 -244 -229 -162 -178 -115 -80 -53 -41 -17 -14 2 17 42 44 39 50 36 20 -17 -14 -46 -66 -46 -10 67 70 101 133 201 231 283 289 344 355 342 346 322 335 359 362 372 373 371 395 434 423 451 473 518 526 541 559 595 613 671 661 700 714 719 723 718 736 768 774 809 827 861 862 912 924 997 994 1081 1094 1111 1111 1146 1158 1186 1221 1295 1296 1356 1372 1448 1483 1540 1540 1582 1610 1613 1628 1660 1682 1747 1749 1796 1803 1859 1827 1843 1874 1867 1884 1896 1903 1909 1920 1975 1969 1953 1989 2031 2034 2069 2044 2058 2061 2035 2046 2039 2039 2031 2019 2003 1974 1948 1941 1918 1922 1923 1922 1943 1944 1897 1905 1872 1836 1778 1765 1671 1641 1621 1598 1547 1555 1549 1520 1467 1440 1396 1413 1407 1398 1416 1385 1380 1381 1346 1323 1251 1220 1142 1129 1060 1027 1004 1012 993 991 992 986 995 1003 1029 1042 1070 1074 1082 1089 1108 1105 1139 1157 1199 1241 1293 1287 1329 1343 1384 1425 1482 1471 1483 1505 1549 1549 1592 1581 1587 1566 1556 1555 1551 1547 1494 1483 1422 1404 1350 1345 1285 1267 1232 1225 1205 1195 1185 1189 1163 1174 1109 1108 1066 1029 992 1010 1007 991 1004 990 981 1005 1040 1030 1059 1078 1113 1149 1219 1248 1276 1253 1270 1275 1238 1238 1189 1174 1152 1166 1182 1187 1233 1230 1245 1287 1352 1359 1430 1434 1491 1497 1563 1594 1635 1678 1785 1808 1883 1876 1930 1910 1883 1893 1897 1883 1901 1950 2037 2066 2139 2163
311 326 335 341 348 340 328 378 415 474 517 532 516 572 612 616 622 653 690 662 643 678 703 700 670 658 631 683 723 734 771 752 731 703 658 664 677 632 578 606 640 610 586 598 611 629 661 621 588 570 552 533 533 483 440 426 423 401 404 364 345 289 255 221 202 135 65 48 32 6 -9 -17 -18 -50 -67 -75 -74 -89 -87 -98 -95 -83 -54 -63 -66 -45 -42 -41 -38 -29 -38 -32 -13 -13 -9 -46 -75 -128 -176 -236 -252 -343 -407 -425 -415 -505 -593 -581 -589 -592 -608 -648 -690 -747 -787 -858 -874 -966 -1006 -1017 -1001 -1079 -1151 -1154 -1179 -1175 -1189 -1198 -1224 -1227 -1249 -1224 -1206 -1223 -1215 -1252 -1275 -1349 -1431 -1473 -1494 -1583 -1652 -1615 -1556 -1565 -1551 -1594 -1632 -1597 -1573 -1587 -1606 -1632 -1656 -1617 -1617 -1564 -1530 -1497 -1473 -1428 -1372 -1380 -1376 -1312 -1248 -1252 -1239 -1197 -1174 -1096 -1076 -990 -940 -945 -967 -961 -966 -943 -944 -948 -964 -937 -930 -871 -820 -776 -745 -736 -746 -733 -734 -734 -745 -718 -709 -682 -647 -662 -688 -665 -622 -653 -654 -710 -749 -769 -768 -778 -772 -789 -799 -778 -775 -782 -792 -772 -765 -749 -740 -683 -643 -574 -523 -454 -356 -330 -312 -232 -150 -171 -207 -137 -90 -38 7 28 65 47 56 79 98 103 109 80 50 30 29 -6 -48 -23 -20 58 108 125 135 214 292 298 298 363 421 387 375 359 353 375 383 389 386 408 421 459 485 493 498 527 570 571 569 600 612 649 651 696 723 731 746 748 763 764 773 810 849 856 853 905 948 969 974 1052 1122 1111 1105 1133 1169 1195 1223 1269 1284 1322 1346 1417 1488 1512 1534 1572 1612 1602 1609 1645 1719 1735 1741 1790 1819 1821 1800 1832 1857 1877 1908 1918 1972 1935 1929 1968 1999 2009 2032 2078 2119 2098 2078 2104 2125 2109 2108 2104 2103 2089 2082 2059 2049 2002 1993 1953 1924 1924 1910 1920 1909 1910 1926 1897 1869 1845 1824 1735 1642 1651 1635 1606 1587 1575 1554 1492 1431 1433 1434 1443 1466 1438 1403 1413 1425 1396 1378 1300 1224 1200 1173 1098 1013 1024 1027 1016 1027 1005 989 1005 1004 1042 1068 1093 1106 1100 1103 1116 1118 1136 1134 1188 1243 1261 1257 1298 1338 1386 1435 1469 1476 1484 1494 1553 1588 1591 1582 1576 1569 1554 1549 1538 1520 1508 1502 1439 1405 1391 1404 1346 1303 1245 1198 1181 1150 1171 1181 1170 1164 1133 1130 1079 1044 1041 1049 1032 993 990 951 966 951 975 965 1003 1034 1083 1134 1189 1266 1245 1224 1226 1224 1239 1263 1201 1151 1183 1191 1199 1206 1233 1242 1291 1349 1367 1387 1440 1493 1510 1495 1573 1639 1683 1716 1811 1881 1910 1916 1944 1947 1908 1894 1885 1865 1916 1984 2047 2132 2129 2138
306 317 321 324 313 316 365 407 432 499 515 581 586 605 605 650 665 684 676 690 700 702 699 708 668 623 647 663 664 700 723 750 734 718 710 687 679 662 668 649 640 642 640 629 632 646 626 605 614 583 573 534 525 469 466 422 409 389 374 341 316 245 243 195 171 98 75 14 -16 -36 -24 -33 -42 -77 -70 -92 -101 -115 -116 -109 -117 -105 -97 -85 -51 -30 -48 -42 -31 -5 -7 3 13 33 11 3 -25 -88 -110 -184 -215 -289 -284 -313 -333 -387 -422 -494 -501 -518 -540 -577 -598 -672 -715 -824 -843 -884 -852 -871 -873 -919 -941 -1019 -1038 -1062 -1073 -1095 -1105 -1130 -1133 -1139 -1148 -1144 -1152 -1163 -1204 -1289 -1327 -1444 -1465 -1516 -1495 -1520 -1518 -1478 -1506 -1525 -1515 -1533 -1540 -1519 -1544 -1585 -1563 -1563 -1553 -1511 -1493 -1432 -1404 -1343 -1357 -1320 -1297 -1259 -1253 -1206 -1186 -1126 -1097 -1017 -976 -903 -902 -848 -868 -902 -889 -876 -901 -900 -898 -917 -900 -856 -810 -723 -702 -670 -669 -669 -680 -700 -689 -688 -684 -639 -653 -647 -648 -664 -649 -617 -635 -658 -669 -701 -694 -703 -712 -727 -706 -718 -734 -728 -748 -757 -735 -733 -712 -664 -631 -537 -527 -452 -412 -306 -288 -224 -217 -168 -150 -137 -96 -18 17 59 64 65 86 123 128 166 150 128 111 61 63 40 42 19 29 80 95 156 177 230 241 320 353 390 382 410 407 386 412 406 415 416 436 456 467 498 504 539 520 525 552 605 604 625 640 665 691 711 718 736 751 766 760 753 777 810 820 861 880 907 930 957 981 1033 1041 1106 1102 1113 1153 1203 1219 1277 1274 1302 1314 1388 1414 1489 1510 1562 1548 1574 1563 1593 1646 1733 1770 1804 1797 1809 1810 1829 1845 1878 1876 1897 1913 1931 1965 1971 2001 2055 2081 2133 2113 2127 2158 2156 2149 2171 2180 2167 2154 2143 2115 2103 2074 2019 2017 1978 1971 1942 1937 1920 1909 1908 1909 1921 1916 1910 1886 1805 1783 1708 1672 1657 1637 1612 1574 1516 1511 1474 1455 1465 1468 1468 1468 1445 1435 1437 1405 1350 1325 1264 1226 1147 1125 1052 1030 1018 1029 1012 1031 1035 1046 1067 1095 1129 1118 1111 1125 1136 1142 1156 1162 1177 1194 1253 1246 1270 1315 1390 1434 1484 1476 1485 1522 1581 1573 1602 1595 1569 1569 1544 1551 1534 1528 1518 1482 1428 1440 1406 1418 1394 1341 1248 1224 1174 1179 1168 1164 1172 1166 1132 1127 1079 1094 1081 1087 1080 1050 1015 992 981 960 947 940 954 990 1052 1068 1140 1170 1214 1210 1189 1215 1233 1222 1204 1241 1241 1224 1219 1234 1252 1268 1330 1329 1381 1401 1451 1495 1563 1564 1597 1641 1742 1762 1863 1877 1960 1974 1983 1951 1910 1907 1887 1901 1916 1951 2035 2062 2110 2126
290 313 333 314 280 336 389 430 497 524 568 595 643 643 651 677 715 714 709 719 720 735 743 705 639 646 635 654 665 700 721 723 699 710 704 699 710 692 684 671 694 657 650 644 670 646 645 620 607 586 587 557 545 474 440 405 386 367 344 303 274 221 187 154 138 62 -13 -34 -108 -71 -59 -58 -49 -80 -96 -117 -133 -144 -166 -154 -168 -135 -103 -82 -37 -50 -55 -42 -36 -11 12 32 54 37 22 17 -6 -49 -96 -146 -214 -246 -285 -269 -228 -335 -394 -412 -402 -444 -476 -509 -536 -608 -675 -758 -880 -803 -779 -749 -699 -781 -826 -869 -921 -923 -959 -975 -1009 -1016 -1039 -1050 -1062 -1081 -1095 -1124 -1149 -1234 -1303 -1386 -1471 -1450 -1450 -1449 -1422 -1450 -1466 -1469 -1453 -1476 -1477 -1480 -1501 -1502 -1499 -1482 -1483 -1441 -1415 -1360 -1313 -1300 -1295 -1265 -1240 -1203 -1173 -1157 -1166 -1080 -1007 -930 -813 -814 -783 -782 -783 -798 -814 -826 -863 -847 -831 -850 -863 -805 -733 -673 -597 -607 -593 -601 -606 -633 -635 -643 -665 -630 -617 -617 -637 -631 -629 -624 -646 -646 -664 -650 -624 -650 -651 -641 -607 -656 -693 -697 -733 -687 -661 -672 -688 -621 -585 -527 -479 -424 -370 -309 -269 -207 -167 -135 -148 -80 -25 36 118 111 128 105 92 139 168 180 209 155 146 116 102 83 80 68 66 115 167 188 215 243 281 332 412 419 432 431 414 454 484 481 487 483 490 505 529 551 560 561 533 564 582 606 619 666 702 722 777 757 775 771 781 782 777 771 782 812 838 877 905 947 1003 997 986 1037 1051 1083 1067 1137 1193 1208 1227 1275 1297 1306 1282 1376 1436 1473 1501 1510 1522 1511 1474 1572 1651 1727 1824 1812 1834 1814 1786 1840 1873 1876 1874 1900 1916 1947 1989 2010 2050 2087 2140 2151 2161 2184 2230 2202 2194 2210 2258 2216 2199 2163 2111 2116 2092 2065 2023 2000 1973 1971 1963 1927 1899 1904 1900 1911 1910 1928 1960 1865 1796 1749 1682 1680 1647 1622 1581 1555 1501 1489 1452 1499 1508 1505 1495 1476 1457 1436 1410 1372 1308 1287 1272 1194 1130 1089 1040 1055 1061 1048 1053 1061 1096 1119 1180 1160 1165 1153 1150 1157 1173 1182 1200 1197 1213 1224 1221 1271 1345 1414 1525 1501 1501 1520 1549 1580 1615 1613 1623 1594 1584 1581 1557 1546 1511 1503 1462 1441 1426 1437 1469 1389 1321 1253 1171 1187 1177 1177 1167 1176 1179 1158 1135 1112 1087 1104 1144 1089 1057 1012 980 978 964 934 909 942 991 1019 1049 1119 1194 1194 1174 1192 1217 1232 1228 1239 1256 1270 1286 1268 1275 1279 1287 1346 1365 1405 1424 1510 1580 1601 1606 1666 1730 1773 1806 1895 1972 2014 2073 2024 1997 1949 1885 1908 1907 1947 1988 2049 2119 2127 2132
323 314 318 320 353 360 380 427 450 533 559 590 612 676 682 695 718 748 753 759 765 777 764 732 740 689 667 656 681 714 714 725 724 721 716 695 702 712 689 660 664 645 655 630 633 626 640 623 609 570 576 564 518 443 438 375 383 352 307 256 237 179 158 96 92 28 17 -31 -36 -84 -89 -93 -91 -99 -109 -150 -140 -162 -166 -173 -167 -167 -148 -105 -104 -81 -64 -35 -32 -15 20 62 37 40 49 51 30 -8 -23 -92 -114 -196 -218 -250 -286 -333 -319 -361 -358 -383 -398 -448 -474 -552 -580 -655 -622 -670 -683 -650 -675 -682 -677 -713 -716 -753 -787 -838 -838 -888 -924 -962 -984 -1025 -1053 -1091 -1116 -1195 -1228 -1326 -1300 -1366 -1394 -1405 -1426 -1435 -1432 -1435 -1432 -1443 -1425 -1426 -1418 -1425 -1416 -1384 -1380 -1358 -1343 -1280 -1291 -1250 -1236 -1206 -1189 -1141 -1126 -1086 -1063 -1024 -987 -883 -871 -758 -720 -714 -700 -693 -718 -752 -762 -794 -790 -790 -785 -770 -732 -642 -652 -569 -552 -539 -564 -594 -577 -585 -584 -600 -589 -570 -592 -596 -612 -604 -615 -619 -629 -614 -628 -623 -588 -582 -596 -606 -607 -636 -617 -599 -620 -609 -591 -548 -549 -509 -483 -397 -366 -291 -264 -171 -130 -59 -54 -13 2 70 68 142 138 135 150 174 159 178 157 140 162 156 141 113 110 108 126 150 158 216 208 246 265 316 351 443 451 468 494 532 525 549 528 539 533 547 566 618 613 613 614 618 595 621 650 720 721 746 749 768 789 794 794 806 786 775 802 819 850 905 925 976 1004 1043 1054 1079 1071 1110 1118 1176 1171 1212 1245 1300 1317 1344 1360 1398 1405 1469 1457 1458 1465 1477 1514 1570 1603 1702 1702 1788 1817 1829 1851 1875 1859 1880 1886 1914 1913 1955 1977 2030 2069 2104 2119 2172 2192 2221 2217 2231 2230 2218 2227 2240 2235 2200 2200 2158 2145 2127 2093 2027 2029 2006 1982 1927 1925 1909 1914 1914 1914 1932 1922 1900 1893 1812 1803 1734 1700 1648 1656 1622 1588 1532 1561 1574 1549 1550 1535 1507 1486 1443 1451 1422 1387 1307 1291 1229 1208 1136 1136 1101 1082 1066 1054 1061 1079 1133 1126 1169 1190 1189 1185 1171 1186 1199 1193 1200 1200 1210 1222 1250 1291 1398 1397 1497 1525 1546 1556 1576 1590 1615 1608 1600 1633 1642 1622 1583 1562 1524 1505 1449 1452 1448 1424 1375 1365 1274 1291 1228 1204 1198 1197 1186 1197 1186 1172 1147 1123 1104 1087 1078 1063 998 1011 990 956 918 915 914 926 987 1022 1096 1136 1194 1195 1189 1214 1252 1244 1270 1268 1298 1285 1294 1301 1303 1347 1405 1406 1452 1485 1586 1596 1656 1671 1731 1756 1816 1856 1941 1962 2051 2024 2045 2051 2006 2004 1956 1948 1980 1999 2056 2084 2148 2159
366 347 348 365 399 412 454 447 451 524 616 606 615 663 717 740 778 783 791 801 816 817 830 802 797 745 685 699 720 737 752 740 731 743 750 721 699 694 677 674 667 649 651 627 629 620 643 610 600 575 566 520 478 425 392 359 365 299 234 211 172 127 83 67 57 0 -67 -39 -19 -56 -72 -96 -113 -121 -138 -158 -154 -184 -197 -181 -164 -170 -155 -132 -127 -104 -105 -52 -24 11 70 49 34 43 52 57 57 33 12 -45 -73 -150 -212 -242 -276 -323 -356 -326 -294 -329 -360 -383 -422 -495 -578 -539 -488 -531 -534 -559 -589 -595 -614 -599 -574 -620 -638 -671 -668 -755 -838 -865 -911 -959 -1035 -1051 -1086 -1162 -1243 -1244 -1208 -1282 -1335 -1371 -1416 -1421 -1438 -1403 -1384 -1379 -1381 -1362 -1346 -1352 -1357 -1314 -1280 -1267 -1254 -1226 -1220 -1183 -1175 -1137 -1116 -1071 -1038 -1009 -970 -936 -876 -844 -839 -720 -598 -618 -613 -617 -644 -673 -688 -712 -716 -740 -750 -712 -655 -645 -664 -575 -505 -513 -532 -532 -526 -524 -516 -521 -522 -543 -585 -579 -614 -590 -610 -604 -637 -619 -613 -587 -524 -539 -547 -564 -580 -574 -541 -553 -541 -549 -548 -496 -452 -450 -443 -365 -298 -257 -227 -127 -23 -8 20 52 100 96 87 139 158 158 164 187 195 178 142 144 146 156 152 139 120 146 169 178 200 216 204 254 285 336 367 434 481 514 547 578 605 579 542 561 559 587 612 651 693 671 668 644 609 652 677 743 802 791 783 802 820 806 803 798 783 811 840 864 896 941 982 1026 1095 1083 1091 1103 1110 1132 1135 1196 1231 1257 1278 1337 1398 1397 1402 1444 1474 1483 1466 1462 1424 1459 1488 1569 1669 1685 1667 1762 1828 1840 1868 1881 1896 1895 1877 1912 1909 1974 2007 2068 2154 2147 2153 2196 2235 2247 2258 2256 2244 2257 2259 2257 2245 2242 2246 2208 2186 2155 2129 2077 2063 2041 2025 1957 1904 1925 1935 1922 1913 1937 1946 1924 1901 1873 1872 1795 1738 1712 1709 1659 1620 1605 1638 1615 1621 1599 1576 1542 1501 1480 1484 1442 1409 1346 1320 1256 1195 1180 1179 1140 1124 1064 1028 1050 1070 1101 1108 1165 1224 1209 1217 1204 1226 1205 1200 1194 1190 1204 1217 1255 1297 1353 1348 1454 1535 1564 1601 1605 1620 1612 1605 1633 1670 1678 1679 1620 1585 1550 1539 1485 1449 1449 1448 1387 1342 1322 1344 1271 1220 1228 1229 1232 1252 1216 1179 1154 1108 1103 1080 1061 1034 1007 1001 969 937 893 864 876 894 962 1015 1107 1207 1212 1203 1224 1244 1243 1239 1266 1279 1285 1293 1312 1323 1357 1407 1446 1481 1513 1540 1640 1720 1715 1718 1793 1872 1911 1937 1999 2050 2048 2029 2061 2083 2046 2060 2004 1972 2016 2056 2099 2144 2171 2197
375 360 381 394 401 438 443 459 466 498 525 603 623 646 684 770 797 818 814 839 831 848 833 850 841 811 788 735 747 763 753 754 779 772 753 742 733 690 698 692 658 634 622 599 591 584 581 575 577 567 534 472 463 387 374 304 288 247 243 182 139 75 85 34 29 -18 -20 -41 -59 -50 -72 -108 -113 -137 -151 -192 -197 -223 -198 -190 -208 -195 -178 -143 -141 -105 -96 -45 -40 16 17 30 49 47 51 69 76 72 31 -30 -56 -122 -156 -232 -274 -330 -296 -293 -291 -282 -279 -303 -341 -431 -415 -436 -458 -433 -447 -464 -476 -496 -508 -496 -512 -515 -514 -542 -541 -628 -654 -751 -785 -868 -903 -992 -1039 -1125 -1124 -1200 -1212 -1220 -1247 -1331 -1351 -1396 -1369 -1357 -1350 -1311 -1314 -1296 -1308 -1280 -1271 -1237 -1215 -1178 -1174 -1153 -1116 -1088 -1087 -1054 -1039 -991 -980 -942 -916 -875 -847 -779 -764 -685 -665 -549 -496 -519 -560 -610 -628 -650 -677 -705 -696 -676 -665 -621 -598 -565 -541 -479 -471 -479 -480 -472 -464 -448 -472 -498 -500 -524 -520 -534 -543 -550 -583 -614 -621 -588 -548 -505 -504 -526 -512 -539 -542 -531 -504 -500 -486 -438 -437 -398 -377 -325 -302 -215 -177 -87 -68 30 75 101 105 129 160 172 160 178 204 215 203 197 189 148 157 170 156 173 179 187 189 193 208 244 247 281 307 377 400 448 478 563 570 628 616 622 626 606 609 633 645 682 680 710 711 681 705 704 712 774 785 833 841 838 822 809 815 800 827 846 858 903 925 983 1002 1054 1071 1106 1127 1134 1140 1175 1185 1244 1251 1310 1332 1372 1393 1446 1464 1505 1497 1525 1526 1503 1484 1447 1445 1552 1589 1702 1729 1768 1767 1835 1848 1886 1904 1927 1923 1950 1967 2026 2028 2084 2108 2177 2198 2227 2235 2277 2284 2292 2297 2308 2309 2287 2288 2279 2266 2245 2231 2181 2153 2089 2095 2073 2035 1972 1989 1952 1936 1928 1950 1958 1953 1951 1943 1908 1884 1837 1827 1753 1744 1688 1683 1633 1632 1627 1649 1652 1627 1585 1547 1492 1474 1455 1421 1348 1326 1282 1270 1211 1192 1157 1123 1038 1041 1041 1067 1093 1123 1162 1177 1207 1198 1203 1206 1197 1211 1189 1200 1200 1227 1257 1293 1369 1381 1438 1473 1577 1595 1624 1615 1609 1637 1660 1673 1723 1696 1636 1617 1553 1531 1503 1489 1454 1437 1385 1383 1331 1308 1294 1293 1267 1256 1262 1258 1249 1238 1182 1163 1120 1101 1053 1046 996 988 951 926 856 838 833 894 952 1002 1112 1137 1245 1257 1262 1248 1238 1255 1279 1262 1273 1288 1339 1356 1396 1417 1493 1507 1581 1633 1716 1698 1766 1799 1854 1891 2021 2046 2071 2037 2064 2075 2087 2052 2038 2046 2031 2051 2057 2078 2140 2153 2198 2237
401 395 406 418 424 459 478 475 456 503 551 584 630 648 705 763 883 821 821 816 848 827 821 842 873 834 812 786 806 782 777 795 838 798 769 764 753 726 712 684 632 615 588 559 531 533 536 527 524 520 498 464 429 379 330 287 211 206 179 136 65 64 60 26 18 -27 -81 -74 -78 -83 -112 -122 -136 -155 -164 -201 -235 -234 -228 -224 -252 -218 -210 -177 -163 -127 -107 -60 -27 2 48 35 50 51 55 71 112 68 28 -17 -87 -126 -198 -229 -322 -280 -287 -250 -235 -239 -240 -254 -270 -323 -374 -373 -387 -392 -403 -401 -411 -424 -451 -440 -425 -437 -425 -426 -358 -495 -570 -634 -685 -759 -843 -914 -1006 -1039 -1085 -1120 -1187 -1185 -1232 -1259 -1342 -1320 -1309 -1293 -1297 -1265 -1265 -1260 -1275 -1233 -1224 -1167 -1090 -1112 -1088 -1058 -970 -1005 -987 -973 -938 -921 -873 -867 -809 -809 -766 -744 -717 -669 -588 -500 -320 -457 -500 -560 -611 -630 -665 -666 -689 -647 -613 -580 -554 -510 -459 -448 -423 -439 -438 -429 -410 -415 -427 -441 -459 -449 -438 -457 -475 -512 -561 -582 -646 -542 -489 -465 -462 -456 -438 -470 -518 -480 -446 -450 -467 -406 -365 -350 -335 -286 -226 -176 -110 -65 12 73 192 157 173 185 239 206 206 213 265 229 236 216 217 177 169 164 136 183 204 229 256 231 228 261 266 319 369 427 490 504 535 575 610 644 670 666 671 661 655 684 709 717 717 735 762 754 768 762 764 814 856 860 891 874 861 852 832 852 862 882 900 938 977 1019 1077 1101 1145 1156 1174 1163 1163 1197 1214 1273 1317 1354 1416 1432 1478 1486 1509 1534 1558 1575 1605 1561 1520 1472 1358 1524 1614 1692 1780 1777 1799 1828 1845 1889 1935 1936 1920 1967 2017 2056 2093 2118 2164 2200 2237 2266 2285 2315 2333 2320 2333 2351 2397 2351 2330 2312 2297 2274 2253 2210 2156 2125 2091 2069 2033 2014 2009 1982 1962 1973 1982 1981 1992 1982 1968 1934 1891 1871 1849 1816 1799 1741 1704 1684 1650 1674 1681 1673 1650 1604 1535 1512 1451 1441 1399 1351 1266 1285 1268 1245 1205 1182 1120 1061 961 1055 1108 1129 1167 1199 1231 1211 1159 1199 1210 1216 1235 1216 1212 1235 1264 1283 1332 1376 1420 1461 1529 1578 1646 1630 1629 1641 1662 1687 1706 1725 1758 1661 1602 1550 1486 1490 1461 1465 1461 1412 1370 1330 1268 1291 1267 1278 1275 1290 1295 1283 1271 1215 1171 1148 1123 1091 1058 1023 972 942 897 846 727 857 930 987 1052 1114 1177 1233 1314 1285 1289 1274 1261 1277 1258 1274 1262 1349 1399 1420 1458 1497 1548 1629 1755 1744 1772 1812 1856 1894 1973 2051 2222 2101 2078 2068 2100 2061 2057 2041 2034 2044 2058 2084 2143 2162 2218 2246 2316
