927 927 932 938 939 942 944 948 948 951 951 956 957 958 961 971 971 966 959 950 947 940 939 936 932 927 927 923 921 916 919 918 919 926 926 931 933 934 936 942 944 950 949 954 959 966 970 981 986 990 988 990 988 983 984 983 984 987 988 992 992 995 992 991 994 1000 1000 1000 1000 1000 1000 1000 1000 1000 1000 1000 1000 1000 1000 1000 1000 1000 1000 1000 1000 1000 1000 1000 1000 1000 1000 1000 1000 1000 1000 1000 1000 1000 1000 1000 1000 1000 1000 1000 1000 1000 1000 1000 1000 1000 1000 1000 1000 1000 1000 1000 1000 1000 1000 1000 1000 996 995 987 986 980 976 965 961 951 949 937 929 917 918 908 904 900 896 890 885 878 875 865 861 850 851 845 840 831 828 818 814 810 811 809 807 806 802 792 790 783 781 772 772 771 770 763 760 758 756 755 753 749 749 746 744 741 743 742 739 737 736 733 732 731 732 733 735 734 734 736 737 738 734 732 728 720 723 720 717 718 718 715 713 705 705 701 698 699 699 700 701 703 702 702 700 695 693 690 688 685 683 674 674 675 679 679 679 679 682 687 687 688 682 675 676 671 670 665 667 664 661 657 655 650 650 646 644 646 646 649 649 646 650 655 657 655 649 637 634 624 622 614 611 607 606 599 594 585 584 577 572 568 572 572 575 579 577 574 574 569 568 563 562 561 562 562 564 571 571 578 582 590 594 608 614 623 622 629 631 635 633 634 637 642 641 645 649 653 653 658 658 657 657 658 659 661 659 660 659 658 663 668 670 678 679 685 688 691 693 699 705 713 713 720 726 728 720 716 712 702 703 698 699 698 695 689 686 683 681 678 674 667 671 670 667 666 666 664 666 661 657 651 650 651 650 650 645 635 633 623 624 622 618 612 612 615 613 615 619 619 619 622 619 612 613 608 605 601 600 594 594 593 593 595 594 598 598 600 603 600 597 595 593 587 589 587 588 593 592 596 594 588 586 579 575 567 567 562 557 550 546 536 530 516 515 502 497 489 486 473 469 463 464 463 461 461 463 462 461 462 462 464 464 460 460 458 456 452 451 447 446 447 443 436 436 433 431 424 424 421 418 409 407 410 415 425 429 441 441 448 451 457 460 469 471 480 483 495 498 497 495 495 493 493 492 491 493 490 489 488 485 482 477 466 467 471 476 486 490 499 502 516 518 525 524 529 529 529 529 534 533
924 929 935 939 946 946 948 948 947 948 950 955 963 960 965 971 984 967 958 949 941 938 936 932 927 926 925 924 922 921 922 922 923 927 931 932 935 937 943 945 952 950 954 956 962 967 976 982 997 989 988 988 989 985 986 987 992 992 995 995 997 997 999 997 996 1000 1000 1000 1000 1000 1000 1000 1000 1000 1000 1000 1000 1000 1000 1000 1000 1000 1000 1000 1000 1000 1000 1000 1000 1000 1000 1000 1000 1000 1000 1000 1000 1000 1000 1000 1000 1000 1000 1000 1000 1000 1000 1000 1000 1000 1000 1000 1000 1000 1000 1000 1000 1000 1000 1000 998 992 988 982 977 970 964 958 948 945 940 933 925 918 912 905 900 897 892 885 876 872 865 860 851 849 844 840 833 825 818 812 800 805 808 805 803 800 796 791 784 780 773 771 767 767 763 758 749 751 751 749 748 745 744 743 742 740 739 738 737 734 732 728 725 726 728 727 730 728 726 729 737 730 726 721 715 713 712 710 705 707 707 706 704 700 695 692 680 688 689 693 694 694 695 693 689 688 685 682 679 676 672 667 658 665 671 673 677 674 675 677 685 678 672 669 666 666 665 663 666 659 655 651 648 646 645 641 641 639 637 640 645 643 647 652 666 653 647 635 626 622 616 611 604 602 599 593 584 582 576 572 562 567 571 572 576 576 576 573 573 567 561 560 559 558 560 561 563 567 571 576 582 587 595 607 624 621 624 629 638 636 638 638 642 642 643 646 652 654 655 657 661 659 661 663 667 663 662 660 658 663 668 672 676 679 685 687 694 696 702 706 719 717 721 728 748 729 722 715 708 704 702 700 703 696 690 686 683 680 679 672 666 665 665 664 664 662 663 662 667 658 651 648 644 645 645 642 637 630 623 620 622 615 609 605 601 604 606 607 613 610 611 612 615 608 607 602 597 594 592 589 587 588 590 590 591 592 597 597 607 596 592 589 589 582 581 579 580 581 583 585 586 581 578 572 565 560 555 549 542 538 532 525 517 509 501 494 483 480 471 464 451 455 453 453 451 451 451 450 445 451 453 451 450 450 451 448 447 443 439 439 438 435 432 427 423 422 422 417 412 412 409 402 388 402 409 417 424 432 438 440 444 451 458 462 469 474 483 490 505 494 491 489 489 490 491 491 493 487 484 483 482 478 474 468 456 469 479 486 497 499 507 514 528 524 526 525 527 526 530 530 531
930 933 934 940 941 949 949 950 947 945 948 951 953 957 961 965 960 961 959 948 947 937 936 931 932 927 928 928 926 926 927 927 927 929 929 933 934 939 940 944 943 947 950 954 957 965 967 976 975 982 985 986 987 985 987 987 991 997 997 998 998 999 1000 1000 1000 1000 1000 1000 1000 1000 1000 1000 1000 1000 1000 1000 1000 1000 1000 1000 1000 1000 1000 1000 1000 1000 1000 1000 1000 1000 1000 1000 1000 1000 1000 1000 1000 1000 1000 1000 1000 1000 1000 1000 1000 1000 1000 1000 1000 1000 1000 1000 1000 1000 1000 1000 1000 1000 1000 993 992 986 983 976 973 962 961 955 955 943 941 933 929 918 913 903 904 898 892 884 882 870 869 862 861 851 846 838 833 820 819 812 812 804 803 801 801 798 797 792 788 781 778 773 770 767 762 757 755 747 746 744 745 741 742 741 740 739 738 737 734 731 730 725 723 720 719 720 720 722 721 720 718 719 718 713 712 706 707 704 703 701 700 700 700 697 697 693 692 687 685 689 685 685 688 689 687 684 681 677 676 671 669 664 664 659 660 667 664 666 665 664 665 667 668 666 666 663 661 659 656 653 651 647 645 642 640 635 635 633 631 631 631 635 637 643 640 644 645 632 633 622 618 612 610 601 599 591 591 584 581 573 575 569 569 570 571 574 573 570 570 568 565 559 557 555 558 560 561 564 565 573 573 582 587 601 601 616 622 626 628 634 638 640 640 642 643 645 650 658 657 656 657 658 662 666 663 665 663 660 665 669 671 678 677 680 683 687 690 697 699 707 708 716 719 724 719 720 723 715 714 706 703 700 698 695 691 683 682 678 675 667 668 663 660 658 660 658 659 657 657 655 655 648 646 641 641 639 636 628 624 615 614 609 607 601 601 596 597 597 597 599 603 603 600 600 600 596 595 588 585 583 584 584 584 587 585 585 584 586 586 587 587 581 579 574 572 570 571 571 571 576 575 575 574 567 564 555 548 538 538 529 524 517 516 505 501 492 489 478 474 463 464 453 450 445 445 444 443 442 443 444 441 440 441 439 440 439 438 437 436 433 429 426 423 419 418 412 412 411 411 407 407 404 405 402 402 410 414 426 425 430 435 445 446 455 457 466 469 479 477 483 486 484 487 489 488 489 485 482 482 480 481 477 479 476 476 473 472 484 484 495 499 505 507 518 521 520 521 521 524 526 526
933 935 940 940 941 948 953 949 947 947 950 952 954 957 961 955 951 948 945 944 948 941 937 936 937 932 931 928 928 930 934 930 930 930 933 934 935 940 944 941 938 944 947 951 955 960 967 968 967 974 978 984 990 988 988 991 995 999 1000 1000 1000 1000 1000 1000 1000 1000 1000 1000 1000 1000 1000 1000 1000 1000 1000 1000 1000 1000 1000 1000 1000 1000 1000 1000 1000 1000 1000 1000 1000 1000 1000 1000 1000 1000 1000 1000 1000 1000 1000 1000 1000 1000 1000 1000 1000 1000 1000 1000 1000 1000 1000 1000 1000 1000 1000 1000 1000 1000 995 989 988 980 972 970 969 959 952 955 958 947 941 932 927 915 909 905 905 896 888 883 883 873 868 866 866 854 844 837 832 820 811 811 814 807 808 801 799 795 795 790 786 781 776 773 770 765 760 757 756 749 746 745 745 741 740 738 738 736 737 732 729 727 728 720 717 713 711 712 713 712 712 709 708 706 706 705 706 702 703 700 698 696 694 696 697 695 695 691 694 687 686 681 679 681 685 683 681 678 675 673 672 667 663 661 663 659 659 657 653 654 653 655 657 657 656 659 663 660 658 654 650 646 641 639 637 636 638 632 628 624 621 623 624 625 625 628 626 633 638 632 632 622 615 613 614 605 600 594 593 588 586 582 582 576 576 572 570 573 574 570 569 565 561 557 556 555 558 559 560 562 563 568 568 578 585 591 592 609 624 626 631 636 642 640 641 641 644 648 654 658 664 660 659 661 665 664 663 665 663 666 670 674 680 682 683 685 689 690 692 697 700 704 707 712 718 716 712 711 710 710 714 705 701 697 695 689 684 680 678 673 672 667 666 661 656 658 660 659 659 654 654 650 650 645 647 640 640 636 634 625 618 611 609 602 596 595 598 592 594 589 587 591 598 593 589 590 592 589 590 582 575 579 580 580 581 579 578 577 576 576 576 575 574 570 570 564 557 560 564 563 560 565 567 568 571 562 557 548 537 533 532 521 511 512 511 501 491 488 486 476 473 469 469 458 452 443 439 435 435 435 437 435 436 435 434 433 433 430 428 428 429 422 418 414 409 410 412 407 405 404 405 404 405 404 406 405 408 409 411 419 423 426 429 436 443 448 451 458 464 464 464 470 474 477 484 483 486 482 479 476 473 478 483 481 482 482 484 479 475 480 479 490 499 500 500 511 520 520 520 521 522 522 521
934 934 937 940 944 949 946 947 947 947 949 955 956 958 952 946 945 938 940 938 941 942 941 939 938 935 933 928 931 934 932 932 932 931 933 938 939 943 941 941 942 944 943 948 949 953 956 963 964 971 974 984 986 992 994 996 1000 1000 1000 1000 1000 1000 1000 1000 1000 1000 1000 1000 1000 1000 1000 1000 1000 1000 1000 1000 1000 1000 1000 1000 1000 1000 1000 1000 1000 1000 1000 1000 1000 1000 1000 1000 1000 1000 1000 1000 1000 1000 1000 1000 1000 1000 1000 1000 1000 1000 1000 1000 1000 1000 1000 1000 1000 1000 1000 1000 1000 997 994 983 982 976 973 963 961 955 959 957 955 949 942 928 922 909 911 906 902 895 890 879 879 873 873 869 865 856 851 836 830 819 818 810 808 804 804 797 797 790 790 787 786 781 778 773 771 764 764 758 758 750 750 746 741 738 737 734 733 733 730 728 727 720 719 713 713 706 705 705 704 704 702 697 697 693 695 696 693 694 696 696 697 694 694 694 693 692 689 685 686 682 679 673 673 675 675 678 676 673 673 671 667 662 659 654 656 656 653 649 649 647 647 648 648 650 651 654 655 657 654 650 649 642 638 631 629 629 629 627 625 617 619 619 617 619 617 618 619 625 624 629 627 620 619 612 610 605 603 594 595 592 590 587 584 578 578 574 576 575 570 569 568 565 560 552 553 554 557 561 561 563 565 570 572 580 579 588 592 605 609 626 630 637 634 637 638 638 643 652 653 659 658 661 661 664 663 665 669 670 670 672 673 678 682 687 690 690 690 692 696 702 701 704 707 708 708 711 708 705 704 702 702 701 700 695 692 685 682 675 672 666 667 664 666 662 661 659 659 660 655 649 648 642 641 636 636 635 635 632 630 623 616 602 600 595 593 587 584 581 582 579 580 581 580 582 582 580 581 581 579 576 578 578 576 575 575 572 573 571 570 568 566 564 561 556 557 555 555 551 554 558 558 560 559 562 559 554 554 544 538 526 521 514 516 510 508 500 495 484 477 469 473 471 468 460 452 438 433 425 428 429 429 426 428 430 429 428 425 422 421 418 415 410 410 403 405 403 402 401 400 398 398 402 402 403 406 407 409 410 414 418 418 424 423 428 434 445 448 453 449 450 453 459 460 467 469 475 476 476 476 473 475 476 477 483 484 487 486 486 484 482 484 490 490 498 500 507 509 520 521 523 520 520 520
936 938 942 942 949 948 947 944 942 945 949 951 961 953 950 942 936 935 934 935 940 937 936 935 941 935 934 932 934 934 935 932 931 932 933 937 943 943 945 942 940 943 945 947 948 951 955 956 955 967 977 982 992 994 999 1000 1000 1000 1000 1000 1000 1000 1000 1000 1000 1000 1000 1000 1000 1000 1000 1000 1000 1000 1000 1000 1000 1000 1000 1000 1000 1000 1000 1000 1000 1000 1000 1000 1000 1000 1000 1000 1000 1000 1000 1000 1000 1000 1000 1000 1000 1000 1000 1000 1000 1000 1000 1000 1000 1000 1000 1000 1000 1000 1000 1000 997 991 985 979 977 971 968 961 956 957 958 958 962 948 936 925 910 908 904 902 901 890 881 878 876 872 867 867 870 857 846 835 824 817 811 809 807 803 801 796 794 788 785 783 782 776 772 771 774 766 764 760 764 752 748 743 737 734 733 730 727 726 724 723 724 717 714 708 706 698 693 695 697 696 694 689 686 686 686 684 679 685 688 690 695 691 691 690 695 687 683 682 683 675 668 665 659 667 671 671 670 667 667 664 662 656 651 651 653 649 644 643 642 642 643 643 642 643 645 647 654 650 647 645 648 638 630 625 617 622 624 622 619 614 613 612 611 611 610 612 611 615 619 620 622 616 614 610 608 602 599 595 596 592 588 588 585 582 581 579 581 574 568 568 567 562 556 553 547 552 557 560 563 564 567 571 576 579 583 587 592 602 613 622 636 632 633 633 635 638 644 650 659 657 659 659 657 663 667 670 678 675 676 678 682 686 694 696 705 697 697 698 703 704 707 708 716 708 706 705 701 698 698 697 698 694 691 690 688 682 676 670 665 664 663 663 667 660 660 659 662 656 654 647 644 638 634 630 625 627 628 625 626 617 607 598 588 586 581 579 575 573 570 570 568 571 573 572 568 572 574 572 570 570 571 574 579 573 573 569 569 565 563 558 557 552 550 546 543 545 545 545 550 549 551 553 557 556 555 550 548 538 528 520 508 509 508 508 512 497 487 476 464 467 468 468 469 456 444 434 420 421 420 422 426 422 420 421 423 418 417 414 412 409 406 403 401 397 396 395 396 393 392 391 390 396 401 403 412 410 415 414 420 419 420 419 419 426 435 441 453 447 445 444 441 447 450 457 463 466 470 470 471 469 472 475 479 479 483 486 492 488 487 486 489 492 496 497 497 504 512 515 522 518 520 518 520
936 940 939 940 942 947 945 941 944 943 941 942 943 945 945 939 940 934 931 928 929 930 929 927 930 933 934 932 933 934 934 933 933 934 935 935 937 943 944 944 945 946 944 948 948 950 950 954 957 965 968 977 981 993 999 1000 1000 1000 1000 1000 1000 1000 1000 1000 1000 1000 1000 1000 1000 1000 1000 1000 1000 1000 1000 1000 1000 1000 1000 1000 1000 1000 1000 1000 1000 1000 1000 1000 1000 1000 1000 1000 1000 1000 1000 1000 1000 1000 1000 1000 1000 1000 1000 1000 1000 1000 1000 1000 1000 1000 1000 1000 1000 1000 1000 993 993 985 982 973 973 966 965 959 962 961 958 956 954 946 941 926 925 910 904 898 894 886 885 879 877 872 870 863 861 856 850 836 833 815 812 808 806 803 799 794 791 784 782 779 776 770 768 765 765 764 761 757 755 749 750 741 738 731 729 728 726 723 719 717 713 710 708 701 697 687 688 687 686 689 687 682 683 679 676 675 677 679 679 683 682 685 685 683 682 679 682 680 677 670 668 663 664 664 662 665 663 660 661 658 655 649 648 646 646 645 642 639 639 637 639 641 638 635 636 637 638 642 641 638 637 634 634 625 624 620 618 619 614 607 608 606 607 607 608 609 606 606 608 611 610 611 610 606 601 596 595 593 594 593 594 592 590 587 583 581 577 572 571 569 567 563 562 557 556 553 555 559 559 564 567 574 574 579 583 586 589 599 601 614 612 622 626 630 631 636 639 647 648 653 657 660 662 665 666 672 672 677 680 683 685 690 693 699 697 698 702 702 702 706 707 708 705 705 706 702 697 690 691 690 689 689 688 686 684 680 676 666 667 663 662 661 657 654 656 655 652 651 650 642 642 634 630 625 625 622 620 617 617 612 608 597 593 580 576 573 571 568 565 563 563 562 564 566 567 568 566 563 564 565 566 568 565 565 567 562 562 560 555 547 547 540 540 538 539 539 537 536 537 537 540 544 545 550 549 546 543 534 531 521 519 509 505 504 500 492 487 471 474 467 465 464 459 452 447 434 431 420 417 416 415 417 415 413 410 406 407 405 403 400 398 395 394 390 389 387 386 386 386 384 389 392 392 397 401 409 412 414 414 418 416 415 417 422 424 431 432 439 441 440 439 439 440 449 449 459 460 463 463 463 468 473 471 473 478 484 484 488 489 487 490 496 496 498 498 500 501 506 506 509 513 515 516
933 937 943 940 940 942 944 943 946 941 937 937 936 937 936 935 937 931 929 925 924 921 920 922 926 927 931 930 932 931 935 933 932 934 940 937 938 942 946 947 948 947 945 947 949 950 951 952 955 964 976 976 978 992 1000 1000 1000 1000 1000 1000 1000 1000 1000 1000 1000 1000 1000 1000 1000 1000 1000 1000 1000 1000 1000 1000 1000 1000 1000 1000 1000 1000 1000 1000 1000 1000 1000 1000 1000 1000 1000 1000 1000 1000 1000 1000 1000 1000 1000 1000 1000 1000 1000 1000 1000 1000 1000 1000 1000 1000 1000 1000 1000 998 995 989 986 979 973 970 971 964 961 960 963 962 962 958 956 945 933 928 928 911 899 893 888 880 874 874 877 870 869 862 860 850 841 835 835 817 804 803 803 798 795 789 786 779 772 771 771 764 757 759 759 755 751 751 750 746 746 737 733 726 721 722 723 717 710 708 704 701 698 693 689 679 672 675 678 679 682 678 679 672 666 669 671 674 678 675 674 676 680 677 678 675 674 674 675 666 657 659 663 661 663 660 659 657 656 652 648 643 638 640 643 639 634 635 639 635 636 636 636 632 631 632 631 632 630 629 629 628 629 623 624 618 616 613 609 605 601 601 602 603 607 604 601 602 605 602 599 601 603 596 591 587 586 590 594 594 597 593 593 587 582 577 575 570 564 568 571 565 561 559 559 558 561 558 558 563 569 573 578 582 593 590 591 596 600 604 602 614 619 624 627 633 640 644 648 653 659 663 667 668 670 674 674 681 683 689 694 697 702 701 698 701 704 705 705 707 712 706 700 701 701 695 692 685 683 682 681 680 679 678 679 672 670 665 666 660 661 657 653 650 648 647 645 645 646 639 638 629 620 620 622 618 616 612 611 605 597 591 589 576 565 563 564 560 557 557 559 559 561 561 564 563 566 558 557 560 563 561 559 561 563 558 556 549 544 541 539 533 528 530 532 531 531 529 530 530 532 534 536 540 545 540 538 530 522 519 519 508 501 499 496 486 473 470 473 466 466 460 455 446 435 431 429 419 414 408 407 406 407 405 404 399 395 393 390 389 385 386 388 383 378 378 378 379 379 383 389 390 390 393 399 404 413 411 411 411 413 410 411 415 426 425 424 429 434 433 434 434 434 440 441 451 455 456 456 460 467 466 466 471 479 480 484 487 492 490 493 496 501 499 501 502 504 503 500 505 508 511 514
932 934 934 938 939 939 940 944 944 939 939 935 933 931 930 930 926 924 923 920 916 910 913 916 915 919 921 925 926 926 930 934 933 932 934 937 938 943 944 951 951 952 949 947 949 951 950 951 953 962 965 975 983 993 996 1000 1000 1000 1000 1000 1000 1000 1000 1000 1000 1000 1000 1000 1000 1000 1000 1000 1000 1000 1000 1000 1000 1000 1000 1000 1000 1000 1000 1000 1000 1000 1000 1000 1000 1000 1000 1000 1000 1000 1000 1000 1000 1000 1000 1000 1000 1000 1000 1000 1000 1000 1000 1000 1000 1000 1000 998 995 992 991 985 982 974 972 964 961 961 961 958 961 963 962 961 958 945 941 926 921 909 904 887 880 873 873 869 866 864 863 859 856 843 841 831 825 814 812 799 796 793 791 784 781 775 772 764 764 760 759 755 751 749 749 746 745 742 738 730 727 721 720 719 717 713 709 702 699 694 690 684 679 671 671 663 664 668 669 671 671 667 668 667 667 668 668 667 668 667 668 668 670 672 671 670 668 663 661 653 654 657 656 653 656 655 651 647 645 638 637 635 634 635 633 630 629 630 631 633 631 627 630 632 630 626 625 621 622 622 620 615 615 613 612 608 607 603 602 598 597 596 598 599 598 596 594 595 595 593 589 585 583 577 582 587 588 592 590 591 592 588 583 573 574 571 570 568 566 565 564 562 560 560 557 557 559 563 565 571 575 581 584 593 594 594 597 603 606 613 612 621 621 629 633 641 646 655 658 667 669 672 676 681 685 691 691 698 698 705 703 706 708 707 706 710 708 706 706 707 704 699 693 688 684 676 679 676 673 671 671 671 668 662 662 658 655 653 654 654 653 647 643 640 640 639 635 633 632 624 622 613 613 614 611 606 607 600 594 582 579 571 566 553 552 552 551 550 552 555 554 554 557 557 553 549 553 555 554 556 557 557 552 551 546 537 539 535 533 527 526 524 523 525 523 520 522 523 523 527 527 529 530 531 532 526 524 515 511 505 504 498 494 486 480 466 464 461 460 456 455 443 438 428 422 414 410 398 397 396 397 397 396 392 390 384 383 382 381 379 377 377 375 369 371 374 377 382 383 389 388 389 393 398 401 408 406 404 402 402 401 404 410 421 422 421 423 426 426 429 433 439 443 450 447 451 450 454 456 461 463 467 468 476 479 484 484 488 490 494 495 499 504 505 502 502 503 504 504 509 510
930 931 932 935 938 936 937 942 949 941 939 933 930 927 925 923 917 916 914 911 906 905 904 906 907 911 914 919 924 924 928 929 933 932 935 935 935 939 945 949 958 953 952 950 955 951 951 949 948 959 969 976 989 993 1000 1000 1000 1000 1000 1000 1000 1000 1000 1000 1000 1000 1000 1000 1000 1000 1000 1000 1000 1000 1000 1000 1000 1000 1000 1000 1000 1000 1000 1000 1000 1000 1000 1000 1000 1000 1000 1000 1000 1000 1000 1000 1000 1000 1000 1000 1000 1000 1000 1000 997 998 1000 998 998 998 996 993 987 986 985 981 974 971 966 959 947 956 957 960 965 963 962 961 965 948 938 927 918 906 894 881 862 864 862 860 858 856 855 853 854 840 832 824 817 809 800 797 791 789 784 778 771 767 765 761 761 755 751 748 746 743 742 740 742 735 730 722 714 711 709 712 718 708 701 697 693 687 681 674 663 662 661 657 655 657 659 661 664 661 662 662 669 664 666 663 662 662 664 663 663 665 666 667 667 660 655 652 652 652 651 650 653 648 646 641 640 634 629 630 631 628 624 625 625 622 623 625 629 625 626 627 634 626 622 618 617 616 614 609 606 607 606 605 604 601 598 596 593 594 597 594 593 589 587 586 589 583 581 576 568 574 576 581 587 584 585 585 592 584 580 574 570 570 567 569 570 565 561 560 560 557 555 556 556 563 571 574 581 581 585 590 596 596 602 604 610 612 615 617 615 627 637 643 651 657 663 671 681 680 684 691 699 699 702 704 707 710 710 713 717 712 712 711 713 708 709 703 699 694 688 681 671 673 672 669 662 664 664 663 662 655 650 647 640 643 645 646 652 640 635 634 634 630 626 625 625 619 616 610 608 606 605 602 606 594 586 576 569 562 554 548 541 543 541 543 546 547 549 549 556 548 544 542 543 546 549 549 554 547 544 539 533 530 530 528 529 521 515 515 515 516 516 514 516 515 515 518 520 523 527 526 529 522 517 512 505 501 496 493 494 483 474 465 456 455 451 451 455 439 429 421 411 408 402 394 382 388 390 388 389 383 380 376 371 374 375 373 369 369 368 366 366 371 376 380 385 384 385 387 395 396 400 399 400 395 392 392 387 398 407 414 420 419 421 419 417 425 433 439 449 447 447 444 440 447 453 456 460 462 464 470 480 477 480 482 488 489 494 499 513 504 502 502 504 504 506 506 508
928 929 930 933 930 932 934 938 935 937 936 928 929 924 923 922 919 911 910 907 906 902 900 898 902 907 909 914 914 918 919 923 925 930 932 933 934 936 937 943 943 950 951 948 949 949 948 947 951 959 961 974 975 988 995 1000 1000 1000 1000 1000 1000 1000 1000 1000 1000 1000 1000 1000 1000 1000 1000 1000 1000 1000 1000 1000 1000 1000 1000 1000 1000 1000 1000 1000 1000 1000 1000 1000 1000 1000 1000 1000 1000 1000 1000 1000 1000 1000 1000 1000 1000 1000 1000 998 996 991 992 991 993 994 994 991 989 983 984 980 978 970 967 961 964 962 959 962 960 962 960 958 954 945 944 929 924 905 900 882 881 862 856 853 851 849 848 847 841 833 829 816 816 805 805 798 796 788 783 774 770 759 758 755 753 748 746 741 740 735 733 732 731 729 726 715 714 703 704 705 703 703 702 692 691 683 679 670 668 656 653 650 650 648 647 650 650 652 652 652 654 656 659 659 658 657 657 660 659 661 662 665 661 656 658 651 652 650 646 644 642 640 638 632 633 629 629 625 624 624 623 621 617 613 614 616 616 619 619 619 621 623 622 615 615 611 607 602 605 605 603 602 602 601 598 596 594 590 590 590 588 583 581 575 575 572 574 570 575 576 574 576 572 573 575 574 575 577 578 574 575 572 572 571 568 566 565 559 559 555 557 557 559 562 565 575 574 580 583 588 589 594 598 602 605 613 614 617 620 629 632 644 647 659 664 673 673 686 692 700 700 707 709 712 713 719 719 721 716 715 713 709 708 705 705 700 697 690 685 677 678 673 669 666 663 659 658 658 655 648 648 640 639 636 633 636 632 628 631 628 626 623 621 616 617 614 612 606 604 597 598 594 593 587 583 569 569 557 554 546 546 540 538 536 535 538 536 537 538 538 538 535 536 537 537 539 537 535 534 528 527 520 521 520 518 514 513 507 507 508 505 506 507 509 510 513 512 517 518 520 519 519 518 512 508 498 494 487 486 478 477 465 462 452 448 445 440 431 430 417 415 406 401 394 393 386 380 379 376 372 374 369 372 371 370 371 368 365 364 364 366 370 372 378 375 377 378 379 383 391 392 391 391 387 389 388 392 396 401 411 410 415 416 415 420 423 427 438 438 444 444 440 442 441 444 453 452 457 457 462 461 466 470 472 476 482 484 490 490 498 503 502 502 504 502 503 504
927 927 930 928 926 927 930 931 931 930 932 926 925 921 919 919 920 912 907 904 903 898 896 898 899 903 909 910 910 911 912 918 921 926 933 930 932 933 935 937 935 942 950 948 949 946 942 945 950 957 963 968 969 983 994 999 1000 1000 1000 1000 1000 1000 1000 1000 1000 1000 1000 1000 1000 1000 1000 1000 1000 1000 1000 1000 1000 1000 1000 1000 1000 1000 1000 1000 1000 1000 1000 1000 1000 1000 1000 1000 1000 1000 1000 1000 1000 999 995 994 995 995 998 994 992 990 990 989 990 991 994 990 989 986 986 980 977 970 964 965 969 966 967 963 960 959 956 954 952 943 937 929 926 909 897 889 887 867 849 846 843 841 841 836 831 823 816 811 813 803 802 798 799 787 779 770 764 754 749 746 745 739 735 733 733 726 721 722 724 720 720 711 709 700 695 696 698 697 698 690 688 678 671 668 667 655 646 643 641 639 638 640 642 641 642 645 648 651 655 654 653 652 652 653 653 657 662 659 658 655 658 653 653 645 638 636 636 632 628 627 626 623 622 619 618 617 618 613 611 607 605 608 609 611 612 613 617 618 619 615 614 606 599 599 601 600 600 600 601 597 594 591 593 588 589 584 582 577 573 569 566 565 567 570 576 575 576 571 565 567 567 567 567 569 570 573 577 575 577 572 570 567 566 560 562 558 557 559 563 565 570 571 572 578 584 586 589 595 603 602 605 610 617 618 622 631 642 646 649 661 675 674 673 687 701 705 709 715 719 719 722 726 729 725 720 717 714 712 709 706 704 696 690 682 675 675 675 670 666 662 658 656 655 653 651 645 642 635 631 625 620 622 621 620 618 619 620 615 612 611 613 607 604 599 597 593 593 588 586 579 572 564 564 552 544 542 545 538 535 529 525 524 526 527 529 528 526 528 530 528 529 527 525 522 520 517 517 513 514 511 510 505 502 498 499 496 494 497 500 501 505 504 506 509 515 511 510 510 512 508 507 495 486 485 485 477 473 464 460 449 441 439 435 426 418 412 411 399 393 392 392 382 374 371 366 366 367 367 371 368 368 366 364 362 359 361 363 367 375 372 370 371 371 374 379 385 392 388 387 384 383 387 392 399 410 408 407 411 415 417 422 425 433 436 437 442 444 440 441 442 445 446 446 450 451 453 454 458 463 467 472 474 476 478 479 489 499 501 503 501 497 501 503
922 922 922 924 923 922 922 925 923 920 921 921 920 916 916 917 916 912 909 901 898 893 897 899 898 900 903 909 907 907 912 918 917 923 922 925 928 929 932 936 935 935 938 947 947 945 945 944 949 957 959 969 974 983 984 995 997 1000 1000 1000 1000 1000 1000 1000 1000 1000 1000 1000 1000 1000 1000 1000 1000 1000 1000 1000 1000 1000 1000 1000 1000 1000 1000 1000 1000 1000 1000 1000 1000 1000 1000 1000 1000 1000 1000 1000 1000 996 992 984 984 987 988 990 991 990 988 986 988 986 986 986 986 986 984 979 980 971 971 967 965 966 966 966 964 960 956 951 947 940 937 927 923 911 907 892 886 870 863 842 836 831 829 827 823 815 810 801 797 792 796 794 792 782 776 763 756 746 745 738 736 731 729 723 720 718 717 713 711 708 708 702 702 694 692 687 690 691 686 682 680 672 672 665 662 652 647 635 633 632 631 632 631 631 635 640 642 646 646 651 650 647 649 650 651 653 652 653 652 650 650 651 648 642 637 626 626 624 624 622 620 617 615 613 612 610 608 605 604 602 602 602 602 606 605 607 611 616 613 612 610 603 602 597 595 597 597 599 597 594 591 584 583 580 580 577 575 570 568 562 558 555 560 567 568 572 572 570 568 564 562 560 562 564 565 571 571 574 574 572 571 568 564 556 556 558 560 561 562 567 567 569 573 578 579 586 586 594 594 599 603 607 611 618 621 632 637 652 655 664 665 676 679 688 694 713 717 725 723 726 730 734 733 733 731 722 720 717 713 708 701 692 685 675 676 673 672 669 666 659 657 653 650 648 647 640 636 629 624 615 617 612 614 615 613 612 609 607 607 604 605 599 597 589 589 586 585 582 580 573 566 553 550 543 544 536 537 534 528 520 516 510 513 517 518 519 519 521 519 519 518 518 517 511 510 505 506 504 504 502 501 496 493 486 486 486 488 490 490 490 491 493 497 501 500 500 502 500 502 501 501 491 491 485 480 474 470 460 456 446 443 435 430 420 414 402 397 388 392 389 388 379 377 366 364 361 362 364 361 362 362 362 360 360 360 360 360 362 363 368 370 368 367 368 372 380 379 383 383 379 382 385 388 398 399 406 410 410 412 418 419 423 428 437 440 444 439 438 441 441 440 442 443 446 444 445 445 451 455 464 466 468 468 468 473 483 487 501 501 500 500 502 503
917 915 915 915 917 916 915 917 917 916 915 915 914 911 908 911 916 910 905 899 892 893 893 898 900 902 905 905 905 908 913 915 918 919 922 924 928 929 933 933 934 933 936 941 946 944 945 947 954 958 962 971 983 984 989 990 990 1000 1000 1000 1000 1000 1000 1000 1000 1000 1000 1000 1000 1000 1000 1000 1000 1000 1000 1000 1000 1000 1000 1000 1000 1000 1000 1000 1000 1000 1000 1000 1000 1000 1000 1000 1000 1000 998 996 994 989 985 980 973 981 983 985 987 987 986 987 991 987 984 983 980 982 982 980 985 976 971 967 965 965 965 964 965 959 954 949 943 939 931 925 917 909 899 892 886 869 853 840 823 824 818 816 811 803 794 790 782 784 786 787 790 775 763 753 739 738 734 730 727 722 719 713 707 707 705 702 703 698 698 694 694 685 681 681 688 678 674 671 668 664 663 659 660 647 636 629 619 623 622 624 626 626 628 634 643 639 640 643 648 645 647 646 649 647 649 646 643 643 644 644 644 634 627 621 618 615 615 615 614 611 607 605 605 602 600 596 591 593 593 594 595 598 601 604 611 609 609 606 606 598 594 590 588 591 593 593 596 590 586 580 577 574 573 569 567 562 559 554 545 551 554 560 566 567 570 567 564 561 561 558 559 560 560 565 571 571 573 571 569 566 562 556 547 555 559 561 565 566 570 572 578 579 581 583 583 591 595 599 606 609 615 617 619 633 645 653 664 665 671 675 677 690 704 714 730 730 734 737 743 742 743 741 743 730 724 718 715 706 696 686 670 671 668 670 674 667 663 656 652 647 642 643 646 634 624 620 613 612 611 608 609 606 604 602 599 599 599 598 605 595 588 584 579 579 576 574 573 564 554 546 534 536 533 532 534 524 514 509 501 502 503 507 513 510 509 509 512 509 508 507 510 503 502 497 495 494 493 492 493 486 482 477 473 477 480 482 486 482 483 486 491 493 494 494 494 495 498 497 501 490 484 480 477 469 464 455 446 439 431 428 427 415 402 393 380 380 380 384 392 379 372 364 355 356 358 356 354 355 356 354 352 354 358 359 362 360 360 362 369 365 365 366 369 372 374 377 379 377 379 382 388 394 403 407 417 413 414 418 421 424 430 436 448 442 439 439 441 439 438 439 441 440 439 438 436 444 453 459 471 464 466 465 466 477 488 495 506 497 496 499 505
908 907 906 905 909 913 913 913 913 915 913 913 910 906 906 906 905 907 904 899 900 896 896 900 900 905 903 902 905 908 908 912 912 915 916 922 922 927 928 932 930 928 931 935 936 941 943 947 950 959 961 971 971 983 986 988 994 1000 1000 1000 1000 1000 1000 1000 1000 1000 1000 1000 1000 1000 1000 1000 1000 1000 1000 1000 1000 1000 1000 1000 1000 1000 1000 1000 1000 1000 1000 1000 1000 1000 1000 1000 1000 998 994 991 989 984 982 978 982 981 980 981 983 988 988 987 985 987 986 982 982 980 978 976 977 977 974 965 967 964 962 962 961 958 956 950 949 943 938 928 923 910 904 891 884 869 864 844 842 826 817 809 804 794 792 785 785 778 777 778 774 767 763 748 747 733 727 723 719 713 711 705 704 699 694 688 688 683 684 682 680 673 674 671 667 662 663 660 661 655 655 650 649 640 640 628 628 621 616 616 615 620 622 627 626 630 634 636 635 638 638 638 638 640 640 639 639 638 638 637 632 623 623 615 613 606 608 610 608 606 604 598 598 596 594 591 591 586 587 587 587 592 593 598 596 600 601 600 597 590 591 584 587 588 586 585 586 587 584 574 573 567 563 559 558 554 554 550 553 552 550 554 557 562 565 566 564 558 558 555 558 559 558 560 560 567 570 572 570 566 565 560 559 556 556 562 560 565 567 572 574 580 580 583 587 594 594 597 600 608 610 617 623 636 639 654 653 664 669 678 681 691 697 712 717 734 742 748 747 750 749 745 739 732 729 718 717 707 701 687 685 672 669 668 664 663 660 653 650 642 640 636 633 629 625 615 615 610 606 601 600 596 598 595 594 591 589 587 587 588 587 581 580 577 574 568 566 559 556 544 543 534 529 526 522 516 513 504 503 494 494 497 496 499 499 497 496 498 496 495 493 490 491 487 490 486 486 482 479 473 474 470 472 472 472 475 472 471 475 478 480 486 486 490 490 488 489 489 489 487 484 477 473 463 461 451 447 435 431 420 418 411 405 390 388 375 375 377 375 376 374 364 363 353 352 351 350 349 348 346 348 348 352 357 354 356 354 354 356 359 360 362 362 366 369 373 371 374 373 376 379 390 394 403 403 411 416 421 421 424 427 432 432 437 439 438 438 436 437 436 435 437 435 434 436 439 440 451 448 453 459 461 464 473 475 488 485 489 495 494 498
900 898 896 900 904 905 909 909 911 909 909 908 906 902 898 900 902 901 897 899 903 898 897 900 902 904 906 904 905 907 910 908 909 910 912 916 919 923 928 927 928 927 927 930 933 937 940 945 951 956 962 967 970 979 990 990 995 1000 1000 1000 1000 1000 1000 1000 1000 1000 1000 1000 1000 1000 1000 1000 1000 1000 1000 1000 1000 1000 1000 1000 1000 1000 1000 1000 1000 1000 1000 1000 1000 1000 1000 1000 1000 997 990 987 985 979 972 979 984 984 987 982 982 986 990 987 983 984 984 982 983 980 977 976 975 973 970 967 969 963 958 960 960 957 954 953 952 944 939 930 925 909 899 888 880 867 857 848 846 826 812 803 795 787 779 782 785 777 771 771 768 760 747 745 745 729 716 712 707 702 702 696 694 689 682 679 677 673 668 669 670 664 661 657 655 650 645 651 656 651 648 645 644 637 633 628 627 616 608 606 603 609 616 619 621 623 629 628 627 629 631 630 628 631 634 632 632 631 634 629 626 617 610 607 605 600 600 602 604 601 601 595 594 589 586 587 589 585 584 581 579 584 587 586 585 589 595 591 590 585 585 582 582 582 583 581 581 580 580 571 567 559 551 548 547 545 546 549 553 551 551 554 558 562 568 564 563 559 557 555 557 556 554 555 555 562 570 570 569 567 566 561 560 559 560 560 557 564 568 572 574 578 579 584 590 594 602 600 600 606 611 617 624 637 649 651 652 663 671 680 686 697 710 713 718 737 756 756 759 757 758 746 737 730 726 720 722 708 697 689 686 673 666 662 657 655 653 647 644 637 630 629 628 620 610 610 614 605 603 595 593 591 593 588 586 582 582 580 577 577 576 573 575 571 573 566 563 556 549 542 540 530 523 519 516 508 501 499 502 490 484 487 488 487 487 486 483 483 481 481 482 480 478 481 487 483 484 476 470 466 461 464 467 468 470 468 465 464 465 470 473 477 479 485 488 487 485 485 484 479 472 470 470 459 455 445 440 431 425 415 412 402 395 388 385 374 369 369 367 367 367 362 363 353 351 346 344 343 343 343 345 345 352 350 348 348 347 349 352 352 352 354 355 361 369 367 364 367 366 370 373 384 397 398 398 409 418 420 425 428 433 430 429 431 435 435 440 436 437 433 430 432 431 431 433 434 437 439 438 445 451 452 456 465 476 477 476 483 491 493 497
893 891 894 896 895 897 900 906 905 903 905 905 904 900 899 896 895 898 898 899 899 898 901 902 902 904 903 904 905 905 903 903 906 907 908 912 914 919 920 923 927 928 927 927 930 935 937 944 946 952 957 966 970 976 979 990 993 1000 1000 1000 1000 1000 1000 1000 1000 1000 1000 1000 1000 1000 1000 1000 1000 1000 1000 1000 1000 1000 1000 1000 1000 1000 1000 1000 1000 1000 1000 1000 1000 1000 1000 1000 1000 994 991 982 980 977 981 982 981 987 984 980 982 984 985 988 986 984 983 981 981 980 979 976 974 971 969 965 963 961 963 963 961 957 958 957 954 944 940 928 920 903 899 882 876 864 859 845 838 820 817 798 792 781 785 782 778 774 775 769 766 758 752 740 734 725 719 702 694 688 691 686 686 682 679 672 667 664 662 659 656 655 651 641 641 639 643 644 642 645 643 638 637 634 631 624 618 611 610 600 597 600 604 613 613 615 618 622 622 622 621 623 623 625 623 623 622 623 621 620 619 611 608 599 594 590 595 596 595 596 594 589 586 580 583 582 581 582 580 576 576 578 576 576 579 579 580 582 581 578 578 578 577 577 576 576 576 572 571 566 563 551 549 536 534 535 542 547 547 548 551 553 557 563 559 560 559 558 556 553 552 554 553 553 553 556 560 569 569 569 566 560 562 562 561 561 563 566 567 574 577 582 581 586 587 592 595 603 604 605 609 617 625 640 640 652 657 667 669 685 689 702 703 715 724 740 742 763 768 762 754 745 741 726 725 717 716 708 702 686 680 669 667 658 656 648 646 639 639 633 632 624 623 615 611 603 599 595 595 586 586 583 581 578 575 571 574 574 572 568 566 563 564 562 563 561 560 553 548 538 532 524 521 514 512 502 501 492 489 483 485 480 478 476 478 478 475 473 471 468 469 471 473 475 475 477 474 468 466 460 462 461 461 463 462 462 460 457 460 464 466 473 477 486 488 490 485 483 480 476 472 464 460 451 449 435 432 424 419 406 401 392 392 383 377 369 369 364 361 361 359 356 352 346 347 341 339 338 338 338 337 337 339 343 343 341 342 344 344 346 346 347 349 356 356 362 366 367 365 367 368 377 383 397 401 409 409 419 425 430 425 427 426 426 426 429 432 433 431 429 430 430 428 428 427 427 429 432 434 438 438 442 447 457 460 470 474 479 480 490 494
889 889 891 892 894 894 896 899 902 900 903 902 903 897 896 893 891 894 895 897 903 900 903 903 908 904 902 904 905 903 901 901 904 903 905 908 913 914 919 922 931 927 928 929 932 934 938 942 950 951 959 964 976 976 983 986 992 999 1000 1000 1000 1000 1000 1000 1000 1000 1000 1000 1000 1000 1000 1000 1000 1000 1000 1000 1000 1000 1000 1000 1000 1000 1000 1000 1000 1000 1000 1000 1000 1000 1000 1000 997 991 984 981 971 978 980 982 984 987 987 983 979 985 988 987 985 986 987 983 982 979 979 976 973 970 966 962 958 960 961 963 966 961 961 959 963 946 937 925 913 902 889 877 861 859 850 842 830 819 807 797 778 784 784 782 780 775 772 767 767 755 744 735 727 717 705 693 672 683 684 681 677 673 668 663 653 654 651 649 642 644 640 634 623 632 634 636 636 636 633 632 628 628 624 618 607 607 602 595 582 594 601 605 608 610 616 615 617 615 615 614 613 615 618 614 611 611 609 610 612 604 596 590 579 584 589 590 591 589 588 583 576 577 578 577 575 575 574 570 568 570 571 571 575 574 574 572 570 569 569 569 568 568 569 570 574 568 565 562 555 550 544 534 517 533 542 546 550 551 553 556 563 559 556 555 553 554 553 550 547 550 551 550 552 556 561 564 569 566 566 561 560 561 562 564 568 568 572 576 584 583 585 587 593 594 597 602 607 608 615 620 633 638 646 652 662 666 675 684 701 703 712 718 732 736 748 762 792 763 752 741 735 726 721 716 714 703 692 681 669 664 656 655 654 647 641 636 633 629 628 624 623 610 600 596 590 588 585 580 575 575 572 568 561 563 567 566 564 561 558 557 558 556 555 553 554 545 538 529 518 515 509 509 509 501 497 490 483 481 478 477 473 472 470 469 465 465 463 461 459 464 466 467 470 469 467 461 453 457 459 458 459 459 459 457 454 455 457 460 464 469 477 485 500 485 481 478 477 470 464 459 453 448 440 430 417 414 406 398 382 385 381 375 364 364 361 358 353 354 352 349 342 342 341 337 328 332 332 332 332 330 331 335 336 335 336 339 341 340 340 343 342 348 352 358 366 364 365 364 364 375 386 393 401 405 413 419 435 423 421 419 420 420 423 424 432 428 425 424 426 426 426 425 424 425 427 427 429 432 435 436 440 449 458 464 473 473 478 485 495
886 887 888 890 888 889 889 893 892 894 898 899 896 891 893 892 893 892 891 892 895 899 900 902 902 905 905 905 902 902 900 896 897 898 899 904 904 908 910 916 917 921 926 930 929 932 933 938 938 944 949 956 959 970 973 982 984 994 1000 1000 1000 1000 1000 1000 1000 1000 1000 1000 1000 1000 1000 1000 1000 1000 1000 1000 1000 1000 1000 1000 1000 1000 1000 1000 1000 1000 1000 1000 1000 1000 1000 1000 1000 991 992 988 988 985 984 985 987 991 988 988 990 990 989 990 989 988 987 985 983 977 978 978 975 970 967 961 964 963 962 965 962 960 959 957 951 943 939 922 922 905 895 879 878 864 855 844 839 822 820 806 806 793 786 783 780 775 772 763 760 751 746 731 729 714 708 695 698 688 681 680 674 666 666 660 659 651 648 644 644 639 637 633 635 632 630 630 631 632 633 631 631 629 626 618 618 610 606 598 601 596 592 600 598 601 605 608 607 608 608 608 608 607 608 605 606 604 602 601 599 598 595 587 588 581 580 584 583 584 583 580 580 576 575 575 574 570 570 565 567 566 563 562 565 568 566 564 563 562 560 561 560 558 561 564 564 563 566 562 559 551 548 541 545 539 539 546 548 553 555 557 555 556 555 551 554 553 551 550 552 551 549 546 549 555 555 558 557 561 562 558 561 562 562 565 563 567 570 577 576 582 584 586 587 595 597 602 601 605 610 618 621 636 640 649 651 663 667 678 680 697 704 716 715 726 732 745 738 746 749 735 735 724 720 712 709 698 693 680 677 662 658 654 652 647 642 631 630 623 623 621 615 603 602 593 592 582 580 574 576 570 567 562 561 556 558 559 557 554 553 550 549 549 547 544 541 536 534 524 522 511 508 504 503 498 498 489 490 481 481 478 476 469 468 465 463 461 460 457 460 462 460 460 462 464 461 457 458 457 455 456 456 456 454 454 453 452 452 456 456 464 468 477 470 472 477 472 471 463 463 457 456 448 441 430 426 409 406 398 398 385 379 374 372 363 359 354 356 352 349 347 347 341 341 338 337 331 328 327 325 322 325 330 329 330 334 338 336 336 340 343 342 345 346 354 354 359 363 362 367 373 375 388 388 398 401 409 405 408 412 408 412 413 413 415 418 422 423 419 422 425 424 424 424 423 422 423 423 426 426 428 434 444 446 457 456 463 470 478 481
884 883 886 884 884 884 882 886 886 892 898 895 893 889 887 889 894 892 891 892 894 897 899 899 901 901 903 901 902 901 900 896 894 894 892 897 899 902 904 909 913 918 925 924 927 928 931 932 934 940 948 951 954 962 967 975 980 991 1000 1000 1000 1000 1000 1000 1000 1000 1000 1000 1000 1000 1000 1000 1000 1000 1000 1000 1000 1000 1000 1000 1000 1000 1000 1000 1000 1000 1000 1000 1000 1000 1000 1000 1000 997 993 993 996 994 996 995 995 994 991 992 995 996 998 994 992 991 990 987 984 979 977 975 975 970 966 966 969 966 965 963 962 958 953 951 945 938 928 924 924 904 886 884 883 868 854 846 842 829 823 817 819 803 791 785 779 775 771 762 757 747 737 731 728 713 698 701 706 694 685 677 669 664 662 659 658 650 644 641 642 637 634 633 636 633 635 631 629 631 633 632 633 631 631 624 622 616 611 609 609 601 593 595 592 597 603 601 599 601 601 602 603 604 607 601 597 596 592 592 591 590 586 586 589 581 579 579 578 578 579 578 578 576 575 574 574 570 570 565 563 560 557 557 559 558 559 557 554 553 548 551 553 554 554 557 560 561 565 559 558 551 547 550 556 551 555 552 551 556 560 556 555 554 552 555 558 554 548 551 554 552 552 547 544 550 555 552 548 554 561 558 559 561 562 562 560 565 571 573 575 578 584 583 583 590 599 598 600 605 611 614 616 628 643 645 648 656 667 668 671 688 705 707 709 718 727 723 716 722 725 724 730 717 710 707 706 693 683 676 676 659 648 651 651 644 636 630 628 621 618 614 610 600 591 590 593 582 574 574 575 567 561 558 555 553 556 553 550 547 546 541 540 538 537 533 531 527 524 520 518 507 499 499 501 497 498 492 493 485 485 479 479 471 467 462 459 458 459 458 459 459 459 458 458 457 454 453 454 452 455 453 453 451 447 448 450 448 447 450 450 457 468 464 457 461 465 466 468 460 456 456 458 446 436 430 427 412 400 402 404 389 376 373 370 364 358 358 357 353 347 349 349 345 344 341 339 331 326 324 321 320 319 325 328 331 335 335 335 337 340 342 343 345 346 350 354 360 366 364 368 371 377 380 382 391 398 397 393 395 397 401 406 405 406 409 414 416 419 417 420 421 423 421 423 420 418 417 418 420 423 425 429 435 443 447 448 457 468 469 471
877 876 878 879 882 881 882 884 884 890 888 891 890 886 885 884 888 892 891 892 893 896 895 894 896 898 897 896 899 901 898 896 895 892 892 893 893 897 899 904 906 914 914 917 920 923 923 925 930 937 939 948 951 958 960 971 973 985 989 1000 1000 1000 1000 1000 1000 1000 1000 1000 1000 1000 1000 1000 1000 1000 1000 1000 1000 1000 1000 1000 1000 1000 1000 1000 1000 1000 1000 1000 1000 1000 1000 1000 1000 999 1000 997 1000 999 1000 1000 1000 1000 999 996 999 1000 999 996 997 996 993 990 986 980 977 973 971 969 970 968 967 967 966 963 964 958 956 950 947 939 934 923 915 901 903 889 884 872 865 844 840 831 830 820 819 809 804 789 782 775 770 759 757 746 742 730 723 715 716 708 705 699 693 675 672 661 661 659 655 650 645 636 636 634 634 630 632 631 633 631 631 632 631 634 632 631 630 628 628 624 622 618 616 609 605 595 593 594 593 595 598 597 596 596 596 599 597 596 596 592 589 585 588 588 585 583 581 577 578 575 574 573 576 578 578 577 575 572 570 568 566 563 559 555 555 553 551 549 552 553 552 550 547 543 545 551 551 552 555 558 555 552 553 551 555 556 554 554 556 558 560 562 557 554 554 553 555 559 560 559 557 553 552 554 550 547 545 546 544 547 547 549 551 557 559 561 560 562 562 565 566 571 571 573 576 581 582 585 588 594 599 605 605 611 612 620 626 642 644 649 651 659 667 682 684 701 705 711 704 704 703 704 703 706 708 707 708 702 699 687 683 667 663 653 658 652 648 642 638 628 624 617 614 608 605 596 593 585 585 580 578 573 569 564 561 554 550 547 547 548 546 541 536 531 530 527 527 523 525 520 518 514 509 501 501 495 494 491 491 489 487 482 483 477 477 471 468 460 457 453 454 457 457 458 456 456 456 454 450 447 446 444 447 450 450 448 447 444 443 444 445 447 446 449 450 454 454 453 455 461 458 453 456 454 452 445 441 428 424 414 415 409 404 391 387 373 369 366 367 365 363 358 356 353 350 348 346 343 340 331 330 323 320 319 320 323 325 332 330 332 333 338 339 342 344 348 347 349 355 363 360 362 365 369 370 376 380 387 385 389 387 384 388 395 394 398 400 404 406 411 410 410 413 416 416 416 418 416 414 411 411 415 416 420 421 426 431 440 444 452 453 462 464
871 872 876 876 882 878 879 879 883 884 887 885 887 881 879 881 889 886 888 889 895 895 897 893 893 894 895 894 898 896 896 893 894 891 891 890 890 893 897 900 905 909 914 914 915 916 920 922 928 933 940 944 952 954 960 965 970 978 986 997 1000 1000 1000 1000 997 1000 1000 1000 1000 1000 1000 1000 1000 1000 1000 1000 1000 1000 1000 1000 1000 1000 1000 1000 1000 1000 1000 1000 1000 1000 1000 1000 992 999 999 1000 1000 1000 1000 1000 1000 1000 1000 1000 1000 1000 1000 1000 1000 997 994 990 986 981 974 972 967 969 970 969 967 967 968 967 972 961 957 951 946 938 931 921 911 903 898 893 892 875 862 848 833 832 828 825 825 812 802 790 776 773 768 761 753 747 737 728 713 716 714 714 715 702 692 679 669 663 658 655 652 647 639 636 632 632 630 630 634 632 634 631 628 630 631 632 632 631 629 630 631 627 626 624 626 615 608 600 590 592 593 594 597 595 594 591 589 591 591 590 590 587 583 584 587 584 581 579 579 575 573 570 570 572 577 577 581 577 574 571 568 566 560 558 551 551 551 550 546 546 547 547 546 545 544 542 541 547 550 551 556 552 551 549 547 550 555 557 561 558 559 560 567 563 562 557 552 555 556 562 572 562 558 556 555 551 548 543 536 540 541 541 538 544 550 555 559 559 558 560 561 565 570 571 571 574 577 580 580 587 593 595 599 601 605 606 606 616 628 635 643 645 650 655 663 673 684 691 706 697 694 689 680 686 688 691 694 694 694 694 699 682 672 661 652 651 651 649 652 640 632 624 618 611 606 602 601 589 584 582 584 576 569 569 568 559 552 547 540 540 540 539 539 531 524 521 516 519 518 519 520 512 508 503 498 494 490 491 492 488 486 484 482 480 482 477 475 470 465 457 449 448 447 450 455 453 452 452 455 449 443 441 439 441 443 445 450 444 443 440 439 439 440 442 444 445 448 446 444 446 449 451 454 450 449 450 455 443 433 427 419 413 410 410 416 396 383 375 364 367 367 367 372 362 357 355 354 349 346 344 345 334 328 322 312 316 317 322 328 330 331 330 330 335 341 342 347 347 348 352 362 361 362 362 364 366 367 372 381 381 382 380 378 379 382 385 387 391 393 399 405 405 407 405 408 409 413 413 417 411 406 404 402 408 412 414 416 422 429 434 443 444 450 453 461
863 865 866 868 867 870 871 872 873 879 878 877 877 873 875 874 875 877 880 884 886 892 892 890 892 893 890 889 891 892 890 887 890 890 890 889 889 888 891 896 898 906 907 911 909 909 912 917 919 927 930 938 940 947 953 961 963 972 974 985 984 991 994 993 997 1000 1000 1000 1000 1000 1000 1000 1000 1000 1000 1000 1000 1000 1000 1000 1000 1000 1000 1000 1000 1000 1000 1000 1000 1000 1000 1000 1000 1000 1000 1000 1000 1000 1000 1000 1000 1000 1000 1000 1000 1000 1000 1000 1000 997 996 990 990 985 982 977 975 972 970 972 970 966 967 967 963 958 959 952 949 936 933 919 917 902 901 895 889 877 871 855 853 837 832 828 824 815 811 796 791 774 772 765 762 752 746 735 735 723 722 721 713 705 701 683 681 667 659 652 652 648 645 640 638 634 632 629 629 629 631 631 632 631 631 633 633 633 633 633 630 629 629 627 624 619 617 609 606 594 593 594 594 594 592 587 588 586 584 585 585 583 583 582 580 580 578 574 573 571 567 563 568 571 572 575 575 577 576 572 571 568 565 561 557 550 551 550 547 544 542 543 543 543 543 542 543 546 546 549 546 546 546 546 547 550 553 558 556 558 557 558 558 562 563 560 561 559 559 564 560 561 562 558 554 549 550 544 543 539 537 538 539 542 547 555 554 558 560 562 563 566 570 573 573 577 579 584 585 590 590 595 595 596 598 602 605 612 615 628 629 639 643 651 654 665 667 675 674 680 682 678 677 672 670 676 677 683 684 684 679 670 669 655 658 648 647 644 642 634 629 618 615 606 601 594 588 578 579 576 574 571 571 567 562 555 551 543 542 536 533 531 528 522 520 514 516 516 514 515 510 503 501 493 495 490 490 487 485 483 482 480 480 477 478 475 476 471 468 456 455 444 444 444 443 447 447 447 446 444 443 438 438 438 436 439 438 438 438 436 437 436 436 437 438 440 439 439 439 439 437 440 441 444 446 444 444 441 440 429 424 412 411 408 403 394 395 382 380 371 367 367 365 364 363 359 356 350 348 345 340 332 333 325 325 318 319 323 322 329 329 328 331 333 336 341 341 345 348 352 352 358 359 362 361 364 363 367 367 374 375 374 373 373 374 379 381 386 389 395 393 397 397 397 400 402 405 407 408 407 406 400 404 404 406 410 411 418 418 425 425 432 436 441 446
855 857 860 858 857 860 863 864 865 870 875 872 873 869 868 869 872 871 872 879 882 889 894 892 891 890 887 889 890 887 885 885 887 886 888 887 888 887 890 892 894 899 906 905 904 906 909 910 914 920 927 931 935 944 953 958 961 967 971 975 975 980 983 983 986 989 995 1000 1000 1000 1000 1000 1000 1000 1000 1000 1000 1000 1000 1000 1000 1000 1000 1000 1000 1000 1000 1000 1000 1000 1000 1000 1000 1000 1000 1000 1000 1000 1000 1000 1000 1000 1000 1000 1000 1000 1000 1000 1000 1000 999 994 994 987 980 978 979 973 972 972 972 970 970 963 959 957 957 951 951 938 931 920 917 905 896 891 887 874 861 856 858 842 832 828 828 816 808 798 793 780 774 768 765 754 745 742 746 734 732 724 715 707 701 689 685 667 650 650 651 646 643 640 640 635 635 631 630 631 632 632 633 632 634 635 636 636 636 632 630 630 630 628 626 621 617 614 613 602 594 595 595 593 592 589 588 584 578 581 581 580 578 575 575 572 572 568 566 562 558 562 566 568 573 573 571 574 574 573 572 568 566 561 559 553 553 548 545 542 538 540 541 543 542 541 542 545 551 545 542 539 536 540 543 549 557 555 553 555 553 556 556 561 563 563 566 562 563 561 559 558 558 555 554 551 552 546 543 539 537 537 537 543 555 555 556 559 562 564 567 571 580 577 574 580 587 590 592 594 595 596 596 596 597 598 601 607 614 619 622 633 641 646 650 658 665 662 658 662 665 664 667 660 655 659 661 669 676 673 670 662 654 651 657 647 647 641 639 628 615 611 607 596 587 581 577 568 562 565 568 565 565 562 559 551 541 538 540 531 526 523 519 514 507 509 512 512 512 509 505 498 491 489 490 485 485 482 481 478 474 477 480 477 478 476 477 472 470 460 455 445 439 438 436 439 440 441 442 440 438 435 434 431 431 431 432 431 430 432 435 431 432 433 435 435 436 433 430 431 428 431 431 437 444 441 443 438 435 427 424 413 408 405 401 394 388 385 386 374 367 365 362 361 358 357 359 351 344 342 340 333 330 329 332 325 323 321 319 325 332 331 334 335 341 338 338 342 350 350 351 354 357 356 357 358 360 362 362 367 373 368 366 368 369 375 378 383 388 389 387 389 391 393 395 401 406 406 405 404 400 401 407 406 408 404 405 408 414 416 417 424 430 434 437
850 851 850 849 852 853 854 857 859 864 862 865 865 863 863 862 861 864 871 879 881 889 888 894 895 892 891 891 887 882 882 882 881 880 882 885 884 883 886 888 888 892 895 901 902 902 901 901 905 913 917 927 932 942 946 959 961 966 965 971 970 973 969 971 969 976 983 994 998 1000 1000 1000 1000 1000 1000 1000 1000 1000 1000 1000 1000 1000 1000 1000 1000 1000 1000 1000 1000 1000 1000 1000 1000 1000 1000 1000 1000 1000 1000 1000 1000 1000 1000 1000 1000 1000 1000 1000 1000 998 998 993 995 990 986 978 975 971 975 975 975 972 966 958 959 954 950 944 943 937 931 916 915 906 901 887 884 872 867 851 848 841 838 826 825 814 810 797 791 782 779 768 764 756 755 745 743 737 737 729 723 707 701 687 683 667 664 650 644 642 642 638 636 634 634 630 633 634 632 632 632 633 634 637 639 639 636 632 633 631 629 630 628 625 623 619 615 610 607 598 598 593 593 592 589 586 584 580 579 579 574 566 565 564 564 561 559 554 559 561 560 564 566 573 575 575 574 575 571 567 565 559 556 552 551 546 545 542 543 541 544 546 541 538 540 541 542 541 541 534 536 538 539 547 548 555 556 557 556 558 558 563 562 566 565 562 562 560 559 556 554 553 552 550 549 545 543 537 540 539 537 540 545 557 559 562 563 568 570 573 575 581 581 582 587 599 601 602 600 600 599 595 595 595 595 602 606 615 619 630 631 643 647 654 649 651 650 647 647 647 648 647 648 646 651 658 658 665 663 655 651 641 640 639 640 637 636 624 619 606 598 584 581 568 563 556 558 556 554 557 558 558 557 549 542 530 529 525 523 516 514 511 509 503 505 508 505 506 503 493 492 483 482 478 479 476 475 474 476 477 475 475 477 475 476 472 467 459 455 445 443 433 430 433 433 436 436 436 435 432 429 424 425 423 425 426 427 429 426 424 428 430 429 430 430 429 429 427 425 425 426 432 432 436 438 434 430 422 418 408 409 403 402 395 390 384 379 374 373 365 364 363 360 355 355 352 348 341 338 333 333 330 329 329 326 322 322 322 325 332 331 333 332 335 336 338 342 349 350 352 349 350 351 353 355 359 358 361 360 359 363 366 369 375 375 381 382 387 385 384 387 391 393 401 401 406 406 404 402 400 403 406 401 396 397 398 403 410 413 420 421 431 432
844 844 846 843 846 847 849 850 854 856 857 857 858 856 855 854 853 862 871 876 886 886 889 893 902 892 891 889 888 881 877 878 880 877 877 879 881 882 885 885 885 889 895 896 899 897 898 896 897 906 916 921 933 938 948 955 969 963 965 966 968 964 960 957 948 964 976 985 997 1000 1000 1000 1000 1000 1000 1000 1000 1000 1000 1000 1000 1000 1000 1000 1000 1000 1000 1000 1000 1000 1000 1000 1000 1000 1000 1000 1000 1000 1000 1000 1000 1000 1000 1000 1000 1000 1000 1000 1000 998 996 995 998 990 983 978 972 974 975 976 982 971 964 957 954 948 946 939 937 929 921 914 910 901 896 888 883 872 859 850 839 835 828 826 831 813 802 792 780 778 773 768 760 758 754 749 747 741 736 730 726 710 698 688 677 667 656 648 637 639 638 636 631 631 632 631 635 632 632 631 633 632 633 638 646 641 639 635 636 631 628 629 629 626 623 621 617 612 608 604 607 598 593 591 587 585 583 581 581 575 570 562 554 557 558 555 549 554 557 558 557 560 563 570 579 575 576 572 570 566 562 556 549 549 548 545 541 542 545 546 552 546 541 540 541 542 544 541 540 536 533 535 535 542 547 551 558 555 556 557 561 561 566 565 572 564 561 558 558 554 551 550 549 548 547 544 541 541 541 538 533 541 548 556 563 562 567 570 579 576 579 579 583 586 596 602 616 606 606 604 606 599 596 593 589 599 606 612 620 625 630 638 652 644 643 640 640 636 637 634 634 634 634 639 647 647 651 651 658 646 640 632 628 629 627 629 636 619 608 598 589 578 568 557 541 545 544 545 544 548 552 552 558 544 533 527 520 519 514 510 505 506 505 502 503 499 497 499 502 492 488 482 477 474 472 471 468 471 473 475 476 477 479 478 481 470 463 456 449 444 440 432 418 426 430 431 435 433 432 428 424 422 421 420 423 421 422 421 421 422 423 424 425 425 426 425 424 421 419 419 422 426 431 431 439 427 421 416 410 406 403 402 402 392 383 379 373 372 370 366 362 362 362 357 356 349 341 338 334 332 329 328 330 327 324 322 323 324 328 329 329 329 329 332 333 338 344 346 351 346 344 345 344 349 353 354 353 356 358 357 354 364 370 373 378 379 383 382 382 384 388 390 392 399 405 405 409 404 402 402 406 401 395 392 388 394 400 404 409 413 419 424 430
838 837 835 834 838 842 841 843 844 850 849 848 850 848 849 848 855 863 863 870 873 882 883 888 884 886 891 887 884 878 878 876 875 873 874 873 876 880 880 882 883 887 888 892 891 892 892 891 896 901 902 911 916 930 935 947 945 952 959 960 959 956 954 950 954 959 959 974 976 989 995 1000 1000 1000 1000 1000 1000 1000 1000 1000 1000 1000 1000 1000 1000 1000 1000 1000 1000 1000 1000 1000 1000 1000 1000 1000 1000 1000 1000 1000 1000 1000 1000 1000 1000 1000 1000 1000 1000 997 998 996 993 989 987 980 981 978 974 973 969 967 964 954 951 941 938 931 931 923 919 911 906 895 895 889 887 874 869 854 849 832 829 821 817 807 805 790 789 778 775 771 770 764 760 752 752 746 740 729 725 710 708 693 688 669 664 651 652 641 639 637 633 627 628 630 629 628 630 629 631 630 633 637 637 642 640 634 634 631 629 629 629 628 628 625 621 615 613 606 606 601 599 593 591 585 585 581 577 572 569 561 560 554 552 554 555 556 555 559 558 558 559 565 565 573 574 569 569 565 563 556 556 547 546 547 546 542 544 547 545 545 545 541 540 542 540 541 540 538 536 534 535 539 540 546 546 552 554 555 554 556 559 559 559 561 560 556 556 553 553 550 550 548 547 546 547 546 543 539 543 545 546 556 554 559 564 568 567 575 576 576 579 584 589 600 597 602 607 605 604 601 598 592 597 600 600 608 609 620 622 629 625 628 631 628 626 622 623 621 624 624 625 629 628 634 632 632 633 633 631 622 625 622 618 616 615 611 607 590 589 574 568 553 554 540 537 539 538 540 539 540 539 538 536 525 525 518 512 507 508 504 502 500 497 491 493 493 491 487 488 480 478 471 469 468 471 472 472 475 476 481 480 480 474 467 464 456 455 445 444 437 436 426 424 425 426 430 430 427 426 421 419 416 417 416 417 415 418 420 419 421 419 421 422 423 420 415 416 413 415 419 418 420 419 417 417 412 412 406 405 401 398 391 388 379 379 374 372 368 366 361 360 356 355 349 346 337 338 334 329 324 326 326 324 320 323 326 326 327 326 327 329 332 332 338 339 342 341 340 343 345 346 347 350 354 353 354 354 357 361 366 366 372 371 376 377 379 381 385 386 392 393 399 399 401 402 404 405 401 401 398 396 389 393 393 393 399 399 404 409 417 419
833 830 827 828 832 833 835 835 837 841 844 847 848 846 844 848 854 860 867 868 870 874 877 877 876 881 889 883 880 875 870 874 877 873 871 873 877 876 879 878 880 884 890 888 887 887 887 890 894 898 899 904 908 921 931 934 934 943 955 953 955 950 944 945 948 953 957 965 968 981 993 992 992 1000 1000 1000 1000 1000 1000 1000 1000 1000 1000 1000 1000 1000 1000 1000 1000 1000 1000 1000 1000 1000 1000 1000 1000 1000 1000 1000 1000 1000 1000 1000 1000 1000 1000 1000 1000 999 997 994 993 987 984 981 983 978 974 969 964 959 953 950 948 937 929 928 927 916 907 903 900 893 889 887 889 876 868 857 851 835 824 818 815 802 792 786 787 777 773 770 772 767 765 758 756 748 739 732 727 714 703 696 694 674 662 661 663 649 641 635 633 628 627 627 629 629 631 631 633 632 633 635 636 637 640 634 633 626 620 626 631 629 631 625 624 617 614 609 609 601 598 595 595 588 587 580 575 567 562 557 558 551 549 552 554 555 558 558 558 558 557 560 562 568 575 568 567 564 564 560 562 552 543 546 548 547 549 546 544 544 544 540 538 538 537 538 537 536 534 533 537 537 540 541 542 547 552 551 551 553 561 554 552 553 553 552 554 552 551 552 552 550 546 548 550 548 547 546 549 550 553 554 553 560 566 564 561 569 576 576 580 583 591 590 591 597 607 604 604 599 593 597 602 602 603 603 603 613 621 617 613 615 618 616 614 612 611 613 616 615 614 616 615 618 617 617 616 616 613 615 619 613 609 606 606 600 594 586 584 569 558 555 558 542 531 530 530 530 535 531 529 527 525 523 525 514 505 505 507 502 500 496 492 488 486 486 488 483 483 477 474 466 461 467 472 473 475 476 478 480 483 477 470 463 454 455 458 451 448 443 443 432 427 425 422 426 431 425 424 420 418 416 417 415 415 415 417 415 414 415 414 416 420 418 416 413 414 411 411 413 414 411 408 406 403 406 409 403 404 398 397 389 383 379 380 373 373 369 368 363 364 357 354 349 345 342 342 334 325 326 327 325 323 324 325 326 328 327 324 326 328 329 331 337 345 343 341 341 339 344 348 350 357 355 354 353 354 358 363 367 372 371 368 373 377 377 377 382 388 391 394 399 405 401 400 402 408 402 403 397 391 390 395 392 392 394 395 400 408 410 412
827 826 824 820 822 826 826 826 830 836 840 848 848 847 846 847 848 856 859 868 870 869 868 868 871 875 875 878 877 872 873 873 871 871 871 871 871 871 872 871 874 879 879 883 884 884 886 891 892 898 898 900 905 917 916 925 927 934 935 943 947 945 944 941 942 949 951 961 965 977 975 983 987 997 999 1000 1000 1000 1000 1000 1000 1000 1000 1000 1000 1000 1000 1000 1000 1000 1000 1000 1000 1000 1000 1000 1000 1000 1000 1000 1000 1000 1000 1000 1000 1000 1000 1000 1000 1000 998 991 990 983 983 980 979 977 974 968 963 952 952 946 943 933 934 926 921 910 908 897 893 889 887 884 882 875 870 857 850 833 828 815 810 796 790 776 773 771 771 766 770 770 766 759 759 752 746 735 730 716 710 695 687 674 677 668 664 653 648 632 630 626 627 625 625 629 628 631 632 634 635 636 635 633 633 631 628 622 624 624 624 626 626 623 624 618 613 607 605 599 598 595 592 587 583 577 572 562 558 547 546 546 551 553 552 553 556 559 559 559 558 559 560 565 563 564 566 561 562 560 561 556 555 549 548 549 547 546 545 544 541 540 538 538 538 539 537 535 533 529 530 532 536 539 541 545 545 549 549 547 545 544 546 546 545 546 547 550 554 558 558 557 553 552 552 552 551 551 552 553 553 557 558 562 559 562 561 564 566 574 574 579 579 581 584 591 594 601 602 600 601 602 601 605 602 601 602 608 605 607 605 601 602 604 603 603 603 607 606 607 606 607 606 607 606 605 606 604 606 609 606 604 601 594 594 589 585 577 573 562 562 554 551 541 536 523 520 518 520 522 521 516 517 517 516 510 509 504 503 500 497 493 492 485 482 480 478 477 475 471 469 460 464 467 467 473 474 476 480 481 478 477 473 463 461 455 453 453 451 447 445 435 435 427 425 424 421 419 420 419 417 414 414 413 414 415 412 412 411 411 410 411 411 414 412 407 408 408 408 408 406 404 401 396 399 401 397 395 396 392 394 388 384 377 373 368 371 370 367 362 359 354 353 348 348 344 342 336 335 328 326 325 326 328 328 328 327 329 328 328 325 326 328 335 336 344 345 344 342 344 345 351 351 356 355 352 356 360 361 367 368 372 372 373 373 377 378 380 384 392 395 399 397 398 397 398 397 398 400 397 394 388 389 389 391 390 392 394 396 404 404
822 819 817 815 816 820 822 822 824 832 840 845 853 846 845 845 847 853 859 865 876 869 868 866 866 868 871 871 872 867 867 869 872 868 867 868 872 869 870 869 870 873 876 877 879 881 885 888 893 896 901 902 906 910 917 917 918 926 931 936 945 939 937 935 937 941 946 955 967 969 974 974 975 988 998 1000 1000 1000 1000 1000 1000 1000 1000 1000 1000 1000 1000 1000 1000 1000 1000 1000 1000 1000 1000 1000 1000 1000 1000 1000 1000 1000 1000 1000 1000 1000 999 997 998 997 998 992 990 984 978 977 976 973 968 964 959 952 946 944 940 934 930 924 919 909 900 893 882 882 877 879 883 870 862 851 842 828 816 808 805 788 774 767 754 762 762 765 771 767 765 762 763 752 743 737 733 719 704 694 679 677 673 671 675 658 646 635 621 625 624 623 622 624 626 629 635 635 638 637 639 633 632 627 619 620 619 622 629 624 625 621 624 612 604 602 601 595 591 591 591 583 576 570 564 555 548 542 532 540 547 551 556 555 558 559 563 560 559 559 561 562 562 563 564 562 563 562 565 558 554 552 552 550 548 545 544 542 537 536 533 536 538 537 537 533 532 529 527 531 536 539 541 542 545 546 548 543 540 539 536 539 538 541 541 548 555 560 568 558 554 554 559 555 553 552 557 554 555 556 561 560 560 557 554 560 565 568 569 575 579 578 576 586 593 598 603 600 601 602 607 603 601 599 599 601 602 599 594 593 591 591 588 591 591 596 602 597 597 597 596 597 600 598 601 598 598 597 599 593 590 584 585 577 571 565 561 553 548 547 554 536 524 516 508 510 512 513 513 511 509 510 512 505 500 499 505 497 491 489 490 481 474 472 472 469 467 464 462 459 458 463 470 472 478 479 488 480 477 474 470 463 458 454 450 451 449 448 450 439 435 428 425 421 419 415 414 412 412 411 411 411 412 411 408 405 404 404 404 406 408 408 407 403 403 403 405 403 403 398 393 392 393 393 392 388 388 388 393 382 374 370 365 364 366 366 365 358 354 350 347 346 346 345 344 338 334 330 326 325 325 328 333 328 329 328 330 326 325 324 323 330 336 341 348 344 342 345 348 351 352 354 356 355 358 360 365 367 370 370 372 372 376 377 379 382 388 392 401 396 397 394 390 393 395 395 399 394 389 388 391 390 393 392 395 392 393 396 398
812 811 811 808 813 818 817 818 822 829 831 840 837 841 843 843 846 852 851 858 858 863 864 862 863 863 862 864 862 859 862 864 862 862 862 862 862 864 865 865 866 868 867 872 872 877 880 883 887 895 897 901 900 903 906 910 915 922 921 928 926 929 929 925 929 933 939 949 948 958 961 966 971 983 985 995 997 1000 1000 1000 1000 1000 1000 1000 1000 1000 1000 1000 1000 1000 1000 1000 1000 1000 1000 1000 1000 1000 1000 1000 1000 1000 1000 1000 999 993 993 991 994 994 996 992 992 986 981 975 974 972 969 963 961 953 950 944 941 934 929 921 917 908 903 893 890 880 875 873 867 860 858 843 839 821 812 797 793 780 777 764 767 762 760 763 762 764 762 761 757 751 748 738 735 723 718 701 696 682 677 669 665 658 656 641 641 630 625 621 622 622 621 624 628 635 636 637 635 631 632 629 627 621 619 618 618 619 619 614 612 603 604 599 596 590 591 587 584 578 574 565 561 547 546 541 542 538 541 550 549 555 556 558 559 562 563 559 561 563 562 563 563 562 561 562 561 559 559 555 554 551 549 544 545 543 540 534 537 537 536 537 535 531 532 530 531 532 534 540 538 538 540 542 540 538 538 536 537 537 537 542 543 548 550 560 556 556 558 553 554 556 553 548 549 553 553 554 555 560 558 555 558 560 560 565 568 574 575 577 581 584 589 598 595 597 598 600 600 602 601 598 598 598 596 595 594 588 586 583 582 582 583 587 583 582 585 588 588 588 590 589 590 590 588 584 583 580 576 569 569 564 562 553 550 541 539 535 531 525 524 512 512 505 503 506 506 507 505 503 500 498 494 489 491 492 490 484 481 475 472 464 465 462 460 458 458 456 457 460 462 470 471 474 474 476 480 475 471 462 459 453 454 452 449 447 444 439 436 426 426 418 414 408 409 406 408 408 407 408 408 409 405 399 400 400 402 404 404 406 402 396 396 396 396 399 397 393 392 388 388 388 384 380 379 379 375 373 371 364 365 360 362 364 360 354 352 348 348 344 346 346 345 341 340 334 332 326 325 327 324 324 327 327 325 322 323 322 324 327 328 337 337 342 345 346 348 353 353 354 353 357 357 358 362 369 368 367 368 370 374 379 378 382 383 389 387 389 392 391 392 392 388 388 391 393 391 386 388 389 391 392 390 387 389 389 393
805 803 803 806 811 814 816 818 822 825 831 831 830 835 837 841 846 847 848 851 852 856 856 859 860 859 857 857 856 855 856 856 856 854 855 856 857 858 859 860 862 860 859 864 866 873 881 884 888 894 901 897 896 900 908 910 912 916 919 919 918 919 917 917 923 926 938 939 940 948 953 959 964 974 988 988 991 999 1000 1000 1000 1000 1000 1000 1000 1000 1000 1000 1000 1000 1000 1000 1000 1000 1000 1000 1000 1000 1000 1000 997 995 994 995 998 990 986 988 993 995 1000 995 993 984 976 973 972 968 965 962 963 954 947 943 943 932 924 917 912 902 894 890 888 875 866 863 860 854 849 837 831 810 788 784 782 770 759 762 769 763 763 760 759 757 755 755 753 747 740 739 739 726 716 704 699 685 678 668 662 656 650 644 647 634 629 624 623 620 618 624 629 633 638 637 636 633 630 628 627 622 620 618 619 617 616 610 606 598 591 593 593 588 588 582 580 572 565 558 556 543 534 536 542 539 544 545 545 550 555 557 559 562 568 563 563 562 561 564 565 563 559 561 561 560 557 556 557 551 549 546 547 542 539 537 540 537 539 536 534 531 533 531 531 532 537 538 539 540 542 539 535 534 530 534 538 536 536 541 545 549 553 556 556 557 558 554 555 552 550 546 544 546 549 551 553 556 559 557 560 560 561 564 568 574 582 581 584 589 598 595 592 595 595 597 597 597 598 595 596 593 595 592 591 584 579 577 575 575 576 574 572 572 571 576 580 582 588 582 582 580 579 574 572 565 559 555 555 550 547 540 536 528 520 519 519 513 506 506 510 500 493 498 500 500 500 495 493 487 480 481 484 481 482 476 475 468 462 458 460 455 451 452 454 453 453 457 462 467 473 470 470 474 482 474 471 461 451 450 453 449 449 442 441 434 431 426 425 414 406 404 405 403 406 403 403 402 406 403 403 397 393 396 400 401 404 401 400 393 388 388 388 390 393 388 385 383 384 379 375 371 365 365 362 360 356 359 362 360 362 359 356 348 342 346 349 346 349 346 347 343 342 337 335 328 321 323 321 323 327 326 325 321 321 321 322 325 328 334 336 341 345 348 352 355 360 353 351 354 357 361 365 369 371 369 368 372 378 378 376 380 385 384 383 384 387 389 391 389 385 387 388 389 388 387 391 391 394 391 389 387 385 389 394
797 795 800 804 806 811 811 817 817 819 821 824 829 834 833 838 839 845 845 848 850 854 853 859 859 857 854 852 851 851 848 848 846 846 848 850 850 854 854 855 855 854 857 859 863 869 873 884 885 893 892 893 896 896 900 910 911 911 911 914 914 912 909 904 905 913 920 929 936 943 945 954 955 964 969 980 987 995 994 1000 1000 1000 1000 1000 1000 1000 1000 1000 1000 1000 1000 1000 1000 1000 1000 1000 1000 1000 1000 996 994 989 990 989 989 986 987 984 988 995 994 996 994 983 981 971 970 964 964 959 958 954 949 941 937 927 925 914 909 896 895 887 880 867 865 853 853 847 840 826 818 800 794 771 765 760 763 758 756 759 760 758 757 752 752 751 750 745 744 739 739 729 721 702 695 681 678 665 663 654 649 638 636 631 631 623 621 617 621 626 626 630 632 637 637 635 631 626 622 620 619 618 618 615 611 604 600 592 592 589 585 581 580 575 572 565 560 549 544 538 538 530 531 534 538 542 543 546 550 557 558 561 560 563 563 562 564 567 566 566 564 562 563 564 561 558 555 550 550 544 544 542 541 536 536 534 536 536 533 529 531 532 530 529 532 537 542 543 540 539 539 535 534 533 532 535 537 541 544 551 551 556 561 561 555 550 550 550 547 543 541 541 544 548 550 553 553 556 557 559 559 563 566 573 575 584 586 590 589 592 596 597 595 597 594 593 591 589 589 586 587 587 586 581 579 572 570 568 566 563 561 563 565 567 568 573 572 572 575 572 569 562 560 551 550 539 536 534 534 527 524 517 514 504 504 502 502 496 496 495 497 496 494 496 491 486 486 480 478 471 468 468 467 463 465 461 456 446 446 447 448 446 447 450 451 455 458 464 463 465 469 469 470 471 472 462 457 446 445 444 441 434 434 427 427 422 418 408 408 399 396 396 397 398 395 393 395 395 397 394 394 393 392 397 395 397 396 388 387 383 382 382 381 382 380 376 374 371 370 364 362 357 355 351 354 355 354 357 356 355 352 343 346 345 343 345 345 345 344 342 341 339 336 331 329 323 322 323 322 325 322 318 320 320 319 325 328 336 337 342 344 352 352 355 352 350 353 352 357 365 365 371 369 370 371 374 373 379 379 380 378 379 381 380 383 387 388 388 388 388 388 388 386 386 386 390 389 389 389 388 389 388 392
791 792 796 799 806 805 805 810 818 817 820 823 829 829 832 835 839 839 841 845 852 850 850 855 864 854 849 848 846 845 840 838 834 838 840 842 843 847 850 850 852 852 856 860 868 870 875 879 884 888 894 893 894 895 899 905 916 909 909 908 911 906 903 897 887 905 918 925 934 939 945 946 949 959 969 975 987 986 990 994 1000 999 1000 1000 1000 1000 1000 1000 1000 1000 1000 1000 1000 1000 1000 1000 1000 1000 997 993 992 988 988 987 989 984 983 982 987 989 992 992 999 984 978 972 971 965 963 959 957 950 941 938 935 926 919 911 904 896 888 881 873 863 855 849 846 838 828 815 797 791 776 764 741 752 753 753 751 754 756 755 757 751 749 747 749 742 741 741 750 728 714 699 682 677 667 662 656 651 642 636 628 627 623 621 618 619 621 625 630 631 635 636 641 632 628 622 614 615 614 616 621 611 606 599 590 587 584 581 581 577 574 568 560 556 549 542 527 532 529 530 528 533 537 541 543 548 555 556 559 558 559 561 562 562 565 567 572 566 563 564 567 564 563 559 558 554 551 546 543 543 542 539 538 536 534 533 531 529 530 529 529 529 533 538 551 543 542 540 540 536 535 533 531 533 536 539 548 549 553 560 575 560 555 549 545 544 542 538 531 538 543 546 550 552 552 553 554 556 556 561 568 571 576 582 588 589 592 593 600 596 596 594 592 590 588 585 586 582 580 580 583 575 572 567 564 563 560 556 545 555 558 560 561 564 564 565 568 563 561 554 549 544 539 530 515 521 521 515 507 505 499 496 492 491 491 489 490 489 490 490 494 487 484 481 481 474 468 462 454 456 454 454 454 449 445 440 432 439 439 441 441 444 447 451 460 460 461 463 469 467 470 469 476 459 451 445 442 439 433 429 427 423 421 417 414 407 402 395 385 390 391 390 386 388 390 391 394 389 386 386 388 389 389 391 398 384 379 378 377 374 372 371 371 369 367 363 361 357 355 352 349 350 351 351 351 352 353 350 349 343 340 342 342 343 343 343 343 340 337 337 335 331 328 326 324 322 321 321 321 321 320 318 312 323 332 336 342 344 347 350 357 353 351 351 352 356 361 365 370 369 370 370 371 373 373 377 382 379 379 378 381 380 382 384 391 387 388 387 392 387 385 383 383 385 387 387 388 388 391 390 394
786 787 788 793 793 798 800 801 804 814 816 819 819 822 826 831 831 834 838 841 840 844 846 850 846 848 850 845 844 843 839 833 835 834 833 837 839 841 844 844 845 848 851 858 859 868 869 874 876 882 887 894 892 891 893 895 895 902 902 901 901 901 901 895 901 902 905 919 921 934 935 939 945 957 959 966 966 973 978 985 984 990 993 997 996 997 1000 1000 1000 1000 1000 1000 1000 1000 1000 997 998 997 994 989 989 985 984 983 982 978 979 977 979 982 982 984 981 976 978 971 970 963 963 959 956 948 945 937 934 925 920 908 908 898 890 878 872 857 855 844 843 834 828 810 809 791 784 769 770 754 750 750 752 753 752 749 748 747 744 740 737 733 735 734 728 720 717 698 697 678 672 661 661 652 648 638 636 627 624 621 622 621 621 625 624 629 631 634 629 627 627 621 620 615 614 611 609 605 605 596 593 582 578 573 575 572 569 563 561 550 549 543 544 536 534 534 534 535 538 543 544 551 550 553 554 555 559 561 561 561 563 566 564 563 567 566 565 565 563 558 560 558 555 548 550 545 545 543 541 540 537 531 531 526 526 528 527 525 528 534 532 538 541 540 537 535 535 533 532 530 531 534 536 545 549 556 549 549 551 546 545 540 539 539 540 539 539 543 547 554 553 550 551 555 555 557 560 568 574 581 579 586 587 591 591 594 594 591 589 587 583 579 578 576 575 570 569 567 566 560 563 560 558 556 558 557 554 557 556 559 557 557 555 554 552 545 546 538 537 530 527 515 512 508 506 500 497 491 488 481 481 482 483 483 483 482 478 474 476 475 472 468 466 456 457 448 447 448 444 439 441 438 441 440 439 441 440 440 439 444 445 455 456 457 458 462 461 462 457 450 452 444 442 437 433 425 425 418 418 414 413 407 405 395 397 391 387 387 387 386 383 385 385 385 385 380 382 384 382 380 377 374 377 373 369 365 363 361 362 363 360 355 355 350 351 348 351 350 348 347 349 348 348 345 346 343 344 343 342 343 341 342 342 341 341 339 337 331 331 329 328 322 322 320 323 325 324 323 326 326 328 335 338 346 345 347 345 349 352 354 356 361 361 367 364 368 369 370 371 374 373 374 373 375 375 374 378 378 380 379 379 382 382 380 382 383 383 381 381 382 381 384 386 388 388 389 392
780 780 784 784 786 791 795 795 799 806 814 813 816 819 825 826 829 831 839 835 835 837 841 839 837 840 843 842 842 839 837 835 836 832 828 833 838 840 848 843 840 843 846 852 856 863 867 869 873 881 889 891 891 891 893 889 885 889 892 892 893 895 897 899 905 908 913 915 914 927 936 936 940 952 964 961 958 964 969 970 972 978 985 986 987 991 992 996 998 1000 1000 1000 1000 996 993 993 995 990 982 983 985 980 977 979 981 976 973 974 977 976 975 975 973 971 968 968 970 963 960 957 957 948 940 937 935 924 914 910 910 895 883 873 868 854 847 842 840 831 823 811 807 792 779 779 782 767 755 754 753 754 755 746 742 739 735 731 728 726 727 723 719 711 700 697 698 680 667 664 666 654 646 638 637 627 620 624 626 624 621 622 622 626 632 626 623 621 619 617 618 614 616 610 606 601 600 592 589 578 568 570 571 566 562 559 558 550 546 548 550 545 541 540 540 542 548 546 545 551 555 555 556 557 561 562 564 564 566 565 563 565 568 566 568 566 565 562 561 559 557 554 556 550 551 545 542 540 540 535 533 525 522 524 525 524 527 527 525 531 537 533 533 531 533 531 533 530 532 531 532 541 550 545 541 539 537 538 540 537 535 538 542 542 543 545 549 554 559 553 550 553 555 558 562 569 580 577 574 580 584 587 590 590 591 587 585 580 576 571 569 568 569 564 561 558 554 558 563 558 555 556 559 557 558 553 552 552 552 549 547 546 542 541 543 536 534 529 527 515 510 502 497 492 490 485 483 475 471 474 477 477 477 472 467 465 464 464 463 461 460 455 457 446 439 439 438 434 433 438 444 441 445 441 440 438 434 436 436 446 455 453 455 454 454 451 449 442 438 436 437 431 429 424 426 417 413 410 410 405 404 400 401 392 387 385 384 382 377 381 382 381 381 379 380 378 379 372 368 367 366 362 362 356 350 353 353 355 353 351 351 347 348 349 354 350 348 348 350 349 350 345 343 341 341 341 342 341 339 341 343 342 341 343 343 337 332 332 333 327 324 324 326 327 327 330 335 336 340 340 340 345 347 344 340 345 348 352 358 362 367 364 363 366 370 370 372 372 373 371 371 370 369 375 381 380 383 377 375 376 377 377 378 377 379 378 377 377 376 382 385 388 390 391 394
772 772 774 775 779 785 784 786 790 798 800 806 811 816 815 821 821 825 824 825 828 828 829 829 832 835 836 839 839 837 836 834 834 832 832 830 832 836 837 840 841 841 844 851 854 861 861 865 870 880 881 890 889 889 887 885 882 879 881 882 886 891 895 902 905 913 913 916 921 925 924 930 935 947 948 958 961 958 957 957 959 965 970 977 983 988 987 990 990 994 994 996 992 987 990 989 989 988 985 977 977 974 976 977 975 973 973 972 969 970 970 968 968 967 965 963 961 959 958 954 955 949 946 937 933 924 921 911 906 892 884 865 858 846 845 837 835 827 820 807 803 792 794 787 785 777 771 761 758 755 749 740 738 732 730 723 720 716 715 713 712 705 701 693 687 678 676 665 662 653 647 634 630 625 629 629 628 628 625 622 621 623 620 618 619 616 615 613 612 608 609 607 603 596 592 583 581 573 575 570 566 561 561 555 552 549 552 553 555 555 551 546 544 548 548 551 551 554 553 557 557 556 558 562 563 566 565 565 567 569 566 565 566 566 566 567 566 563 559 557 555 551 550 544 544 538 538 536 531 522 523 521 521 521 522 523 523 524 522 524 524 525 525 526 527 527 527 528 531 537 533 536 535 531 531 529 531 533 535 536 538 544 544 548 550 554 552 553 553 552 554 558 560 569 570 576 577 578 579 586 587 588 586 583 580 572 571 562 562 560 559 557 556 553 554 555 554 556 556 556 554 556 553 548 550 547 545 543 542 541 540 537 534 531 530 525 521 510 508 495 490 482 481 477 475 467 470 469 470 472 468 463 461 457 456 455 455 454 451 449 447 442 439 431 429 427 432 438 437 438 440 441 441 439 436 432 433 441 441 448 448 447 444 441 439 434 433 428 423 421 422 417 418 413 411 405 404 402 402 400 396 391 390 385 385 381 380 380 377 377 376 377 376 371 368 362 363 360 356 350 350 350 351 348 349 351 348 347 343 339 343 347 349 350 350 350 351 350 347 345 344 339 341 341 341 341 342 343 344 345 346 349 347 342 341 335 334 330 331 328 328 330 332 336 338 343 342 346 346 348 344 344 342 343 346 351 355 362 359 360 364 366 367 371 372 372 370 369 368 366 371 376 377 381 376 373 371 371 371 373 372 371 374 377 376 374 379 385 385 390 390 391 394
766 768 770 772 774 776 779 781 783 790 797 802 809 806 807 812 816 817 818 820 823 824 827 826 825 831 836 836 837 833 832 831 833 832 831 831 835 835 837 837 836 840 845 850 860 858 863 865 870 875 882 885 891 885 883 879 874 876 878 879 879 887 897 902 911 912 918 922 933 928 929 928 928 940 949 954 964 956 955 951 947 958 969 973 982 983 985 985 987 989 990 988 984 985 985 986 986 985 981 977 975 972 971 970 974 968 967 964 964 964 965 962 962 959 959 957 955 952 952 953 959 949 942 935 932 922 915 909 908 887 869 857 840 838 832 831 831 820 809 803 792 792 791 792 798 779 767 764 764 756 748 738 728 727 723 716 707 706 705 703 703 696 690 684 678 669 663 661 664 648 636 629 618 623 626 630 638 630 627 623 619 621 619 616 613 612 610 610 608 607 605 601 595 591 586 579 569 569 569 567 566 562 559 552 543 548 549 555 567 559 554 549 544 550 553 553 551 555 559 558 560 557 560 560 563 564 566 565 568 568 569 568 568 567 566 567 570 563 558 556 558 552 551 546 546 540 537 533 527 523 518 520 522 520 522 520 519 518 517 515 511 515 517 518 522 522 523 525 528 529 530 528 523 524 525 525 528 529 532 533 538 541 545 549 555 554 554 553 550 553 556 558 561 568 575 576 577 578 580 585 591 585 583 578 576 569 565 559 553 553 552 550 548 549 550 551 554 552 552 551 551 550 549 547 547 543 540 538 534 534 535 532 529 525 521 519 518 508 500 488 474 473 470 466 467 462 462 463 469 462 460 455 449 449 448 448 447 442 440 439 440 432 426 423 421 423 428 431 439 436 438 439 442 436 433 430 428 435 439 441 445 439 435 433 428 427 424 419 408 413 413 412 413 406 400 399 399 397 397 394 392 387 385 384 387 381 378 375 376 373 371 373 378 368 362 357 352 352 349 342 337 341 344 344 347 345 344 339 334 336 338 343 351 348 348 349 356 347 344 343 344 341 341 340 341 340 343 344 350 348 348 352 359 349 347 342 342 337 333 331 330 333 337 340 346 344 346 347 353 349 346 343 337 344 350 352 360 358 358 360 366 365 368 370 375 371 369 367 366 368 372 375 382 375 370 366 359 363 365 365 367 368 372 373 374 375 381 384 392 390 394 394 398
764 766 767 769 767 767 771 777 778 784 786 796 793 795 800 805 805 812 812 814 815 821 822 826 827 830 829 832 830 829 829 828 830 832 831 831 831 832 832 835 837 840 840 846 845 851 857 863 863 870 872 878 876 879 878 876 877 876 874 878 880 884 889 900 899 907 914 921 920 927 926 925 932 939 939 947 945 950 950 947 950 951 954 966 968 978 979 980 982 985 984 984 985 985 986 987 984 985 983 978 975 969 965 960 960 960 959 954 957 958 957 953 953 950 952 952 948 943 945 947 946 946 943 930 928 917 913 904 898 881 875 855 853 837 831 826 820 814 813 804 802 793 793 792 785 775 776 767 764 757 751 739 737 725 720 713 708 699 695 693 692 689 686 675 672 659 659 655 649 639 640 630 630 625 624 628 626 629 628 624 625 623 621 617 617 612 612 610 609 608 604 598 595 588 585 578 576 566 566 566 565 563 561 553 555 552 550 553 555 561 560 554 556 555 555 559 557 556 557 556 555 555 556 558 560 562 562 562 564 567 568 570 569 569 569 566 565 563 561 554 554 551 549 546 546 541 539 535 532 525 521 519 516 517 517 518 516 515 514 509 510 507 507 509 512 518 521 522 520 521 523 523 522 517 518 521 522 526 527 528 531 539 541 548 548 555 557 557 557 557 556 559 560 567 569 576 577 579 580 584 580 581 579 572 571 563 563 556 555 549 546 545 546 547 546 547 546 546 548 546 547 547 546 544 543 540 537 536 534 529 529 528 526 519 519 512 510 505 500 485 481 467 459 452 454 453 454 454 452 449 451 449 448 445 442 442 437 430 430 428 426 422 421 416 418 418 417 421 424 432 433 436 434 433 433 430 432 432 431 435 433 430 432 429 428 423 421 417 416 411 406 405 402 398 398 394 394 393 392 390 388 383 382 380 379 378 375 368 369 368 368 368 363 361 361 353 352 348 342 335 337 336 336 338 337 338 338 334 337 335 335 339 338 343 343 342 342 341 344 341 341 341 341 340 338 338 338 340 344 349 351 352 350 351 351 345 347 344 342 336 338 337 339 344 342 342 344 345 348 350 350 348 347 346 344 347 348 353 356 358 359 363 365 367 366 368 367 364 368 370 370 372 369 368 368 363 361 357 355 355 358 363 365 370 370 373 375 380 380 387 390 393 394
761 763 768 765 764 764 766 770 773 778 784 787 787 790 792 796 799 802 807 807 809 814 819 823 828 829 831 827 825 824 822 825 828 828 829 829 830 830 829 833 838 840 841 841 840 847 856 857 857 865 873 871 868 868 867 870 875 873 870 875 880 885 893 893 894 905 918 917 917 921 922 928 936 939 943 940 935 940 941 943 948 949 955 959 961 971 979 978 981 981 982 982 983 984 989 985 982 982 983 976 973 965 959 953 950 949 950 948 950 950 953 948 946 945 946 943 941 938 937 939 940 938 937 927 923 910 900 897 893 875 857 852 854 835 822 816 811 806 805 802 805 797 798 791 784 774 766 764 765 753 746 738 736 723 714 706 700 691 684 685 683 681 680 670 664 653 645 642 641 633 628 627 631 627 628 626 623 625 622 625 629 625 626 622 622 616 615 611 610 605 603 595 591 586 582 576 575 568 565 564 565 563 565 558 558 555 553 555 557 559 558 559 562 560 562 562 563 562 565 558 552 553 551 556 560 561 562 561 564 564 567 569 570 570 574 568 566 561 560 555 555 549 542 545 547 542 537 535 534 525 515 515 513 513 512 512 512 514 514 511 509 507 504 505 506 514 523 519 517 519 522 518 519 515 514 516 519 523 528 525 527 533 539 543 547 555 564 562 563 561 560 560 560 567 574 578 579 581 582 579 576 576 575 569 567 560 557 553 552 545 540 539 540 540 544 542 542 543 549 545 546 544 542 539 539 535 528 532 534 530 527 523 522 517 517 509 504 498 492 481 474 459 444 442 442 442 442 441 443 439 439 440 441 437 435 433 430 423 416 417 417 412 407 410 412 411 411 415 418 423 428 428 429 429 429 429 433 430 429 429 428 427 427 426 427 421 416 414 414 407 403 399 392 391 389 389 391 388 388 386 384 379 374 374 375 370 367 364 365 362 363 359 355 353 352 349 347 341 336 332 331 331 334 331 328 332 335 335 338 335 332 335 335 338 339 339 339 338 338 337 340 338 339 336 334 335 335 339 345 349 354 351 350 350 349 349 354 348 349 343 346 344 348 346 345 345 345 347 351 350 350 349 351 348 347 346 343 348 353 354 357 360 364 363 364 364 364 364 369 369 373 368 364 361 359 357 357 352 350 351 352 357 362 364 365 370 375 376 375 382 388 390 393
756 757 757 760 761 761 762 766 768 772 775 783 786 789 788 789 790 793 796 800 802 807 810 819 824 827 826 823 824 823 822 823 822 825 826 828 829 830 831 833 837 842 838 839 841 843 845 852 855 861 860 867 865 861 863 864 866 871 873 874 879 886 884 887 893 904 904 912 916 918 923 931 933 940 936 935 935 934 934 936 936 944 949 955 958 966 967 974 978 979 978 979 979 981 982 985 984 978 977 973 968 959 955 945 942 937 939 939 938 940 940 941 941 939 937 934 936 931 932 933 931 932 928 921 917 902 901 891 886 871 865 845 840 829 825 808 803 796 799 797 796 795 795 791 788 772 768 760 754 746 743 733 729 717 712 697 692 683 684 680 677 673 668 662 656 644 641 629 628 625 626 621 623 625 627 628 630 627 625 626 623 622 624 624 621 616 613 610 606 599 598 589 589 583 580 571 570 568 566 561 562 561 561 558 560 557 557 557 561 563 562 563 561 564 563 567 567 566 562 560 558 555 554 556 557 561 561 559 560 561 565 569 570 570 567 566 563 558 557 554 553 548 548 545 544 544 541 535 532 526 522 514 513 511 510 508 512 515 513 514 512 508 506 504 504 510 510 516 517 516 514 511 512 512 513 513 514 519 518 518 522 528 532 541 546 555 557 566 567 566 564 561 564 569 571 584 586 587 580 576 575 572 567 563 559 555 554 549 545 540 539 534 532 531 534 538 536 535 538 542 544 543 539 533 534 534 534 532 531 531 525 516 516 512 510 506 501 491 486 474 469 454 448 430 428 431 430 428 428 427 430 431 430 428 427 425 422 417 415 409 406 402 406 405 405 405 408 412 412 415 417 420 423 425 425 424 426 428 428 425 427 426 425 424 422 419 417 410 410 403 403 396 392 388 386 384 383 383 384 382 381 378 375 370 366 361 362 358 356 355 355 352 351 345 346 345 341 335 333 327 326 325 325 325 327 330 331 336 337 338 336 335 335 336 335 336 335 334 333 329 330 333 334 331 333 333 334 338 343 348 346 349 351 352 351 350 351 348 347 341 343 345 346 347 350 349 348 350 350 351 349 348 350 348 349 347 346 345 346 349 353 358 357 357 360 363 362 360 362 365 365 364 362 354 354 352 348 347 350 350 350 351 354 361 362 369 369 374 375 378 381 388 389
750 749 751 752 757 754 757 761 770 771 775 780 789 786 788 787 789 788 792 794 795 800 808 816 834 826 828 824 822 819 817 818 819 822 824 825 831 828 832 834 847 838 836 837 842 841 846 848 852 855 857 860 862 862 862 862 864 869 875 878 886 884 885 887 889 899 909 912 919 920 926 930 941 934 933 930 931 931 931 929 925 939 949 954 958 963 967 972 981 977 975 975 976 978 979 981 985 979 977 969 959 953 945 940 929 932 931 930 926 929 931 931 934 932 930 929 933 927 925 924 924 921 919 913 908 897 890 886 884 865 851 841 831 822 812 803 789 792 792 791 789 790 790 787 793 772 758 753 744 739 731 725 720 709 699 688 676 675 673 671 673 664 656 649 640 635 630 623 613 618 620 618 618 620 624 628 639 627 624 622 624 620 621 620 621 613 606 605 601 597 594 588 583 581 578 570 561 564 563 562 564 561 562 559 561 558 559 563 574 567 565 563 562 562 562 566 574 565 562 558 555 555 555 557 561 561 564 561 559 561 566 568 574 567 562 560 557 553 551 549 550 547 547 545 546 542 539 534 532 523 517 513 513 509 508 508 514 512 512 512 514 508 505 503 501 507 511 512 514 511 513 508 505 508 510 511 512 516 518 517 514 526 532 540 549 555 562 566 575 568 568 565 569 569 574 583 602 585 578 573 570 564 559 554 545 548 545 542 536 535 533 530 526 527 529 532 530 532 533 537 542 539 537 532 529 532 532 532 535 526 520 515 510 507 502 498 493 484 475 466 457 446 436 424 410 420 422 421 417 419 422 422 423 418 415 413 413 408 404 402 399 399 400 401 403 403 406 408 413 412 415 415 420 420 422 422 426 423 426 425 430 424 422 420 420 416 413 411 411 404 399 392 382 384 381 379 376 379 380 379 377 373 369 366 362 359 355 353 346 348 349 345 344 342 341 338 334 329 326 322 316 318 319 319 319 326 333 335 340 337 336 336 338 334 335 332 331 330 330 326 322 329 332 332 331 331 334 339 351 345 343 345 349 350 352 352 359 349 345 340 338 343 348 349 359 351 350 351 355 351 349 350 356 352 352 349 348 347 349 350 352 356 359 357 356 358 361 360 359 360 362 360 360 352 347 345 337 343 347 348 351 349 353 356 359 363 370 371 376 379 385 386 387
740 740 740 743 743 744 748 753 756 767 770 775 775 780 781 783 781 781 784 789 788 792 795 806 807 818 823 823 821 817 815 814 817 821 819 819 820 822 825 827 827 830 834 832 834 836 838 843 845 851 853 857 858 864 864 861 863 869 871 878 878 880 884 888 889 894 898 910 910 917 920 925 922 925 926 923 926 928 926 925 932 940 942 954 954 962 963 968 967 974 975 972 974 976 974 977 975 976 975 967 964 952 949 942 940 932 926 925 923 919 919 920 922 926 925 921 922 920 918 914 912 909 910 905 901 890 890 881 873 856 853 839 835 818 815 805 804 794 788 787 787 786 781 777 774 767 763 750 748 737 731 718 715 702 696 682 681 671 667 661 660 655 649 638 637 627 625 621 621 616 614 615 614 613 616 622 618 620 621 616 618 616 617 614 614 610 609 603 602 597 594 589 589 582 579 572 571 566 562 561 560 560 559 557 559 557 560 564 563 567 568 563 562 561 559 562 559 561 562 557 557 557 556 557 556 559 562 562 561 559 561 565 562 562 561 556 554 549 546 543 546 546 545 543 541 539 538 532 528 520 518 511 509 505 504 505 506 509 510 509 508 508 507 504 505 508 506 509 505 504 506 506 507 507 508 510 511 515 517 520 524 530 530 538 542 554 557 564 560 564 566 565 565 567 568 575 571 575 576 568 566 557 556 549 552 547 544 540 538 533 532 530 529 525 527 531 529 531 529 532 531 534 534 532 534 533 531 532 526 518 519 514 511 504 499 493 488 477 472 460 455 438 435 421 425 419 416 418 415 411 412 412 409 408 405 400 402 400 400 399 399 396 395 396 397 400 401 404 402 405 405 406 409 415 414 416 415 415 418 420 419 419 419 416 415 414 413 412 410 405 402 394 394 387 381 378 377 377 375 377 375 371 369 365 364 360 359 354 350 345 341 338 340 339 337 332 332 324 324 321 319 315 314 316 319 325 326 331 332 335 336 335 333 330 330 326 328 328 326 325 328 330 330 334 331 329 331 333 333 338 340 340 341 347 347 349 347 347 345 338 342 343 342 345 346 348 350 350 348 349 349 348 351 355 353 351 350 348 350 350 353 358 358 359 358 355 357 360 358 355 357 357 354 347 348 344 345 341 342 347 344 343 346 351 353 357 360 365 369 377 379 384 384
732 731 730 733 736 737 738 743 749 758 769 768 770 772 774 773 775 775 780 781 781 785 787 793 796 807 817 816 817 812 807 811 816 818 819 817 816 819 821 821 822 825 828 830 835 834 834 839 842 847 854 855 856 863 869 864 863 868 874 877 879 882 884 887 889 896 902 904 904 913 922 917 912 916 917 919 923 923 921 926 935 942 951 952 953 960 964 964 961 969 974 973 975 973 969 972 969 972 973 965 960 951 945 942 941 929 919 919 918 916 913 914 914 917 919 916 917 911 907 905 903 901 902 896 892 886 883 874 868 851 835 833 834 818 807 805 805 795 785 784 784 780 774 770 765 756 744 744 747 734 726 716 710 695 681 676 675 665 661 654 651 642 632 627 627 619 614 616 619 615 615 610 609 609 613 611 607 610 611 613 617 616 615 613 613 608 602 602 604 595 590 590 591 584 579 574 571 565 562 560 558 559 558 559 562 560 561 561 562 563 568 562 560 557 552 554 554 555 556 555 555 555 556 555 556 561 567 564 561 561 564 560 558 557 555 552 552 543 538 542 546 545 544 540 536 535 535 528 524 514 509 506 505 500 495 500 504 506 509 505 504 504 504 503 506 505 507 503 498 501 503 502 504 506 511 508 509 514 521 523 528 533 541 541 544 552 561 557 553 558 563 561 562 563 564 565 560 562 561 562 564 554 549 551 555 549 545 540 535 532 531 530 531 528 529 529 528 528 526 526 528 529 529 530 534 531 531 526 523 516 509 508 509 498 489 487 483 470 459 453 449 435 425 424 427 421 419 414 409 408 409 402 395 394 391 393 396 394 390 395 397 393 391 391 392 394 399 395 393 395 399 400 403 405 408 407 408 409 413 414 414 413 413 411 409 408 406 408 410 404 400 397 398 389 380 378 375 374 371 374 373 370 365 364 365 361 360 354 348 343 338 335 336 334 335 331 331 322 319 318 317 313 309 314 317 324 332 332 332 335 335 333 333 330 327 326 325 324 321 326 330 332 336 333 332 331 334 330 327 331 331 333 337 340 345 343 342 340 336 339 345 341 342 343 343 345 343 343 345 345 347 348 352 351 352 352 352 353 356 354 357 359 364 360 360 357 357 356 356 355 357 354 351 347 344 345 348 343 344 343 341 342 342 348 351 355 362 364 367 374 381 382 383
724 724 725 725 728 732 732 733 738 749 751 761 763 765 763 763 766 767 770 774 776 781 781 786 789 800 801 808 810 808 808 808 810 816 815 816 818 820 817 817 819 820 823 827 827 831 834 839 838 843 847 853 858 863 862 864 865 867 870 880 881 886 885 889 892 899 897 900 904 911 909 912 912 912 912 915 916 920 923 926 931 943 945 952 958 962 960 963 964 967 968 974 975 975 974 973 971 971 966 961 958 950 947 942 939 927 925 914 914 914 912 910 908 909 908 909 907 901 901 896 894 892 890 886 885 879 873 864 860 846 842 827 821 813 813 803 805 798 794 782 781 777 773 765 760 750 745 735 731 726 722 711 707 690 683 667 660 654 652 644 641 630 626 614 610 608 610 610 610 611 609 603 604 604 603 603 604 605 606 609 613 616 613 612 611 607 606 602 597 592 595 593 590 586 583 575 569 563 563 560 562 562 560 559 559 561 559 557 556 555 557 557 560 557 554 548 549 551 551 553 552 552 553 553 558 562 562 566 565 562 559 556 557 553 551 547 543 536 541 542 542 545 541 538 535 533 529 523 518 506 506 500 497 496 498 499 499 503 502 501 503 502 501 499 500 499 500 499 500 500 498 498 501 505 502 502 506 512 515 524 527 535 537 544 546 549 549 553 551 552 553 556 560 561 561 562 560 555 556 558 553 549 554 553 553 552 548 541 538 532 531 529 529 529 529 529 529 527 524 521 523 525 526 528 527 526 524 521 520 514 509 501 499 491 491 484 478 464 461 445 441 429 430 423 422 419 416 411 408 403 397 393 391 385 386 387 388 391 392 395 393 390 391 388 386 387 385 385 385 386 388 394 395 395 396 399 400 403 404 409 408 408 407 406 405 405 405 405 404 401 402 397 398 392 389 380 379 376 377 378 376 374 369 362 362 360 358 354 350 342 337 328 328 329 328 328 324 317 318 315 314 314 315 316 318 324 328 336 337 338 334 330 331 330 330 329 327 325 327 330 330 335 333 333 332 330 328 329 328 328 325 325 327 333 334 337 337 336 336 337 336 337 341 345 345 346 341 337 338 341 343 347 347 347 350 354 354 356 355 355 357 360 358 357 359 358 356 352 354 355 353 351 353 349 347 345 344 342 343 340 342 342 343 348 347 352 356 363 365 372 373 380 380
