1994 2052 2094 2131 2167 2198 2239 2278 2337 2363 2409 2448 2504 2542 2602 2657 2755 2756 2801 2843 2917 2954 3024 3092 3209 3235 3309 3375 3483 3545 3659 3775 3967 
2048 2070 2080 2133 2138 2188 2209 2258 2272 2345 2374 2431 2446 2520 2546 2614 2623 2713 2753 2811 2835 2923 2960 3045 3064 3187 3239 3335 3362 3494 3554 3701 3769 
2081 2099 2123 2136 2137 2185 2223 2240 2248 2321 2386 2410 2427 2492 2549 2559 2565 2653 2733 2773 2807 2884 2956 2985 3003 3120 3227 3275 3310 3426 3538 3590 3640 
2113 2125 2130 2154 2167 2195 2196 2231 2247 2305 2324 2399 2423 2472 2468 2510 2534 2602 2637 2744 2779 2853 2865 2937 2967 3064 3099 3229 3271 3364 3375 3484 3513 
2135 2146 2161 2174 2198 2207 2224 2230 2229 2293 2347 2386 2438 2445 2464 2473 2475 2559 2637 2703 2787 2817 2864 2892 2914 3011 3102 3172 3266 3291 3344 3381 3415 
2157 2166 2169 2186 2190 2214 2221 2238 2255 2292 2305 2362 2360 2406 2421 2443 2467 2525 2549 2646 2663 2764 2801 2856 2886 2966 2994 3094 3099 3193 3224 3281 3297 
2170 2179 2189 2195 2199 2219 2235 2252 2267 2300 2338 2340 2328 2371 2397 2416 2437 2494 2553 2592 2607 2714 2800 2831 2859 2931 3002 3015 3007 3095 3157 3182 3197 
2182 2192 2195 2209 2217 2230 2238 2268 2277 2306 2307 2334 2344 2356 2359 2390 2402 2461 2488 2563 2604 2685 2705 2812 2843 2900 2899 2958 2982 3025 3027 3094 3107 
2186 2201 2211 2223 2240 2244 2258 2275 2300 2306 2321 2331 2350 2353 2364 2369 2362 2432 2492 2543 2615 2653 2719 2770 2861 2849 2881 2900 2944 2955 2983 3004 3030 
2210 2217 2220 2234 2234 2250 2259 2275 2275 2300 2308 2322 2327 2345 2351 2361 2377 2413 2429 2502 2513 2596 2622 2688 2687 2757 2785 2818 2827 2868 2881 2911 2919 
2229 2234 2243 2243 2244 2257 2272 2271 2270 2293 2311 2317 2321 2337 2348 2356 2370 2402 2440 2461 2464 2534 2589 2593 2584 2652 2705 2729 2744 2777 2803 2812 2818 
2244 2247 2247 2253 2259 2265 2264 2269 2275 2291 2295 2315 2322 2335 2334 2348 2356 2385 2398 2441 2456 2490 2480 2511 2523 2563 2583 2649 2664 2695 2695 2719 2722 
2258 2259 2261 2266 2278 2275 2278 2275 2270 2289 2304 2314 2327 2328 2333 2337 2344 2369 2398 2418 2453 2451 2457 2451 2429 2492 2537 2570 2610 2612 2625 2629 2631 
2268 2271 2270 2274 2274 2279 2284 2286 2287 2294 2293 2310 2307 2318 2321 2325 2332 2351 2355 2382 2379 2404 2409 2410 2422 2441 2440 2486 2483 2518 2532 2543 2544 
2276 2279 2278 2282 2282 2287 2293 2292 2293 2296 2299 2300 2298 2309 2316 2316 2320 2330 2344 2342 2335 2357 2371 2374 2383 2392 2404 2406 2394 2432 2458 2457 2460 
2289 2292 2291 2296 2295 2295 2296 2299 2302 2301 2297 2295 2299 2304 2299 2303 2305 2308 2305 2309 2313 2318 2317 2335 2335 2343 2337 2343 2347 2358 2351 2370 2370 
2301 2301 2301 2303 2311 2306 2308 2307 2316 2303 2299 2293 2298 2293 2293 2290 2296 2287 2286 2282 2284 2280 2282 2285 2294 2282 2279 2277 2285 2281 2283 2282 2282 
2309 2311 2308 2306 2307 2310 2310 2307 2301 2298 2292 2283 2280 2278 2273 2269 2265 2260 2256 2249 2245 2238 2236 2232 2222 2214 2211 2202 2201 2200 2197 2195 2195 
2315 2316 2316 2312 2311 2311 2313 2302 2293 2284 2274 2267 2262 2256 2250 2243 2238 2228 2221 2212 2207 2196 2192 2175 2162 2149 2136 2127 2123 2116 2110 2109 2108 
2325 2322 2321 2318 2315 2311 2306 2296 2289 2273 2267 2249 2244 2236 2229 2216 2208 2193 2186 2172 2165 2148 2136 2116 2107 2084 2071 2050 2043 2034 2030 2025 2022 
2339 2335 2331 2325 2316 2312 2306 2292 2274 2266 2253 2238 2220 2214 2202 2187 2174 2158 2142 2129 2119 2096 2074 2057 2038 2013 1989 1974 1954 1949 1939 1936 1933 
2351 2350 2345 2336 2330 2315 2308 2294 2288 2265 2253 2231 2222 2198 2182 2159 2151 2123 2109 2083 2073 2044 2030 2000 1983 1943 1931 1903 1897 1870 1861 1849 1845 
2365 2361 2356 2347 2341 2322 2309 2297 2289 2264 2245 2222 2206 2178 2153 2135 2121 2089 2057 2040 2026 1991 1959 1937 1917 1877 1841 1832 1828 1795 1774 1763 1753 
2383 2376 2368 2356 2347 2326 2319 2296 2287 2259 2246 2208 2194 2158 2145 2109 2093 2058 2040 1994 1975 1935 1922 1875 1851 1808 1799 1758 1739 1710 1704 1676 1664 
2409 2391 2377 2365 2351 2333 2315 2299 2286 2256 2229 2197 2165 2139 2110 2085 2054 2025 1989 1957 1917 1890 1853 1817 1762 1747 1714 1687 1649 1631 1604 1587 1563 
2412 2404 2399 2378 2368 2342 2327 2301 2289 2253 2234 2189 2176 2124 2106 2067 2053 1999 1977 1928 1913 1856 1831 1778 1767 1704 1672 1628 1611 1563 1540 1505 1488 
2423 2416 2407 2390 2378 2344 2315 2301 2288 2247 2210 2182 2164 2112 2071 2051 2036 1981 1930 1899 1879 1822 1775 1749 1735 1663 1595 1565 1542 1487 1445 1417 1398 
2439 2432 2419 2398 2380 2343 2335 2300 2283 2240 2220 2165 2142 2092 2080 2033 2013 1960 1931 1859 1831 1779 1766 1711 1686 1618 1585 1496 1461 1401 1382 1321 1299 
2462 2444 2425 2402 2372 2348 2321 2299 2278 2232 2187 2148 2101 2071 2034 2010 1991 1930 1872 1820 1758 1734 1695 1666 1641 1566 1492 1430 1355 1316 1265 1221 1179 
2476 2460 2449 2414 2401 2356 2336 2297 2277 2223 2200 2141 2125 2057 2032 1984 1960 1897 1870 1794 1783 1705 1671 1617 1588 1513 1478 1378 1352 1243 1196 1120 1085 
2506 2485 2462 2430 2410 2361 2322 2292 2268 2210 2159 2133 2118 2045 1987 1954 1926 1861 1799 1774 1762 1678 1606 1566 1529 1454 1380 1332 1298 1178 1069 1012 958 
2538 2514 2483 2434 2412 2357 2340 2281 2254 2193 2179 2116 2083 2019 2000 1919 1887 1824 1811 1742 1709 1641 1615 1513 1475 1397 1374 1275 1219 1105 1060 901 829 
2596 2530 2481 2437 2396 2355 2313 2271 2221 2184 2139 2097 2038 2000 1945 1894 1819 1799 1754 1716 1654 1613 1545 1481 1385 1359 1296 1229 1116 1052 937 822 628 
