33 33 32 34 35 33 31 29 27 27 28 29 29 32 35 36 35 39 42 45 50 52 53 56 58 60 63 66 67 72 75 76 77 86 96 101 108 112 119 126 135 137 144 148 154 158 164 166 174 172 175 175 175 175 174 175 177 181 185 186 188 192 197 199 202 
33 35 35 36 34 35 32 29 30 27 28 30 31 33 35 39 38 40 41 45 47 54 54 57 57 61 64 68 69 74 75 78 79 85 89 100 102 111 114 125 125 134 138 146 147 156 157 161 162 167 172 177 176 176 176 176 177 183 182 185 186 193 194 200 200 
32 33 36 34 34 33 32 31 34 30 29 32 35 37 41 39 39 42 47 48 50 54 58 59 60 64 72 72 72 77 82 80 80 87 97 100 102 110 115 121 123 130 137 140 142 150 159 157 158 164 171 175 179 178 178 177 178 181 184 183 184 190 196 197 199 
30 31 30 31 31 31 32 32 32 31 34 34 35 40 38 40 41 43 46 53 54 56 57 62 61 66 68 76 76 80 78 83 84 89 92 104 108 112 114 121 122 129 130 137 139 146 147 153 155 161 164 173 177 180 179 178 178 179 179 181 183 187 189 196 198 
27 29 29 28 27 29 31 31 33 35 38 37 37 38 40 41 42 46 52 57 63 61 62 63 61 67 73 76 79 79 80 82 84 89 97 105 120 118 122 123 124 129 133 135 137 142 147 148 149 158 167 175 186 180 179 179 177 179 179 180 180 185 190 193 199 
28 30 28 28 28 27 29 31 35 40 40 42 40 38 40 44 46 50 52 60 58 63 65 68 68 70 73 79 77 80 81 83 83 89 92 102 105 119 122 125 128 133 131 135 135 139 141 146 148 156 161 174 172 177 182 182 182 183 181 181 181 183 185 190 194 
28 29 29 28 28 29 32 33 38 41 45 43 43 42 43 46 51 54 58 60 59 64 68 70 74 76 82 80 77 81 85 83 83 88 95 101 104 116 124 129 133 134 134 135 136 140 144 145 146 155 165 169 170 176 183 183 184 184 184 183 184 186 187 191 194 
29 31 30 30 30 29 31 34 38 43 40 42 43 45 45 49 52 57 57 63 64 67 68 73 77 81 80 83 84 82 82 84 84 88 94 105 110 120 123 136 136 137 137 138 139 142 142 146 148 156 159 169 172 177 179 186 187 188 185 183 186 190 191 195 195 
29 30 32 31 33 31 33 36 43 40 40 40 43 42 43 49 59 57 60 64 70 69 74 76 86 83 84 85 89 87 87 85 82 92 102 109 121 125 133 138 149 142 140 141 143 144 146 147 148 158 166 171 178 180 186 188 192 188 186 187 189 191 195 196 198 
29 28 29 29 31 32 32 34 33 37 36 38 37 39 41 47 47 54 60 66 65 68 71 74 76 83 86 86 88 92 90 89 92 96 99 111 113 126 130 136 136 142 145 144 144 145 146 150 154 162 164 173 174 182 185 190 186 186 189 191 190 192 194 196 198 
30 29 31 30 31 30 32 31 30 31 29 33 34 35 37 41 44 52 63 64 66 69 73 73 74 81 89 89 92 93 92 94 98 101 110 112 114 125 138 135 134 140 145 147 150 149 149 155 160 167 174 175 175 183 191 188 185 187 190 192 194 195 199 200 201 
29 29 29 31 28 27 28 29 29 29 29 31 29 32 34 39 40 50 52 63 67 70 69 71 74 80 82 92 94 96 96 98 99 103 107 115 119 125 126 134 135 139 142 151 151 153 157 162 164 173 174 180 182 187 183 186 186 187 189 193 194 198 200 206 206 
30 28 28 28 26 27 28 28 29 29 29 29 27 30 33 34 36 44 51 59 72 70 72 72 73 79 85 92 102 99 100 100 103 106 112 118 126 128 133 133 132 140 146 152 157 159 164 169 175 178 184 184 189 188 187 185 183 187 191 194 197 200 204 207 213 
29 28 28 28 28 27 28 28 29 30 30 30 31 31 30 30 33 40 42 52 55 68 70 73 75 78 81 91 90 98 101 101 103 108 110 119 120 131 133 136 139 145 146 155 155 165 168 176 175 180 182 185 186 189 187 186 188 190 191 195 197 203 203 208 212 
29 29 28 30 31 32 33 32 31 31 32 32 34 32 32 29 30 36 43 48 50 62 70 74 78 81 85 88 87 96 104 103 106 107 111 116 121 130 139 140 143 148 152 156 157 168 177 180 181 186 190 189 187 188 185 187 190 192 196 197 199 204 207 212 217 
29 31 32 33 35 37 36 37 34 34 34 35 34 33 31 26 28 34 39 49 53 61 65 76 79 84 84 89 92 97 96 102 102 104 108 114 119 129 133 143 148 155 155 162 166 176 176 187 191 193 190 194 193 192 189 187 189 193 193 198 201 207 208 216 221 
29 35 38 40 43 43 42 40 35 38 39 38 37 35 31 28 20 35 45 52 60 65 73 78 86 85 87 91 97 98 100 101 100 104 109 116 124 131 140 146 158 158 162 168 177 179 185 191 208 196 195 195 199 194 191 191 193 193 194 197 203 205 211 218 232 
40 44 44 49 48 51 50 48 48 46 44 43 42 39 38 36 40 43 44 55 56 67 70 77 76 83 87 92 93 98 99 102 102 105 108 117 118 132 135 144 146 158 164 172 171 178 180 187 184 189 194 193 194 195 195 193 192 192 191 194 195 200 205 215 220 
49 50 54 54 54 56 58 57 58 55 52 50 47 46 43 45 50 53 58 58 59 68 78 75 72 80 89 93 96 98 99 101 101 105 111 114 116 129 142 143 144 156 170 172 173 176 178 180 178 183 186 190 195 194 196 193 194 190 187 191 193 198 204 210 214 
54 54 57 62 61 62 62 66 64 64 62 59 59 57 55 54 55 61 60 62 65 70 69 75 75 78 84 96 97 102 101 102 101 105 107 113 118 127 131 143 145 153 159 174 174 175 176 178 177 180 181 187 189 193 192 190 190 188 189 191 191 196 198 207 209 
59 59 63 65 69 67 69 70 71 69 69 67 68 64 62 62 64 66 67 69 73 72 73 73 71 80 91 96 102 102 104 101 98 105 111 116 122 130 139 142 142 154 167 173 180 177 178 176 172 177 179 183 190 190 191 189 187 185 185 188 191 195 197 202 206 
61 62 63 68 67 69 72 75 75 75 76 75 73 72 70 69 71 73 73 74 73 74 75 75 79 83 86 96 96 101 103 102 104 107 110 120 122 133 137 146 148 156 160 171 170 175 178 177 176 177 176 179 181 186 188 188 186 183 185 188 190 196 195 199 200 
62 63 65 67 69 73 78 80 84 84 86 81 79 76 73 75 80 80 84 81 80 80 80 82 86 89 94 97 98 103 109 105 105 109 116 120 124 136 150 151 153 161 171 170 168 176 183 178 175 175 177 178 180 184 191 187 185 185 185 188 191 195 197 197 197 
63 65 66 68 72 79 79 85 87 91 88 86 85 81 81 80 82 86 86 88 89 89 88 90 91 96 97 102 103 105 105 106 106 108 113 121 128 140 143 157 162 167 166 172 176 178 175 177 176 173 176 179 180 182 182 185 186 187 187 190 192 196 195 197 196 
63 68 72 74 77 81 85 89 96 92 93 89 87 86 87 87 90 91 93 93 95 95 95 96 99 102 106 107 112 111 112 108 101 111 119 126 135 142 151 160 177 171 175 177 185 180 179 175 171 174 177 179 183 183 183 183 183 185 187 191 198 197 198 197 196 
72 75 76 81 80 86 86 90 89 91 93 91 93 92 92 92 94 97 97 99 100 103 102 103 103 107 107 109 111 116 115 113 115 117 118 130 130 142 146 156 157 168 175 178 179 181 180 175 177 176 175 178 179 184 183 184 184 184 186 190 191 197 198 199 196 
80 81 86 85 82 88 92 91 90 92 95 95 98 98 99 100 103 102 103 105 107 108 109 108 110 111 113 113 114 117 120 118 121 122 127 130 132 142 152 153 153 165 178 179 182 181 180 180 181 179 177 179 178 182 184 185 187 187 190 191 193 197 201 198 195 
83 85 86 91 92 93 92 95 94 95 95 98 99 104 105 109 108 107 109 112 111 113 112 113 114 117 117 118 119 121 120 121 123 126 128 133 135 143 143 152 154 164 166 178 181 182 184 185 182 182 183 183 183 184 184 187 185 187 188 191 194 197 196 197 195 
85 87 90 92 98 98 101 99 97 98 99 102 102 107 109 113 117 114 114 116 119 118 117 117 117 120 123 123 125 124 125 125 126 129 133 136 140 144 148 150 148 162 172 179 188 186 188 187 184 186 189 188 188 188 187 186 183 187 190 193 199 197 198 196 195 
85 88 89 92 94 100 103 106 105 102 105 109 109 113 114 117 117 120 120 119 122 126 125 124 124 125 124 126 126 127 127 128 129 131 134 140 141 147 148 153 157 167 168 180 178 186 189 192 191 191 191 193 192 193 191 189 189 188 188 192 192 195 197 197 196 
83 88 94 94 95 101 109 110 111 110 112 114 115 119 126 123 124 125 125 126 129 131 132 131 130 130 130 129 128 128 130 131 134 137 142 144 146 151 155 159 163 170 177 177 175 185 193 193 195 195 199 196 196 195 196 193 192 190 189 190 191 195 200 198 197 
82 87 90 98 98 102 105 114 116 116 118 121 120 124 124 127 130 131 132 134 135 137 137 140 139 137 135 132 132 130 131 133 136 142 143 149 152 158 158 167 169 175 174 179 183 186 187 194 196 198 197 196 198 197 197 198 196 192 191 189 192 196 196 198 199 
78 88 95 97 101 104 111 115 126 121 124 124 126 128 132 132 137 137 139 140 144 142 143 144 150 143 141 137 137 135 136 138 142 145 150 154 161 160 163 169 181 177 180 182 192 190 194 195 202 200 199 199 200 199 198 198 198 195 192 193 195 197 200 201 204 
88 93 91 97 98 104 104 111 112 120 124 126 127 131 132 134 137 143 144 145 144 145 145 144 144 144 143 138 140 139 140 143 142 147 150 156 154 160 161 167 165 173 176 180 181 188 190 192 195 201 202 201 201 202 202 200 199 198 197 197 197 199 199 202 202 
94 96 99 98 96 101 103 107 106 116 124 126 130 133 139 137 139 145 152 150 148 148 147 146 145 144 141 141 143 141 143 143 144 148 155 154 153 156 157 159 160 166 172 175 179 184 190 190 193 197 204 203 204 204 206 202 201 198 195 198 200 201 203 202 202 
99 99 100 101 101 103 104 108 108 117 118 125 128 133 134 137 140 147 148 156 156 152 151 149 149 146 146 143 140 140 142 143 145 147 149 154 156 157 155 155 156 162 164 172 174 180 181 187 189 193 197 205 205 207 205 204 204 201 201 201 200 202 202 204 202 
106 105 106 104 104 108 110 109 106 116 125 127 132 134 139 138 140 146 152 156 164 158 157 156 157 152 150 145 139 142 145 145 149 148 151 154 160 157 158 155 153 160 165 169 173 177 181 184 186 193 200 202 206 205 206 205 206 204 204 204 205 203 203 203 201 
110 109 107 106 110 115 113 113 116 119 121 129 129 134 135 139 141 146 148 154 156 162 162 162 160 157 155 148 150 147 145 146 145 146 148 152 152 154 157 157 159 163 162 168 169 176 178 182 186 195 194 197 197 201 202 204 205 205 207 208 205 204 204 206 205 
115 112 109 113 116 119 122 122 125 127 131 131 129 136 138 140 140 147 153 156 157 160 163 164 165 161 158 155 156 151 149 146 144 145 148 150 151 154 157 158 161 163 165 168 170 177 183 184 189 193 198 196 193 197 200 204 207 208 211 207 206 204 204 206 208 
118 116 119 121 120 124 125 129 130 133 133 135 139 143 140 143 144 149 151 160 159 161 163 167 167 164 163 160 158 155 152 146 147 145 148 152 154 157 157 160 161 163 167 172 174 179 179 185 188 192 193 196 197 196 199 205 207 210 207 205 206 204 206 206 209 
125 123 124 125 127 129 133 134 137 137 140 142 149 147 148 148 147 153 158 160 164 163 168 168 175 168 166 163 161 157 154 151 148 149 151 154 161 158 161 161 164 168 173 176 181 181 185 187 194 193 195 196 198 198 202 205 214 209 208 206 205 207 209 210 213 
130 128 129 131 131 133 134 137 137 140 141 144 146 151 153 155 155 158 156 160 159 162 163 165 166 170 170 165 164 161 159 157 155 153 152 155 154 156 158 160 164 172 172 178 177 181 183 187 187 191 192 195 196 198 198 201 202 206 208 207 209 211 211 214 213 
137 135 135 136 139 139 141 140 139 143 146 148 151 155 159 159 159 160 162 160 156 160 163 162 162 166 170 166 165 162 159 158 159 155 155 155 154 156 157 161 166 171 177 177 176 181 185 186 187 190 191 194 196 198 198 199 199 202 205 207 210 211 215 213 213 
141 141 141 140 142 145 144 145 146 149 150 153 156 160 161 165 164 164 163 162 162 162 159 159 159 163 162 165 166 163 162 160 159 156 157 158 157 157 158 163 163 170 172 180 182 185 183 186 189 192 193 197 198 201 198 198 197 200 202 206 206 210 210 211 212 
147 145 146 147 150 149 150 150 152 155 159 161 165 167 168 169 169 169 168 165 162 162 160 158 154 159 161 163 166 162 162 161 162 157 157 157 159 159 161 161 163 168 175 179 187 185 187 189 194 195 198 200 203 200 200 197 195 199 203 203 206 208 211 211 213 
149 149 150 153 152 153 154 155 157 163 164 168 170 175 176 177 177 178 174 169 168 166 162 160 161 161 160 162 160 158 159 160 158 156 156 154 156 160 158 158 161 166 168 176 177 184 187 190 193 198 199 202 197 196 198 197 198 198 198 200 202 207 208 209 210 
153 153 152 155 156 157 158 160 163 167 173 174 178 183 189 186 185 184 182 176 172 168 162 163 166 164 165 162 159 157 155 155 154 153 154 154 154 157 158 158 159 164 168 172 175 183 190 193 197 199 204 199 195 195 197 196 198 197 199 199 201 204 210 209 210 
157 159 158 159 160 161 163 167 166 171 173 180 183 190 189 194 195 191 186 181 180 174 171 167 165 165 166 164 163 159 157 154 150 148 152 155 154 156 155 159 160 164 166 172 178 186 187 195 198 200 198 198 197 192 192 193 193 194 194 196 197 199 201 207 206 
161 162 162 164 169 168 169 170 171 174 178 183 191 192 195 198 207 196 190 185 183 178 173 170 168 170 170 168 165 162 159 154 143 149 151 153 153 154 154 158 160 164 169 174 187 187 194 198 209 200 198 196 196 192 190 189 188 190 191 192 194 196 199 200 203 
167 166 167 168 169 173 172 173 174 178 179 183 185 194 193 196 194 196 194 187 187 183 180 174 176 177 175 175 172 168 164 160 160 154 154 155 153 154 155 159 159 165 165 171 174 184 189 194 192 196 195 192 192 191 190 186 188 188 187 189 189 192 192 193 195 
174 174 176 175 176 175 173 176 179 181 185 186 188 192 194 192 191 190 188 187 189 184 182 181 183 183 182 178 175 170 165 166 168 164 164 158 155 155 155 157 159 162 164 170 173 182 192 187 184 186 186 187 190 189 189 187 188 186 185 186 187 187 190 189 190 
179 180 180 182 181 179 181 182 182 184 185 190 191 192 190 189 187 185 186 184 184 182 186 188 189 190 186 181 180 173 174 172 171 172 167 160 159 156 156 157 158 162 164 172 173 179 176 178 180 180 181 182 184 186 186 185 185 186 184 183 182 182 183 184 184 
185 186 187 188 189 187 189 189 190 190 190 193 197 193 191 187 183 185 186 184 182 184 186 190 196 193 191 186 185 180 177 176 178 174 170 163 159 158 158 158 159 162 166 170 177 174 175 173 172 175 179 180 184 183 184 182 182 182 181 179 179 180 181 180 178 
190 193 192 194 192 194 196 198 196 197 195 195 193 193 191 186 188 186 187 187 187 187 189 193 192 196 194 190 189 185 184 180 178 177 173 165 166 161 159 159 159 161 163 166 165 168 168 168 169 172 174 176 177 181 181 180 181 179 178 176 177 178 178 180 178 
194 196 198 196 196 200 205 203 203 200 199 197 196 192 191 189 190 189 193 189 188 190 194 195 196 196 195 191 192 188 188 182 180 176 172 168 169 162 159 159 160 161 167 164 162 163 161 162 164 169 176 174 175 179 182 181 183 180 178 176 175 175 178 177 177 
199 200 198 198 201 205 204 209 207 203 202 200 196 191 192 192 190 189 190 191 192 193 194 200 199 199 195 190 190 187 186 183 180 176 173 167 165 161 161 158 158 158 159 162 163 162 160 158 158 164 165 171 174 179 178 179 180 180 179 175 174 172 173 174 173 
205 202 203 202 206 205 208 210 214 207 204 200 196 193 192 192 190 191 192 192 193 194 197 200 205 198 195 191 189 186 182 180 176 173 169 166 161 159 157 157 157 158 158 160 162 160 158 156 152 159 164 167 172 175 179 179 182 179 178 175 172 170 171 169 170 
203 202 204 204 203 204 205 209 207 207 207 202 201 196 197 195 195 194 193 193 193 195 196 199 196 195 196 193 192 187 184 180 178 171 171 168 164 158 159 159 157 159 157 158 157 158 159 159 159 159 158 164 165 172 174 177 176 176 176 175 172 167 165 164 163 
204 203 205 204 203 203 202 204 204 205 207 203 204 200 202 199 199 196 195 193 194 195 198 197 196 195 194 194 195 188 183 180 179 172 170 166 164 160 160 158 156 156 157 158 156 158 159 160 162 159 159 161 162 169 175 173 172 172 174 170 168 163 158 157 157 
202 202 204 206 206 204 203 203 202 203 201 199 200 200 201 201 201 199 197 193 194 194 196 198 198 196 195 194 192 188 186 180 177 170 168 162 160 158 159 159 157 155 158 161 160 160 160 161 159 159 161 162 163 168 165 169 167 166 166 165 164 159 157 152 152 
202 204 207 207 209 205 205 202 203 201 199 198 194 198 201 202 204 200 198 196 195 196 198 199 201 196 195 193 192 188 184 179 177 170 164 159 152 155 156 157 156 157 161 161 162 162 163 161 160 161 164 164 163 165 164 164 160 161 161 160 159 155 152 149 149 
203 206 205 206 205 204 203 200 201 201 201 200 200 199 199 202 201 202 201 200 199 198 198 199 198 195 195 193 192 188 185 178 176 169 166 159 159 154 153 157 157 158 159 161 161 163 163 162 164 163 164 167 165 165 164 163 162 159 159 158 156 152 149 144 144 
202 204 206 204 204 202 199 200 201 201 202 202 205 203 204 203 201 202 200 200 201 200 200 200 200 197 194 193 193 188 184 179 175 168 160 159 160 156 151 154 157 158 161 161 162 164 166 167 168 168 169 168 166 167 167 165 164 160 160 157 154 150 144 141 141 
203 203 202 201 202 201 201 201 199 200 201 203 204 205 206 208 208 205 202 200 201 203 202 203 203 199 198 195 193 189 186 181 177 168 166 159 160 159 157 153 155 159 159 162 164 167 168 172 174 174 172 170 170 170 168 169 166 160 160 158 155 150 146 138 137 
204 203 202 202 203 201 199 199 197 199 201 203 206 205 206 209 215 208 204 202 203 203 203 206 212 203 198 196 195 189 184 180 175 169 164 162 163 159 157 156 158 159 160 163 168 169 172 176 184 178 176 172 171 170 170 169 168 162 158 156 153 148 143 137 132 
