95 91 91 91 93 95 100 104 113 111 112 112 113 118 123 128 136 133 135 136 139 140 144 150 160 156 158 158 161 159 162 166 174 167 167 164 164 161 162 162 166 165 166 166 170 173 176 179 185 184 186 188 193 191 193 193 196 193 194 194 197 197 201 204 211 
91 88 89 90 90 92 94 101 102 108 110 112 113 118 119 125 124 130 132 134 135 139 140 146 146 152 154 155 155 156 159 162 160 162 165 163 161 158 159 160 161 163 164 164 167 173 174 178 177 182 183 186 186 188 190 191 190 191 192 193 193 194 196 201 204 
90 88 86 88 90 91 93 97 99 104 109 110 112 115 120 119 118 124 129 131 134 136 139 141 142 147 150 153 154 155 158 157 155 158 163 160 159 156 156 157 159 160 164 164 167 171 175 175 175 178 179 183 185 187 189 187 187 188 190 191 191 192 195 197 200 
89 88 86 86 87 90 91 96 97 101 102 107 108 112 112 115 116 120 122 128 130 135 136 140 141 145 146 153 154 155 153 153 153 154 154 156 155 152 154 156 155 156 159 164 165 169 169 173 174 177 177 182 183 186 183 183 184 185 186 190 190 190 191 195 196 
89 85 83 85 87 89 91 95 100 101 104 105 106 108 111 111 111 117 123 125 129 132 137 139 143 144 147 151 158 153 153 150 149 149 152 151 151 150 152 153 154 155 158 161 166 166 169 171 173 174 177 180 187 183 180 180 179 181 184 186 191 188 191 192 195 
85 82 84 85 86 90 91 96 95 101 101 103 102 103 105 108 110 116 117 121 123 130 132 136 138 141 144 148 146 148 148 146 146 144 145 147 146 145 147 150 150 153 153 157 158 163 165 169 169 172 173 177 176 179 180 178 178 179 179 180 180 182 185 189 190 
86 82 81 84 88 90 94 94 95 98 102 101 101 102 105 106 107 113 120 119 121 128 136 136 138 141 146 143 141 142 143 141 142 141 142 143 143 143 145 145 146 148 151 153 154 160 165 166 167 170 172 173 174 175 176 176 178 177 178 176 176 178 181 185 187 
84 81 83 84 84 89 89 91 94 97 96 99 100 101 101 104 106 110 112 117 120 126 127 136 138 139 138 139 140 137 137 135 135 136 137 140 140 141 139 139 142 145 146 151 154 159 160 166 166 169 169 172 172 173 172 173 172 174 174 173 175 175 178 183 184 
86 83 81 83 85 87 88 91 97 95 95 96 98 98 101 102 106 109 115 116 120 123 128 133 144 137 139 137 140 136 135 132 128 131 133 135 138 137 136 137 139 142 145 150 157 158 162 164 167 167 169 171 173 171 169 169 168 171 173 173 174 176 180 182 184 
84 84 83 83 83 86 86 89 88 93 93 94 93 93 95 99 101 107 109 114 114 118 120 125 125 129 132 132 134 134 133 130 130 127 127 129 131 135 135 136 137 139 142 147 149 157 159 162 162 166 167 170 169 171 170 169 170 170 171 174 174 175 177 182 182 
83 82 82 82 84 84 84 85 85 88 91 90 90 90 91 96 99 104 110 110 112 115 120 118 118 122 126 128 132 131 131 129 128 127 127 128 129 132 133 135 138 139 144 147 150 155 160 160 161 164 167 168 168 169 170 170 172 171 175 174 174 176 180 179 180 
82 82 81 80 82 83 83 83 83 85 85 88 87 88 90 95 96 102 102 107 109 111 111 112 113 115 118 123 125 128 127 127 127 126 127 128 128 131 131 135 135 138 142 148 151 156 156 160 161 163 163 167 167 167 167 169 169 169 171 173 174 175 175 177 177 
82 80 81 80 84 82 82 82 82 83 84 84 84 87 90 92 96 99 103 106 111 110 112 109 106 112 118 120 124 123 124 123 125 125 127 127 129 129 130 133 136 139 144 149 156 156 159 160 162 162 164 166 168 165 164 166 168 168 172 172 174 173 175 174 175 
77 76 77 77 78 81 81 82 82 83 82 82 83 87 88 90 91 96 98 103 103 107 108 108 110 111 111 116 115 118 119 118 120 123 124 126 126 128 130 133 135 141 143 149 148 155 157 161 161 162 164 165 163 163 163 163 164 166 168 171 170 170 171 172 172 
75 74 76 74 75 77 79 80 82 81 81 81 82 86 92 90 91 94 97 99 100 104 107 106 109 110 113 112 110 113 117 115 117 119 123 123 124 128 131 134 138 143 149 148 147 154 159 161 163 164 167 164 162 160 159 161 164 165 169 169 169 170 171 170 169 
69 69 71 71 74 76 76 78 80 80 81 79 81 85 85 90 91 94 94 97 98 102 101 103 105 108 108 110 111 110 110 111 111 114 117 122 125 129 129 135 138 144 144 150 152 155 155 161 164 165 164 164 163 159 160 160 160 164 164 167 168 170 169 169 168 
65 67 70 70 73 74 77 78 85 82 83 80 81 83 85 88 91 92 94 95 99 98 100 101 105 104 106 108 112 109 109 107 103 110 116 120 127 127 130 135 144 144 147 149 154 155 160 163 172 166 166 163 163 160 160 159 157 161 164 166 169 168 169 168 168 
64 64 66 69 68 70 72 74 75 81 81 79 81 81 84 88 87 90 90 93 92 93 95 99 98 100 103 106 105 107 107 106 107 109 108 116 117 125 128 133 133 141 142 145 146 152 154 159 158 163 165 162 163 160 160 159 160 162 161 164 163 166 166 167 167 
65 65 67 66 66 69 74 71 71 76 81 79 81 83 87 86 85 87 88 89 89 89 92 94 96 98 102 102 101 103 105 104 107 107 107 111 112 121 129 129 130 135 140 140 141 147 154 152 152 157 163 162 165 161 161 160 161 161 162 162 161 163 165 165 166 
64 64 63 63 65 67 66 68 69 72 72 76 79 83 82 85 85 85 85 87 86 85 87 90 91 95 96 100 101 102 101 101 103 105 106 110 113 121 120 126 128 132 133 137 139 144 142 144 147 152 153 161 161 160 161 161 161 161 161 162 162 163 162 164 165 
63 62 63 63 66 64 65 65 65 68 71 74 79 79 81 82 84 83 84 84 86 84 84 86 87 90 93 97 102 100 102 100 101 102 105 109 117 119 122 124 126 129 133 134 137 139 141 140 140 145 149 155 163 159 160 159 161 160 160 160 161 162 163 163 165 
58 60 60 61 61 61 63 63 63 64 65 70 70 75 77 80 79 81 80 80 81 81 83 84 83 85 89 95 94 97 99 99 100 100 102 106 108 117 119 123 123 128 129 132 132 135 134 137 137 140 141 147 149 156 158 157 159 161 159 157 159 161 161 163 163 
53 55 57 58 59 60 63 61 61 61 61 65 67 72 76 75 76 77 78 79 82 81 82 81 81 85 90 91 93 96 100 100 102 102 103 105 107 114 119 121 122 127 132 130 129 130 130 132 133 136 140 144 147 153 157 158 161 160 159 157 158 158 160 160 161 
50 52 52 55 56 57 56 57 57 58 59 63 65 70 68 71 74 76 77 79 79 80 79 77 80 84 84 88 92 96 97 102 102 103 104 107 109 114 115 122 125 129 127 130 130 129 129 129 129 134 137 144 147 153 153 159 159 159 157 156 155 153 154 157 158 
46 48 51 52 55 53 51 52 53 55 57 61 67 66 67 69 73 74 77 78 80 79 79 77 77 81 84 89 95 96 99 100 103 103 106 108 114 115 118 122 131 129 130 129 130 129 129 127 126 132 138 143 151 151 154 156 162 157 155 153 153 151 151 153 156 
46 46 47 49 48 49 48 48 50 53 53 57 58 63 65 68 68 71 74 78 77 78 78 78 79 81 83 89 89 95 96 98 99 101 104 108 109 114 116 119 120 126 127 126 128 128 127 125 128 132 134 142 141 147 148 151 149 152 152 149 149 148 148 148 149 
47 46 48 46 44 43 43 45 48 49 50 53 55 60 63 66 68 71 76 76 76 77 78 79 81 82 85 87 88 95 99 98 99 102 106 107 109 113 118 117 118 122 127 126 128 127 126 127 129 133 138 138 138 143 146 143 142 143 145 144 146 144 144 143 144 
45 44 44 43 42 39 41 44 44 46 49 53 55 60 60 66 67 72 72 76 78 77 77 80 79 82 84 88 93 98 96 99 99 102 103 107 107 111 111 114 116 119 121 126 127 127 127 129 130 134 134 137 140 141 138 136 136 135 137 139 139 139 139 138 138 
46 44 43 42 40 40 40 43 45 47 52 53 57 59 62 65 69 72 75 78 85 80 78 79 79 82 86 91 101 99 100 98 97 101 104 106 107 109 112 113 116 118 123 125 129 126 125 128 132 134 138 139 145 139 137 132 128 131 133 134 135 134 134 133 132 
45 45 44 42 42 42 42 44 44 47 49 53 54 58 60 63 67 73 74 78 76 80 81 80 81 83 84 90 90 98 99 98 101 103 103 106 105 106 108 112 113 117 118 122 122 124 126 128 130 135 136 138 135 136 135 130 132 129 127 130 129 128 129 129 129 
45 45 46 43 42 42 43 44 47 48 53 53 53 58 62 66 70 73 78 76 74 77 80 80 83 84 87 88 89 96 102 102 104 106 109 107 106 107 110 110 112 115 118 119 120 122 124 128 132 135 139 135 130 132 132 131 132 127 123 125 126 126 127 126 126 
43 44 43 42 42 41 42 44 45 47 50 55 57 61 63 71 72 74 73 76 76 74 75 79 80 84 84 87 90 96 97 104 106 108 107 108 109 109 108 108 110 113 114 118 119 120 123 129 131 135 133 133 132 130 129 130 129 127 126 122 123 123 122 122 121 
41 40 41 40 41 40 41 44 48 48 51 54 61 62 68 72 84 75 75 74 77 74 74 77 80 81 83 86 90 94 99 103 113 108 109 109 111 109 109 108 109 110 113 116 121 121 125 128 137 133 132 129 128 127 127 126 128 125 123 122 124 121 118 117 116 
37 37 36 37 38 40 41 44 43 48 49 51 54 61 63 68 66 70 72 71 72 73 73 75 76 80 82 86 86 91 92 98 98 104 107 108 107 107 107 106 107 107 109 113 114 119 120 124 123 128 128 126 127 126 124 122 124 124 123 122 120 119 118 115 115 
34 34 32 34 37 38 41 41 42 45 50 50 53 58 64 61 59 63 64 68 71 70 70 74 77 79 83 84 85 88 90 92 92 98 105 104 104 104 107 106 107 106 107 110 112 115 119 118 117 120 122 123 125 123 121 121 123 121 119 119 119 117 115 115 114 
34 33 32 30 31 34 37 40 40 41 44 49 50 54 53 55 56 59 61 66 66 69 71 75 75 78 80 85 85 87 87 89 91 94 95 100 101 101 103 106 105 105 106 109 109 112 111 113 114 116 117 121 121 121 121 121 120 120 119 117 116 116 116 116 116 
37 33 31 30 30 34 38 38 39 40 44 46 49 49 50 50 49 56 60 63 67 68 71 74 78 78 82 83 86 86 90 90 92 93 95 97 99 100 102 102 104 103 105 106 109 109 109 109 109 111 115 118 122 119 118 120 121 119 118 116 115 115 116 116 119 
34 32 31 30 32 35 35 36 37 39 40 43 42 44 47 49 51 56 56 60 61 67 69 73 72 75 77 79 81 84 86 89 90 92 93 95 95 98 99 99 100 100 102 103 105 107 108 108 107 107 109 114 113 115 118 120 119 119 118 114 115 115 114 114 116 
33 31 28 31 34 36 39 36 37 37 39 41 40 43 46 49 51 56 62 59 60 65 70 71 72 74 77 79 82 84 88 88 89 91 94 93 93 96 100 99 100 99 102 102 105 105 108 106 106 106 108 109 110 114 118 119 120 119 118 115 114 114 114 114 117 
33 33 33 33 32 36 35 35 36 36 38 42 42 43 45 50 51 56 55 57 61 64 65 71 73 75 75 79 80 84 85 89 89 90 90 92 93 95 95 98 97 97 99 100 101 102 103 103 103 104 106 107 110 114 115 119 120 120 117 115 115 115 114 113 115 
34 32 33 32 34 34 35 35 37 37 40 42 46 45 48 49 55 54 56 57 61 62 66 69 77 74 74 77 82 83 86 87 89 89 90 91 94 93 96 95 95 97 100 100 102 102 103 101 98 102 107 109 114 114 117 118 123 117 116 114 114 113 115 114 116 
31 31 31 30 32 33 33 33 35 38 39 41 42 46 45 46 47 51 52 55 56 59 60 64 64 70 73 75 76 83 84 86 86 87 87 89 89 90 92 94 96 98 97 98 99 102 101 101 101 101 103 108 108 113 113 115 113 112 114 111 112 111 112 114 115 
28 29 32 31 32 32 33 33 35 37 40 40 41 43 45 44 44 47 49 52 54 55 57 59 59 65 71 73 75 80 85 84 85 86 85 88 90 90 91 94 97 98 100 99 99 100 100 100 102 102 108 105 104 109 113 111 110 109 110 111 113 112 112 114 116 
26 26 28 30 31 33 32 33 34 37 38 41 42 42 41 41 41 44 45 50 51 53 54 57 58 63 65 72 74 79 79 83 85 87 88 90 90 91 93 96 96 99 99 100 100 99 98 97 98 100 101 102 106 108 107 109 108 107 109 111 111 113 114 117 118 
25 25 28 28 30 31 33 33 34 36 40 41 45 41 40 39 36 40 45 49 55 53 54 56 58 61 67 70 76 77 80 81 85 87 90 91 95 94 97 98 101 99 101 100 102 99 98 98 98 99 101 102 106 106 107 106 103 106 108 109 110 112 115 118 122 
23 22 24 27 28 30 31 33 33 36 36 40 38 37 39 39 39 38 41 48 48 51 54 56 56 59 62 68 68 75 76 79 82 88 89 92 92 96 98 101 99 98 99 100 99 99 100 99 98 98 100 102 102 106 106 106 107 107 106 108 109 113 115 120 122 
23 22 23 25 27 29 31 31 31 34 37 37 37 37 37 37 39 39 43 46 48 51 56 56 56 59 64 64 63 71 77 79 83 87 91 90 92 96 102 101 100 99 99 98 98 99 101 100 100 100 102 102 102 105 107 106 108 108 108 108 108 113 119 120 124 
21 22 23 24 25 28 28 29 30 33 33 36 37 37 35 34 34 36 41 48 49 51 52 56 57 60 59 61 64 69 71 80 82 87 86 88 92 97 97 102 102 102 100 98 99 99 99 101 102 103 102 103 103 105 105 106 108 109 108 109 110 115 115 120 124 
20 21 23 24 26 28 29 29 28 30 32 35 38 35 33 32 29 36 43 48 54 53 55 55 57 58 61 61 64 68 73 77 84 84 86 88 92 95 99 100 104 102 102 100 101 99 99 101 103 103 104 104 104 106 108 107 110 109 109 109 111 115 119 121 128 
20 22 22 24 25 29 29 30 29 29 31 34 34 35 36 35 36 39 40 47 47 52 55 55 55 56 58 61 62 66 67 73 74 81 84 87 88 93 94 98 98 101 101 99 99 98 100 101 101 103 104 105 105 107 107 107 108 109 109 110 112 115 116 120 124 
19 21 24 24 26 28 32 30 31 32 33 35 35 37 37 38 39 41 45 46 46 54 61 58 57 56 58 60 61 64 68 69 70 77 85 85 87 91 96 95 94 98 101 99 100 99 100 100 101 103 105 105 107 108 110 110 110 109 108 111 114 116 119 122 125 
19 19 21 24 25 28 28 30 33 35 35 38 39 41 40 42 42 43 44 48 52 57 55 59 58 56 58 60 61 64 64 66 67 72 75 81 85 89 90 94 95 97 96 98 98 98 99 100 101 104 104 106 106 108 110 113 113 112 112 114 114 118 119 124 125 
19 20 22 23 24 28 31 32 35 37 39 40 45 43 44 44 47 46 49 53 60 59 61 59 57 58 60 60 62 63 65 65 64 71 78 80 85 88 90 92 95 94 96 96 96 97 98 99 101 103 105 105 106 108 112 113 117 115 115 115 117 118 120 124 128 
20 20 20 23 25 29 30 33 35 39 40 41 42 45 45 45 46 48 51 55 55 60 61 61 61 60 58 58 60 63 64 66 67 71 72 79 81 88 89 92 91 91 93 95 96 97 96 99 99 102 103 106 106 109 110 112 113 116 117 116 118 119 122 127 128 
21 21 21 24 27 31 35 37 39 42 45 44 44 46 48 48 50 51 55 56 57 60 65 64 64 62 60 60 60 63 66 66 67 72 76 79 80 88 94 92 91 92 93 95 96 96 95 97 98 101 105 106 106 110 115 114 114 117 119 120 123 124 127 128 130 
21 22 23 26 28 33 35 41 43 45 44 46 47 47 47 51 51 53 54 57 58 61 63 67 68 66 65 64 64 65 65 68 70 76 77 83 86 92 91 94 96 96 96 97 96 97 96 96 96 100 102 107 108 110 112 118 120 121 121 125 125 127 127 130 131 
22 23 25 26 32 34 40 43 51 47 48 48 50 48 49 50 53 54 57 59 62 64 68 69 74 68 67 66 67 68 69 71 73 79 84 88 95 95 98 98 102 100 101 100 100 99 97 97 96 100 103 106 111 112 117 120 126 124 125 127 129 129 130 131 135 
22 23 23 24 27 32 36 40 41 46 47 48 47 46 48 50 51 53 56 60 60 65 66 69 68 68 69 69 71 73 73 75 77 83 84 92 91 97 98 100 100 102 103 103 103 103 102 100 100 102 101 106 107 113 115 119 119 125 127 129 128 130 130 132 133 
22 22 23 24 27 32 40 39 39 41 44 46 48 46 47 49 52 55 61 60 61 65 70 68 67 67 67 71 75 76 79 79 82 86 91 93 94 98 102 100 100 102 105 106 107 106 107 104 103 103 103 106 108 113 117 117 116 122 129 129 130 129 130 131 133 
22 23 23 25 26 32 33 38 38 38 40 45 45 45 47 48 50 54 56 60 63 65 66 69 69 69 70 73 74 79 79 83 85 88 91 98 99 101 99 99 101 103 105 109 109 110 108 107 107 104 106 109 111 115 114 117 117 119 122 130 130 129 130 132 133 
23 23 24 24 25 31 36 37 37 39 41 44 46 47 50 50 53 56 60 63 69 67 70 70 70 71 74 76 79 79 81 86 91 92 96 100 107 103 103 101 100 104 108 110 115 111 111 109 110 108 109 112 117 116 117 116 116 119 125 128 132 131 132 132 134 
22 24 23 22 25 31 33 38 38 42 43 47 46 48 50 52 54 58 60 66 64 67 69 71 71 73 74 78 77 79 83 89 90 96 98 102 101 104 105 105 105 106 106 110 109 111 111 109 111 112 113 114 113 116 116 117 118 119 121 126 127 131 132 133 133 
21 22 24 24 26 32 39 39 39 43 48 49 51 52 56 56 57 61 65 66 66 68 72 71 71 74 77 79 80 82 86 91 95 99 105 103 103 105 106 106 107 108 110 109 109 110 112 112 114 114 116 115 115 116 116 119 122 122 123 125 126 130 134 132 132 
20 22 23 26 28 33 34 42 44 46 47 52 53 56 57 61 62 64 64 67 68 70 69 70 72 75 76 81 82 86 88 95 97 101 101 104 107 108 107 107 109 111 109 108 110 111 111 113 113 116 116 117 117 118 118 122 124 126 126 127 128 131 130 132 131 
17 20 23 26 29 33 38 44 52 50 53 54 59 58 61 63 69 67 68 69 72 71 73 72 74 76 79 82 87 89 94 98 107 104 106 107 113 110 111 111 115 112 110 110 112 111 112 113 114 115 117 117 119 119 120 124 132 129 130 129 132 131 132 131 130 
