128 129 130 130 131 133 136 138 143 140 140 139 141 140 140 140 141 141 142 144 145 147 149 147 148 144 143 141 141 138 138 139 141 136 134 134 136 133 131 129 126 125 124 122 122 119 116 116 116 112 109 105 101 101 101 99 97 93 89 86 84 82 81 79 78 
129 130 130 129 130 132 132 135 135 138 139 137 139 141 140 141 140 141 143 145 145 147 147 146 145 141 141 139 138 137 137 138 136 134 135 134 134 133 132 130 129 126 124 122 121 119 118 116 114 111 110 107 106 101 101 99 97 93 90 86 85 81 82 80 79 
131 131 133 132 132 132 132 132 132 134 138 137 139 139 140 141 141 143 148 146 146 148 151 146 144 140 137 136 136 135 134 136 136 134 133 134 135 132 131 130 130 126 124 121 121 118 118 115 113 110 107 107 108 104 103 100 98 93 87 86 87 83 83 81 80 
131 130 132 134 134 133 132 129 130 131 134 137 136 136 139 142 143 145 145 148 149 148 147 145 145 141 139 135 135 135 136 136 136 135 134 134 133 132 131 130 129 126 124 119 119 116 117 115 114 111 110 106 106 105 104 102 101 96 93 87 85 84 83 82 82 
133 133 134 134 137 134 134 131 129 132 136 136 135 137 139 142 145 144 146 148 153 150 150 147 145 142 139 137 136 135 137 137 139 135 134 134 136 131 128 128 129 123 121 119 118 117 117 114 115 112 111 108 107 104 103 102 104 97 92 88 84 84 82 83 86 
134 135 134 134 134 134 136 135 135 135 135 138 138 140 141 143 142 143 145 146 147 150 151 149 147 143 141 138 137 135 136 137 135 134 133 132 131 129 129 126 123 119 120 118 118 117 115 112 113 113 112 109 107 104 103 102 101 98 96 89 90 86 84 82 83 
134 135 136 136 137 137 138 138 139 138 139 140 141 143 146 144 143 144 148 146 147 150 152 150 149 143 139 138 139 136 136 134 133 131 130 129 129 126 125 122 120 117 115 116 118 115 114 112 113 111 112 108 107 102 100 101 102 98 95 92 94 88 86 84 83 
134 135 136 138 138 139 139 140 139 139 140 142 143 145 144 145 144 143 144 146 149 151 149 150 149 143 143 139 137 134 134 131 132 130 128 127 125 124 122 119 118 116 116 115 113 111 112 111 110 108 108 106 104 100 102 100 101 99 96 92 90 88 88 85 84 
134 136 139 139 141 140 140 140 139 140 142 144 146 146 147 145 144 144 146 148 153 150 150 149 152 145 142 139 137 135 134 131 132 128 125 124 121 119 117 116 115 115 114 113 113 110 109 109 110 106 105 102 101 99 101 101 108 98 92 90 87 86 85 84 84 
138 138 139 139 140 142 141 142 141 140 142 146 145 146 146 146 146 146 146 148 146 148 147 145 146 145 144 139 138 135 133 129 130 128 127 124 121 116 117 116 116 115 114 113 112 108 109 108 106 104 102 97 98 97 97 97 96 95 95 90 89 86 85 84 84 
142 142 145 142 141 143 142 143 144 143 146 146 146 147 148 146 145 146 147 146 144 145 144 144 145 143 140 138 138 134 132 130 129 127 127 123 122 117 115 116 118 116 115 113 113 109 107 105 104 100 98 95 95 94 93 93 94 91 88 89 91 86 84 83 84 
144 145 144 144 147 147 146 147 146 145 146 146 148 149 148 148 148 148 147 146 147 145 144 144 143 142 139 135 133 132 132 130 129 126 124 121 119 116 117 117 117 116 114 112 111 108 105 102 100 97 96 92 92 92 92 91 90 89 88 87 85 85 85 82 83 
146 146 147 149 153 151 151 149 150 149 150 149 152 151 152 151 150 150 151 149 150 146 143 143 143 139 136 132 128 129 130 129 129 124 121 118 113 114 115 116 121 115 112 111 111 105 100 98 97 93 91 88 87 89 90 89 90 87 85 83 80 82 83 83 85 
148 149 150 152 151 153 153 151 152 152 151 151 152 154 155 155 153 151 151 152 149 147 146 144 141 137 134 130 130 126 127 127 125 122 121 118 117 114 112 112 112 112 113 110 108 103 100 94 93 89 87 83 86 87 86 85 86 86 85 81 83 83 83 83 84 
151 152 155 153 153 154 157 154 155 153 152 152 153 155 160 158 157 155 154 151 149 146 146 142 140 135 129 130 130 127 127 124 121 120 117 117 118 114 110 111 112 111 112 109 108 100 93 90 89 84 79 81 85 85 88 85 83 84 84 82 84 83 86 85 86 
152 153 153 154 154 155 154 155 155 154 153 153 153 156 157 162 163 159 155 151 149 145 143 140 139 135 134 131 129 126 126 123 122 120 119 118 116 115 114 110 110 108 108 107 104 96 95 85 83 80 81 80 80 83 83 84 84 83 82 82 81 81 83 85 86 
153 153 154 154 155 155 156 155 154 153 151 151 152 155 159 162 171 160 155 150 148 144 140 138 136 134 132 131 130 127 125 124 121 121 120 119 117 116 116 113 112 109 107 105 103 97 91 85 76 79 78 79 79 81 83 82 83 82 81 80 78 81 84 85 87 
154 155 154 155 155 154 155 156 155 153 151 149 152 155 153 156 155 156 155 147 148 143 142 139 139 136 135 133 132 130 129 127 126 123 122 121 120 117 117 116 114 109 107 105 104 100 98 91 91 85 82 81 81 81 81 81 81 81 80 79 80 82 81 84 85 
154 155 156 155 157 156 158 157 156 152 149 150 153 153 152 151 150 150 148 146 147 142 140 139 141 137 135 134 134 132 131 130 130 126 124 123 123 120 121 118 115 109 104 105 106 102 100 97 98 92 89 86 86 84 85 82 81 80 79 80 81 81 81 82 84 
154 155 154 155 157 157 157 158 157 152 152 151 151 152 150 149 148 146 144 143 141 138 140 139 139 139 137 135 135 135 134 133 132 130 127 124 122 119 120 120 117 110 110 106 104 103 103 100 99 96 94 90 89 87 85 81 82 81 81 81 81 81 81 82 83 
155 155 155 157 163 159 158 159 160 155 152 152 153 149 147 147 147 143 140 139 137 137 138 138 140 137 136 135 137 136 136 135 137 132 127 125 122 121 121 119 119 114 111 107 105 104 103 102 101 97 93 92 92 88 86 83 83 82 82 81 83 81 81 82 85 
155 156 156 158 157 160 161 160 159 158 157 154 151 147 147 146 145 141 141 138 138 137 137 137 136 136 136 135 135 136 135 134 135 134 133 129 127 123 121 118 118 116 114 108 109 105 105 104 102 100 98 94 92 90 88 85 84 83 82 81 80 81 80 81 82 
155 155 157 157 158 160 162 161 162 158 157 153 152 148 145 145 146 141 139 137 138 136 137 134 133 133 134 133 135 135 135 134 136 134 134 130 129 124 123 120 120 116 113 111 113 109 109 105 104 100 100 95 94 89 86 83 83 81 82 80 78 78 78 80 82 
153 154 155 158 158 160 159 160 161 158 156 151 151 148 148 146 144 141 140 136 134 133 132 130 130 130 129 129 132 134 133 133 134 134 131 128 127 124 124 122 120 116 115 110 111 111 109 106 104 98 97 94 92 87 86 81 80 79 80 80 79 77 78 79 82 
150 152 155 156 158 159 160 162 167 159 155 152 149 147 146 145 144 141 138 135 131 130 129 126 124 125 127 128 131 130 132 132 137 131 128 126 124 122 121 120 120 115 114 111 111 110 108 105 104 98 93 90 87 85 83 79 75 77 79 79 80 78 81 81 85 
151 152 152 155 155 158 159 161 158 156 158 154 152 148 146 144 144 142 140 136 134 127 126 124 124 122 123 126 125 126 128 128 127 126 126 124 123 122 121 120 117 113 114 112 112 110 108 104 103 97 95 89 89 85 83 80 80 77 77 79 78 77 79 80 82 
152 152 152 153 155 156 161 158 156 155 155 153 153 148 145 144 144 141 140 136 135 128 122 123 124 121 121 122 122 124 128 125 123 121 119 120 121 119 119 117 116 113 111 112 114 110 108 105 104 97 90 89 89 84 81 81 83 80 79 78 78 78 80 80 82 
153 152 151 152 152 153 154 155 155 153 152 152 150 147 146 144 142 138 138 135 133 128 127 123 122 120 121 122 122 121 121 121 120 118 117 116 115 115 115 115 114 112 112 112 112 111 108 105 103 98 95 88 84 82 83 83 82 81 80 78 78 79 78 79 79 
155 152 151 151 153 152 153 151 151 149 149 148 147 144 142 141 142 138 137 133 130 127 125 123 124 121 121 122 125 121 120 118 115 115 113 113 112 111 111 112 113 110 109 110 114 108 105 103 103 97 91 86 79 80 81 82 85 81 80 79 78 78 78 78 78 
152 150 152 151 150 150 149 147 147 145 146 145 144 142 141 139 137 136 135 132 130 126 125 122 121 120 120 120 120 121 121 118 117 115 114 113 111 108 109 109 108 107 106 106 105 104 104 101 101 98 96 88 87 80 79 79 80 81 81 80 80 79 78 79 79 
153 150 152 150 150 148 147 145 146 143 143 141 140 138 136 134 133 132 132 129 127 123 122 119 119 117 117 118 119 119 122 118 118 115 114 112 110 109 109 106 105 103 101 102 102 100 98 99 100 97 95 90 90 83 81 79 79 79 78 79 81 79 79 79 81 
150 148 148 148 148 146 145 143 142 141 140 137 136 135 134 131 130 129 128 127 125 119 118 113 113 113 115 116 115 117 116 116 118 116 114 112 111 109 107 103 103 101 100 99 98 97 99 99 98 96 94 90 88 84 83 80 79 79 79 80 80 79 80 80 82 
150 146 146 145 147 144 142 140 139 138 136 133 131 131 130 128 125 125 124 123 123 118 114 111 107 110 112 112 113 114 114 115 119 114 113 111 112 107 106 102 101 99 96 97 97 98 100 100 101 96 91 88 84 83 81 80 79 79 80 80 83 82 83 83 87 
144 143 142 140 141 141 140 138 138 136 134 130 131 130 128 126 125 122 121 121 119 117 115 110 112 111 109 109 111 112 112 111 111 111 111 110 107 103 104 101 101 98 97 96 97 99 99 100 98 96 94 89 88 84 82 81 81 79 80 80 81 83 82 82 85 
140 139 138 137 140 137 136 135 136 133 131 130 131 128 126 124 124 120 118 118 117 115 113 112 114 111 111 110 111 111 113 109 108 107 107 106 104 102 100 100 99 96 93 95 97 98 101 98 96 94 92 90 91 84 80 82 85 83 83 82 83 83 83 84 86 
138 137 135 133 133 132 132 130 131 131 131 129 128 127 125 123 122 118 119 117 116 114 112 111 111 111 111 112 111 111 109 107 107 104 104 103 103 102 101 100 99 97 96 95 95 97 97 97 97 94 93 91 88 83 86 85 86 87 86 83 84 85 85 85 85 
138 134 132 132 132 130 129 129 129 128 128 126 127 124 122 121 123 119 117 116 115 111 108 108 110 109 109 110 113 110 108 107 107 105 104 102 100 101 100 100 101 98 96 95 95 95 97 96 96 94 92 90 87 86 85 87 93 90 90 87 87 87 87 86 86 
134 131 132 132 131 130 130 129 127 125 125 123 124 123 122 119 119 118 117 115 112 109 108 105 105 106 107 108 107 108 108 107 107 106 105 103 103 102 101 100 99 99 98 96 95 94 95 96 96 94 93 91 91 89 88 88 88 91 91 88 90 90 88 86 87 
134 130 129 130 131 129 129 128 126 124 125 122 122 120 122 119 118 116 114 111 110 106 104 102 101 102 104 104 105 105 107 107 109 106 105 104 105 103 102 100 100 98 97 95 96 95 96 96 97 95 94 93 93 91 91 90 91 92 93 92 93 91 91 89 90 
131 128 129 128 128 129 128 128 126 122 122 120 118 115 116 117 118 115 112 106 106 104 102 98 97 98 98 99 101 103 104 108 107 107 106 103 104 104 103 101 100 98 96 93 94 96 96 98 98 97 95 94 93 92 92 90 91 93 93 95 94 93 91 89 90 
132 128 126 126 127 127 127 126 128 122 120 117 113 111 112 114 119 113 109 105 102 99 96 94 90 95 97 97 100 100 103 105 109 106 106 105 107 104 102 100 100 97 95 93 92 94 96 97 101 97 95 94 94 92 93 92 93 94 96 96 96 93 92 91 91 
128 127 127 125 125 125 125 123 122 118 118 115 113 107 107 108 107 109 108 104 102 96 95 92 94 95 93 94 95 96 98 100 101 104 105 105 105 104 102 98 98 96 95 94 94 94 93 95 94 95 96 94 94 91 92 93 94 97 97 98 96 94 93 92 92 
126 125 125 123 124 123 125 121 120 116 114 112 111 105 102 102 102 102 103 100 99 94 90 91 94 95 96 94 93 95 98 98 99 100 102 103 105 103 101 98 99 95 93 92 93 91 93 93 93 93 94 94 96 93 92 93 94 97 102 100 98 96 93 93 94 
124 123 121 118 119 120 120 119 118 113 112 108 105 101 100 97 96 96 95 94 93 91 91 89 92 95 93 93 93 94 94 96 96 97 99 103 103 102 100 97 95 93 92 89 87 86 89 92 92 91 93 95 95 94 95 95 95 98 98 102 102 99 97 94 96 
123 120 118 117 116 117 117 116 116 112 110 105 100 97 93 92 91 90 90 88 85 87 87 90 96 94 93 92 90 92 93 93 96 96 100 102 105 100 98 95 92 91 89 86 83 84 85 89 93 92 94 95 98 96 98 97 98 98 101 101 105 101 100 98 100 
120 119 119 117 117 116 115 114 112 110 109 105 102 95 92 88 87 86 85 85 86 86 86 90 89 93 93 92 92 91 89 90 92 94 97 100 98 97 98 95 94 90 89 86 86 85 84 86 87 90 93 96 95 96 99 100 98 97 98 99 100 100 102 101 100 
119 118 119 117 117 115 114 111 109 108 107 103 101 94 87 85 83 82 81 83 86 86 86 88 89 91 91 91 93 91 88 89 92 94 99 98 97 96 96 93 93 90 88 86 87 84 82 85 87 90 94 94 95 98 102 101 100 100 100 100 101 102 105 101 99 
117 115 116 117 115 114 112 110 110 107 105 101 99 94 91 84 81 81 82 83 83 86 86 87 89 91 91 91 92 92 91 89 90 92 93 97 97 95 93 91 90 89 88 86 86 85 85 85 86 90 90 92 96 100 99 103 104 103 102 103 104 105 103 101 97 
117 115 115 114 113 111 109 109 109 106 103 99 96 93 88 83 74 80 82 83 84 86 88 89 93 92 93 93 95 93 93 92 94 93 94 96 98 93 91 88 85 86 87 86 85 84 83 85 88 89 91 94 99 100 101 104 110 106 105 106 109 107 106 100 92 
115 115 115 114 113 111 111 110 108 106 104 99 99 95 93 86 88 84 83 86 85 86 86 89 88 91 91 93 92 92 95 95 94 95 94 95 92 89 89 87 88 85 86 87 85 85 85 84 86 90 91 94 95 100 102 105 104 106 109 110 110 111 109 103 101 
115 114 114 113 114 112 111 110 109 106 103 101 102 98 95 94 97 92 91 88 86 86 85 86 86 88 89 90 91 93 98 95 95 94 95 93 92 88 85 86 90 88 89 86 84 85 87 86 87 90 94 93 95 99 104 105 106 109 112 113 116 115 115 110 108 
114 113 113 113 112 112 112 112 110 107 105 101 102 101 101 100 100 98 96 92 91 87 88 87 86 86 88 89 91 92 92 94 94 93 92 93 91 87 88 85 86 88 88 87 86 85 85 86 87 90 90 92 95 100 101 106 108 112 112 117 118 119 118 116 114 
115 112 111 111 112 112 113 112 112 109 106 103 103 103 104 104 107 101 98 96 96 93 92 90 88 89 92 92 95 93 94 93 92 91 90 91 92 88 88 86 87 87 87 86 86 85 86 86 85 89 93 94 96 100 104 108 112 114 116 120 126 122 122 120 118 
112 112 112 110 112 114 114 114 113 111 108 103 104 105 105 106 104 102 102 99 99 97 97 95 94 91 91 94 93 94 93 93 93 91 91 90 88 86 87 87 86 86 86 86 86 85 87 88 89 91 92 96 98 103 105 111 111 116 118 122 121 124 125 124 123 
109 110 112 111 113 115 118 115 114 111 108 105 105 105 107 106 105 102 100 101 103 100 100 99 99 96 94 94 94 93 92 93 94 92 91 89 89 86 86 85 85 84 85 86 88 87 89 90 92 94 97 99 101 106 112 113 113 118 122 123 124 126 127 127 127 
108 109 110 112 113 116 114 114 115 111 109 106 105 103 105 107 107 103 104 103 103 103 103 103 103 101 99 96 95 92 93 94 93 92 90 86 86 83 84 82 81 80 83 86 87 89 89 91 93 96 97 102 104 108 111 119 121 122 123 127 128 129 129 131 132 
106 107 111 112 115 115 115 114 117 111 108 106 103 104 106 107 112 107 106 105 106 104 104 104 108 102 100 97 98 95 94 94 96 92 89 87 85 83 82 80 78 81 83 86 91 89 90 92 96 97 99 104 111 113 118 122 131 127 130 131 134 133 133 134 138 
105 105 107 111 111 114 113 111 110 109 109 107 106 105 104 106 106 107 108 107 107 106 104 104 103 102 100 96 98 97 96 93 93 92 92 88 87 84 82 79 82 84 83 86 85 89 91 94 95 100 101 106 107 115 117 123 122 126 130 133 134 137 137 136 139 
105 106 108 109 110 111 113 109 107 106 106 106 107 105 104 105 105 106 108 108 109 106 103 103 102 100 97 97 99 97 99 95 94 92 92 89 87 85 82 82 85 86 87 86 84 89 92 96 99 101 103 107 110 116 121 120 121 126 133 134 137 138 141 140 143 
107 108 107 108 109 108 107 105 106 105 105 105 104 104 105 106 105 106 106 108 107 106 105 103 102 101 99 97 95 94 96 97 96 93 91 90 89 87 86 85 85 88 87 87 88 91 93 99 99 102 105 111 113 119 116 118 121 127 128 134 137 140 141 143 145 
109 108 110 110 112 108 106 103 102 104 105 104 103 103 104 105 107 105 106 107 109 105 104 103 104 101 98 96 93 94 96 96 96 92 90 89 89 87 86 86 88 88 88 88 88 93 98 101 106 106 110 114 121 120 120 120 120 127 132 136 144 143 147 147 151 
108 107 109 110 108 106 104 102 104 105 103 103 102 101 102 104 104 104 104 105 104 104 104 103 103 101 100 96 95 93 94 95 94 92 92 90 89 87 87 87 88 89 89 90 91 95 97 104 105 109 112 115 116 120 122 122 125 131 131 137 136 143 146 149 151 
109 108 111 108 107 104 99 101 104 104 105 104 102 102 103 103 104 103 102 103 102 103 102 103 104 101 99 97 96 94 95 94 93 92 92 89 89 86 85 87 90 90 91 92 94 98 103 106 109 113 119 118 120 123 128 127 130 134 139 137 135 142 148 151 153 
106 105 106 107 106 104 103 99 100 103 104 106 106 105 104 103 104 103 103 103 103 104 103 103 102 100 99 97 96 95 94 94 93 91 90 87 87 84 86 86 88 91 92 94 95 101 103 111 114 118 117 121 122 125 125 130 132 136 136 139 141 145 146 155 158 
105 105 105 105 105 103 102 100 100 102 105 106 108 106 106 106 109 105 105 104 105 104 104 103 103 100 97 96 96 94 92 92 92 91 90 87 86 85 87 88 92 92 93 94 96 101 107 114 124 121 122 122 124 125 128 130 134 136 139 140 143 146 152 157 166 
