221 215 213 212 211 204 199 194 188 189 190 194 201 200 203 204 208 200 198 195 194 194 195 194 194 187 180 176 172 169 164 159 152 155 155 154 153 152 153 151 148 147 145 144 144 143 145 147 153 150 150 148 148 144 139 133 125 122 117 116 115 109 107 102 98 
214 213 213 212 209 204 204 196 196 189 189 192 192 196 199 201 198 195 196 193 194 193 193 195 192 188 185 178 178 172 169 162 162 158 155 156 153 151 152 153 151 149 146 144 143 142 142 144 145 149 148 147 147 145 143 136 134 124 121 118 114 107 107 103 102 
209 209 209 209 210 206 205 201 201 192 188 190 191 194 200 196 194 190 188 189 192 191 192 193 192 186 180 180 182 174 170 166 165 159 155 154 153 152 153 152 150 147 145 143 142 140 138 141 142 144 144 147 149 146 144 140 139 127 118 116 114 107 103 104 105 
206 206 206 207 207 206 205 202 200 193 193 189 188 189 189 191 188 184 186 183 184 188 190 193 191 186 186 181 178 175 174 169 167 161 160 155 156 154 153 153 151 146 145 142 141 139 140 140 140 141 144 148 146 146 144 141 138 129 126 116 112 107 110 107 109 
205 203 202 204 207 205 205 201 200 194 191 189 189 187 185 183 179 181 183 181 180 184 188 190 195 188 185 181 178 175 172 171 171 164 161 159 160 155 152 152 152 148 145 142 138 139 140 139 142 142 145 147 149 145 143 140 139 130 122 117 110 111 112 112 116 
201 202 202 203 201 202 202 199 196 192 192 188 187 185 181 179 180 178 179 180 181 183 183 186 186 188 186 181 181 177 176 173 170 164 164 163 160 155 155 151 152 151 148 144 142 139 137 137 140 143 144 147 144 143 143 140 138 132 128 120 121 117 115 116 117 
198 197 198 198 198 199 201 194 191 188 188 185 185 180 174 178 181 179 179 179 179 182 185 184 184 185 182 181 181 178 178 174 173 166 161 163 164 157 154 153 154 150 145 143 143 139 136 138 140 143 146 144 141 141 141 139 137 131 124 124 127 122 120 120 119 
192 191 194 196 196 196 193 188 186 181 182 180 179 178 179 178 178 180 179 178 178 182 182 184 187 187 183 181 180 178 177 175 174 169 168 164 161 157 158 156 155 151 149 142 141 138 141 140 142 145 144 144 143 142 141 141 137 131 130 125 125 126 125 125 124 
187 189 192 193 196 193 191 185 177 178 177 175 172 173 175 177 183 179 180 177 174 180 184 184 192 186 182 180 179 176 176 174 176 170 168 164 163 159 158 157 159 152 149 143 139 141 144 145 150 147 147 145 143 144 143 141 136 133 129 129 128 127 124 126 129 
187 188 188 191 190 191 191 185 186 180 177 172 172 170 170 174 172 176 178 179 179 180 177 179 179 183 183 179 178 174 174 171 171 167 167 162 163 161 159 156 155 150 149 144 145 145 144 148 146 148 148 146 148 148 146 144 142 138 136 134 132 131 128 126 128 
186 187 189 188 187 189 192 187 189 182 179 172 170 166 164 166 166 172 177 176 177 176 177 175 172 176 178 177 180 174 172 170 171 167 164 163 164 161 159 156 156 150 146 144 144 143 145 146 147 149 151 151 154 151 152 147 145 140 137 135 135 132 130 129 131 
185 186 186 188 188 188 186 185 184 180 177 169 168 162 164 163 164 170 169 173 172 172 172 172 172 172 172 173 174 173 173 169 169 167 166 164 163 161 160 156 153 148 147 142 140 139 143 147 149 151 151 153 152 151 151 149 148 142 140 137 136 135 133 132 130 
184 184 186 187 190 186 185 183 182 177 173 167 163 161 161 161 162 165 167 167 166 168 170 169 170 169 171 170 172 170 171 168 170 166 165 163 165 161 159 154 150 147 142 140 136 139 142 146 155 152 154 153 156 152 151 149 149 142 139 137 137 135 132 130 129 
181 180 182 184 183 183 185 182 180 175 172 165 166 161 160 161 160 161 161 163 165 167 167 167 166 165 166 167 166 165 166 165 164 163 161 158 160 159 158 152 152 149 146 140 142 141 140 143 144 151 150 149 151 153 151 150 146 140 140 138 137 136 133 129 127 
179 179 182 181 180 182 185 180 178 173 168 166 167 160 155 158 159 159 158 162 164 166 168 165 163 164 165 164 162 162 163 159 158 156 154 154 158 155 156 151 151 147 145 144 147 142 141 142 142 145 146 147 150 148 147 146 146 139 134 136 137 134 132 127 124 
177 176 177 179 180 182 178 177 176 173 170 164 161 157 159 158 158 160 162 164 164 166 164 162 164 165 163 164 161 158 155 150 150 150 150 149 148 148 149 148 147 145 147 146 144 141 142 142 143 144 143 146 145 144 144 142 141 138 138 135 134 132 129 123 119 
177 176 176 177 180 177 176 173 172 169 166 162 158 158 157 159 161 163 165 166 169 166 166 162 161 162 163 161 159 154 150 145 138 143 143 145 144 144 144 143 141 143 146 145 147 142 140 141 145 143 143 144 145 143 143 141 140 137 134 135 135 129 126 119 111 
177 178 176 176 174 172 172 170 170 166 164 161 162 160 160 160 162 166 167 168 166 165 166 162 162 161 160 158 155 152 149 144 145 141 141 144 142 142 142 142 142 143 143 142 141 140 140 139 139 142 143 143 142 142 141 139 139 137 137 136 132 126 124 118 115 
177 176 176 175 173 170 167 168 168 164 160 160 162 162 164 163 166 169 174 169 167 167 169 164 162 160 161 154 149 146 143 144 147 144 144 141 140 140 143 139 140 142 146 141 139 137 135 136 137 139 144 141 140 140 141 139 140 137 136 135 133 126 119 119 118 
174 174 175 176 174 171 171 170 166 163 164 160 160 162 162 163 167 171 168 170 171 168 166 165 163 159 156 149 148 143 144 143 143 145 142 137 138 138 136 134 136 140 139 139 141 136 136 136 134 136 135 137 137 137 137 137 138 136 137 136 132 127 127 122 122 
173 173 173 174 175 172 172 170 167 166 165 163 161 161 162 164 171 169 168 169 172 166 164 162 159 157 154 148 142 141 141 141 144 142 139 137 135 134 134 132 130 134 138 137 143 136 135 133 131 132 133 132 132 133 135 136 141 137 137 133 130 127 126 124 126 
175 175 174 174 173 171 172 171 172 171 169 166 165 161 161 161 162 167 167 168 164 161 162 160 161 159 155 150 148 139 138 139 140 143 141 138 136 131 131 130 130 128 129 131 131 132 132 130 130 128 129 129 129 128 130 134 134 136 135 130 130 126 125 124 124 
177 176 177 175 174 173 172 172 175 173 172 168 168 164 163 160 159 162 164 163 162 158 156 159 161 157 155 150 149 141 135 138 139 140 142 138 137 132 128 127 128 126 127 126 126 126 126 126 128 126 128 127 126 127 129 132 134 135 134 130 129 125 122 122 124 
177 175 176 177 175 175 173 173 173 174 172 169 167 164 162 157 158 158 158 160 159 156 159 161 158 155 154 147 146 141 142 140 138 139 137 137 136 133 129 123 121 121 122 123 124 123 122 122 121 121 123 125 126 128 130 134 136 137 132 128 126 123 123 121 121 
181 177 176 175 174 174 173 172 173 172 171 168 165 163 161 158 156 156 156 157 158 156 157 159 162 155 153 147 141 140 139 139 140 138 136 135 134 129 125 121 114 117 118 120 123 120 118 118 116 118 121 122 125 126 132 135 144 134 129 125 121 121 120 119 119 
178 178 176 174 175 175 173 172 172 172 172 170 168 164 163 160 159 157 156 156 155 154 156 158 154 151 151 147 147 142 141 140 139 137 137 135 132 127 127 123 122 116 116 119 118 119 118 116 116 117 117 120 120 122 125 130 127 126 128 123 124 121 119 116 117 
175 175 172 172 175 173 173 171 171 171 174 171 170 166 163 161 161 158 157 155 155 154 155 154 152 150 147 147 148 143 141 141 142 139 139 135 132 129 127 126 126 120 117 119 119 118 117 115 115 116 117 117 117 121 125 123 121 121 120 121 125 121 119 117 117 
174 175 172 169 170 172 171 170 170 169 170 171 171 169 167 163 161 158 156 154 154 155 153 152 152 150 150 149 145 142 144 144 141 140 139 137 135 132 130 128 127 124 124 122 119 117 117 115 114 116 115 114 117 120 117 116 118 118 118 118 119 121 119 118 116 
174 173 171 168 168 168 167 167 171 169 170 170 172 168 166 164 162 157 154 153 152 153 153 152 151 151 150 148 145 143 144 143 141 140 138 136 133 132 130 129 129 127 125 123 121 118 119 115 111 113 115 114 118 115 115 114 114 116 118 116 118 117 115 114 113 
172 173 171 166 166 165 162 161 163 168 168 170 168 168 168 166 162 156 156 153 155 154 153 153 153 153 152 148 147 144 143 143 141 141 139 137 136 133 132 132 130 130 128 126 123 118 118 116 115 110 110 112 111 110 111 113 113 114 113 113 114 116 114 112 111 
169 170 172 166 164 160 156 157 158 162 166 166 167 165 167 163 162 158 156 156 159 157 155 155 156 156 158 151 148 144 142 140 137 138 140 138 138 134 133 131 131 128 128 124 123 119 120 116 116 112 108 109 109 108 106 109 112 111 112 110 112 112 113 110 109 
166 168 166 165 164 158 157 154 154 157 159 164 162 161 161 158 159 160 160 158 160 162 160 158 158 158 155 151 151 145 143 138 136 135 135 137 135 132 131 128 127 125 123 119 120 117 117 115 116 115 113 110 109 110 108 108 106 106 106 105 107 109 108 107 106 
163 162 162 162 162 156 152 151 150 154 157 159 158 159 160 156 153 157 161 162 165 163 161 161 162 159 157 153 150 146 141 136 132 132 133 133 132 130 127 125 123 122 118 117 117 116 116 115 116 114 112 111 111 108 107 106 107 104 102 101 102 103 104 103 103 
159 157 158 160 158 154 153 151 153 155 154 157 156 159 157 156 158 157 159 165 164 167 166 163 162 159 158 154 153 148 143 136 137 131 131 133 131 129 128 123 124 122 118 115 115 115 113 114 114 113 113 111 109 107 106 104 102 101 100 98 97 97 97 98 98 
159 157 154 156 156 152 148 151 154 154 154 155 154 157 157 159 162 161 162 165 165 168 170 167 167 162 158 155 153 147 140 139 140 134 130 132 131 129 129 125 124 119 115 113 113 110 106 109 113 113 114 110 109 106 104 101 99 98 96 93 92 92 93 94 95 
159 158 157 155 153 152 153 151 151 154 155 157 157 160 160 163 164 166 166 168 169 172 169 171 168 165 161 155 153 148 146 141 139 136 136 134 131 129 128 127 124 118 117 112 110 106 108 106 108 112 109 106 107 106 103 99 99 97 93 89 88 89 89 90 91 
162 159 157 156 154 153 153 152 152 154 156 157 157 161 164 167 171 168 169 171 177 172 171 170 169 163 158 156 154 149 145 143 142 138 134 133 133 128 126 124 122 116 114 110 108 106 107 106 109 106 106 104 105 101 100 97 96 93 90 86 81 84 85 87 89 
162 159 160 160 157 154 152 153 153 155 157 160 161 164 166 170 166 166 169 172 169 169 171 170 167 161 161 157 155 150 148 144 143 140 136 131 129 127 125 122 118 113 111 109 107 104 103 103 102 100 101 101 98 94 95 94 94 92 90 86 86 84 82 85 84 
166 163 161 160 160 155 150 152 152 155 162 161 165 168 173 169 166 166 168 169 168 168 168 167 166 162 160 156 156 150 147 144 144 138 134 127 124 121 120 115 114 107 103 102 103 99 98 97 98 96 96 94 92 89 88 90 93 89 89 85 84 81 79 79 80 
167 167 165 161 162 159 157 153 151 153 155 160 164 170 168 169 171 167 168 170 168 169 167 165 166 164 161 154 152 148 147 142 139 134 131 122 119 114 111 105 104 100 99 94 95 94 94 92 91 91 90 89 86 84 86 88 85 85 85 83 81 79 77 74 75 
169 168 166 166 168 162 159 156 151 155 158 161 166 168 171 171 176 170 169 168 167 168 167 167 170 164 160 153 148 145 142 139 136 130 124 118 109 108 104 99 93 93 91 91 90 88 88 87 85 85 85 81 77 79 81 81 82 80 79 76 73 74 74 73 73 
171 170 170 170 168 165 165 161 161 159 158 162 162 167 168 171 170 171 172 168 169 169 168 166 165 164 162 153 152 143 141 137 135 128 125 119 116 108 104 97 97 90 90 89 86 83 84 85 84 82 79 75 76 74 74 75 74 75 73 71 73 73 73 73 72 
174 174 174 174 173 169 168 166 167 164 163 163 162 166 170 170 168 170 173 170 172 170 172 166 164 162 162 155 153 144 138 136 135 127 119 117 116 107 104 99 98 91 88 85 82 80 81 80 81 77 77 73 71 70 70 69 68 67 64 68 71 71 74 72 71 
179 178 178 179 176 172 172 170 169 167 167 165 164 165 167 171 170 169 170 170 170 169 167 164 163 159 157 152 152 145 143 135 133 126 122 114 108 103 103 99 97 91 88 82 80 77 75 73 73 71 71 69 66 65 65 64 64 64 65 66 66 67 68 70 69 
185 182 182 181 182 177 176 173 172 170 169 168 166 170 173 173 173 172 173 171 170 168 165 162 158 155 153 150 150 143 140 136 136 124 115 108 98 97 95 94 94 88 84 80 76 73 70 69 68 67 66 61 54 58 60 60 61 61 63 64 67 65 67 67 68 
187 186 185 184 182 179 178 177 175 173 173 173 174 177 176 178 176 176 174 171 172 170 166 162 159 152 149 145 145 140 140 133 128 120 117 106 104 93 90 88 87 84 83 78 77 70 69 67 66 63 61 57 59 55 56 58 57 58 60 60 61 61 63 65 65 
192 191 187 186 185 181 176 177 176 175 175 175 177 181 186 183 180 179 178 174 174 168 163 159 157 149 143 142 143 138 137 127 122 114 108 105 104 93 84 83 81 79 78 76 77 70 66 64 64 60 57 57 59 56 57 56 55 57 61 59 60 59 61 62 64 
201 199 194 189 188 185 183 179 178 179 178 178 180 185 184 188 188 182 179 176 174 168 165 157 152 144 145 140 137 132 129 119 117 109 110 105 100 92 90 79 78 75 75 72 72 69 67 61 59 57 58 57 56 55 56 54 55 56 54 56 56 55 57 59 60 
212 204 199 195 194 189 185 183 180 181 179 180 184 185 188 189 198 186 180 176 174 167 163 155 145 144 141 138 135 130 123 116 104 107 105 101 96 91 85 81 75 76 74 72 70 68 64 60 52 55 56 56 57 56 58 56 56 52 52 52 52 53 55 56 58 
208 207 205 200 199 195 194 190 190 188 184 182 181 184 184 185 184 184 182 175 173 166 165 157 156 148 142 136 135 130 127 118 118 110 104 101 100 94 92 86 85 80 75 73 72 69 68 63 62 58 56 56 55 56 56 56 52 47 49 51 51 53 52 54 52 
206 205 203 203 204 200 199 197 197 192 188 184 180 182 184 182 179 178 173 173 174 167 164 160 158 149 142 136 135 130 127 123 121 112 104 102 102 98 95 91 90 82 75 74 74 71 70 67 66 62 59 56 54 55 56 51 48 44 42 47 50 49 50 48 46 
207 205 204 205 204 205 203 202 201 196 193 187 183 180 179 180 178 176 174 172 170 166 167 164 159 150 145 134 133 129 129 127 124 114 113 104 104 103 100 95 92 85 83 75 75 73 72 71 68 65 61 57 55 54 50 47 45 41 43 45 44 46 45 43 42 
210 206 203 204 205 205 204 205 209 200 193 186 179 178 177 176 175 172 172 169 170 166 165 162 161 149 141 134 128 127 126 126 128 119 114 109 107 104 101 96 95 88 83 79 77 76 73 71 68 64 59 55 51 50 47 43 39 38 38 41 45 43 42 39 37 
207 206 206 205 206 206 208 208 205 202 197 188 187 179 175 173 172 168 167 165 166 166 163 158 154 144 143 135 135 126 125 124 124 122 120 113 111 105 102 96 95 90 89 84 84 81 79 75 72 65 61 54 54 49 45 39 40 37 37 37 37 41 39 36 34 
207 206 205 207 210 209 213 210 208 200 191 189 189 179 172 172 171 167 163 163 164 161 160 153 149 141 133 134 138 129 123 124 127 123 119 115 114 106 101 97 95 90 88 87 91 86 86 80 75 68 60 58 57 49 43 39 38 36 35 34 33 35 36 33 31 
209 208 207 209 207 210 211 214 211 202 198 190 186 179 179 173 170 166 164 161 157 155 153 147 144 138 137 132 130 129 130 125 126 124 120 114 111 106 105 99 96 90 90 87 87 87 87 85 83 73 69 61 57 49 45 36 34 34 34 34 33 33 31 32 29 
214 208 206 207 207 208 212 212 216 203 195 191 187 181 177 174 172 165 159 157 152 150 147 142 133 133 131 130 129 127 128 128 133 123 117 112 108 104 101 97 94 92 91 87 87 85 86 84 88 75 69 63 58 48 39 34 25 30 31 31 31 29 27 27 26 
208 207 208 206 205 205 206 208 204 199 200 192 190 181 180 175 173 166 163 156 155 148 146 141 140 133 130 128 127 125 127 128 123 121 119 111 110 103 100 96 97 95 91 86 86 83 81 79 78 73 72 64 59 46 45 37 38 32 30 29 27 25 26 23 24 
205 205 206 204 205 204 205 202 199 196 196 192 193 184 177 176 176 167 158 157 158 149 145 142 141 135 129 127 126 125 127 122 118 114 111 109 109 101 94 95 98 94 90 86 85 81 77 76 74 69 64 60 58 47 39 41 46 37 36 30 26 25 26 23 23 
203 204 203 202 203 202 201 199 198 193 193 189 188 186 185 179 176 169 165 157 153 148 149 143 143 138 133 127 126 124 121 117 116 109 109 106 104 101 99 94 96 96 91 84 83 79 78 74 71 66 63 54 52 47 47 43 41 37 36 30 30 26 24 23 21 
202 202 203 202 203 199 198 197 197 192 191 188 184 184 184 181 182 171 161 157 151 149 149 145 147 137 129 126 125 121 118 114 113 107 104 102 100 97 93 94 100 93 89 84 81 78 76 72 69 63 59 51 44 43 42 42 46 36 31 29 28 26 24 22 19 
200 201 199 201 199 196 197 194 194 190 190 188 188 184 184 182 179 173 169 159 158 151 148 144 141 136 133 125 124 120 115 110 108 103 102 98 97 94 93 90 90 90 89 82 82 77 74 70 68 61 57 48 49 41 41 40 36 32 32 29 28 26 25 23 20 
197 197 194 196 196 196 197 194 194 190 188 188 190 186 187 182 178 171 164 161 161 151 146 141 136 131 126 124 123 115 108 106 103 99 94 94 95 92 89 87 88 87 85 81 82 75 70 68 66 59 51 48 49 43 40 36 32 27 22 25 27 24 25 22 19 
197 197 194 193 193 196 194 191 191 189 188 186 185 183 184 181 178 170 167 160 154 148 147 138 136 129 128 125 120 112 111 105 100 96 96 92 91 91 88 83 84 85 83 78 77 73 73 67 67 61 57 47 46 43 40 33 30 25 25 23 20 20 22 21 18 
197 195 192 192 192 194 194 191 188 187 186 185 183 182 182 180 177 169 162 156 147 145 141 137 132 128 125 123 119 112 107 102 94 94 93 90 87 87 85 82 79 81 81 77 73 72 70 70 73 62 54 48 45 42 38 32 25 23 21 20 16 18 20 18 15 
